ply
format ascii 1.0
comment Created by Open3D
element vertex 1821
property double x
property double y
property double z
end_header
157.255 280.679 125.534
172.498 283.35 118.589
125.209 348.062 141.309
128.09 118.827 154.65
120.759 209.994 187.218
138.875 218.676 139.593
109.052 96.7572 166.561
134.728 153.333 185.258
141.335 180.853 183.508
143.525 282.306 57.7992
176.852 282.384 182.405
116.404 357.676 179.474
143.284 157.009 149.191
130.74 149.168 203.599
111.715 136.616 63.3153
166.046 246.657 90.1374
128.323 129.728 189.159
130.06 127.559 90.361
161.03 284.795 101.285
72.581 147.023 252.1
117.119 102.535 143.091
139.38 297.428 66.7771
135.234 152.157 154.483
164.878 236.573 92.2587
124.593 146.753 60.958
116.713 343.099 97.1629
164.202 216.461 155.464
130.09 221.641 270.641
107.912 359.855 184.891
133.364 134.259 144.228
151.441 187.577 115.893
110.443 145.608 241.406
129.649 125.491 138.332
156.865 248.461 235.506
147.258 156.166 135.75
82.8333 164.142 201.655
177.995 272.208 170.149
142.391 223.412 251.248
89.7545 117.219 99.4057
133.505 155.17 66.6418
165.739 235.776 200.195
140.313 151.104 141.875
132.656 200.1 121.356
102.905 333.213 80.3411
97.4278 155.347 105.897
117.055 103.569 128.285
123.857 242.831 273.763
134.599 329.864 178.36
101.464 94.5528 141.289
156.12 210.874 104.553
165.162 268.24 216.653
134.571 146.679 81.2066
88.2737 113.071 220.278
160.757 231.205 220.808
162.03 301.798 118
140.521 184.265 199.639
163.768 209.471 134.274
140.58 316.028 186.722
134.012 256.354 261.07
114.226 347.91 209.268
115.989 105.536 188.749
110.087 144.439 57.1665
171.634 297.337 144.858
141.427 230.228 106.397
177.943 238.447 106.481
124.757 212.812 31.9427
125.805 126.323 199.651
77.6198 169.071 275.514
131.349 140.18 161.599
139.433 166.647 180.65
149.541 253.508 248.963
146.568 175.979 93.0807
127.976 138.129 196.963
99.9054 297.594 54.9338
157.078 231.298 69.8708
159.025 305.987 128.314
132.319 126.187 168.883
138.17 229.84 145.695
136.249 145.851 91.4555
170.8 291.409 119.398
118.925 128.615 72.7358
91.0967 338.215 95.246
139.104 187.399 54.4825
166.958 224.717 172.55
122.672 232.006 271.317
126.595 202.793 164.344
157.634 301.868 177.169
122.417 148.441 212.329
113.138 348.411 109.057
100.4 324.285 129.087
118.792 205.597 267.903
82.8732 137.183 246.797
85.8094 115.86 119.572
93.6569 143.031 124.995
120.608 172.705 46.8014
131.775 334.872 150.874
147.344 312.4 175.216
105.03 99.2463 130.125
86.7585 363.066 161.837
142.493 194.186 190.927
147.424 159.672 110.7
125.876 337.423 180.222
168.934 245.246 168.641
113.701 355.963 125.363
122.281 331.907 198.993
125.828 132.944 151.808
148.085 246.916 253.012
122.292 107.794 158.103
116.535 223.933 29.2222
119.818 305.96 240.338
142.978 216.098 257.876
125.813 292.45 243.167
94.2863 199.451 44.9626
78.885 346.891 188.874
142.656 242.775 116.642
157.401 278.316 81.5433
145.913 147.013 132.91
122.28 110.943 129.666
150.147 170.845 106.337
111.3 309.452 161.513
136.485 256.258 141.819
154.485 3.77304 54.9207
126.691 130.948 100.274
144.295 312.264 97.0577
133.59 218.345 36.3029
152.286 182.526 103.278
152.007 248.001 56.4267
144.568 239.484 256.017
92.2467 143.24 72.191
145.443 180.682 82.979
118.837 331.212 83.0619
142.863 182.39 99.7651
106.721 361.181 136.401
131.309 211.265 168.894
145.44 150.557 106.117
174.83 255.598 170.449
136.704 223.388 114.543
102.528 317.089 67.8324
153.438 288.961 219.4
95.7628 239.905 40.5829
174.04 270.056 177.144
120.38 137.917 217.118
122.821 333.07 94.9289
110.924 361.626 150.248
125.208 113.206 171.632
140.19 184.547 210.266
105.718 227.478 284.59
115.845 285.29 259.055
161.137 291.386 200.996
142.01 169.242 163.079
160.198 220.965 111.122
177.206 274.081 144.752
81.5523 356.816 169.26
165.25 301.597 132.508
172.651 244.35 179.07
153.559 242.713 67.8343
115.525 352.698 135.11
158.22 204.778 173.922
164.042 220.075 203.626
124.507 111.879 111.31
80.1372 112.174 161.398
97.3943 301.385 71.125
122.238 351.517 190.172
159.338 304.009 149.34
139.93 253.32 42.0652
168.197 227.446 102.219
158.377 369.416 38.5413
84.7744 102.225 151.378
88.6592 99.0455 170.448
57.4139 95.3393 83.1729
144.801 144.67 121.22
126.202 126.241 81.0711
90.7344 99.2752 132.743
117.83 277.942 264.44
130.598 298.417 65.793
145.669 313.261 107.321
155.543 271.659 75.5709
169.718 266.655 98.1119
148.01 188.57 179.113
144.826 301.957 88.207
128.567 197.957 37.6842
143.981 261.066 46.9025
126.056 310.136 227.753
67.3562 95.1914 78.98
103.817 96.1058 158.888
174.739 278.332 168.679
174.425 292.63 161.662
125.273 277.951 95.713
119.895 191.578 95.2309
134.534 323.316 120.198
151.318 263.849 61.8408
133.413 237.181 34.3693
131.237 319.151 86.2019
84.8734 135.019 160.079
173.333 289.426 137.522
151.707 215.11 227.485
136.783 212.373 146.581
77.0242 174.253 234.834
108.356 192.569 277.914
166.15 386.402 15.0929
154 212.378 209.079
150.119 313.329 151.709
171.34 223.374 113.975
110.766 346.753 119.653
138.351 208.316 111.769
92.1959 143.204 110.207
96.5757 256.431 37.9558
138.801 213.51 129.656
143.601 299.928 77.964
72.0658 169.976 226.761
129.028 207.56 176.446
142.102 158.511 101.052
130.067 183.674 244.748
143.025 242.296 50.3669
144.411 297.858 218.974
81.556 179.962 275.648
149.497 303.371 204.55
171.032 228.28 122.523
177.782 243.33 114.506
137.46 183.812 219.928
153.308 255.552 63.3368
128.673 112.587 121.891
137.027 138.911 88.682
120.088 325.356 219.861
177.642 237.103 121.406
129.614 266.748 86.2659
169.669 255.972 91.4251
133.792 154.22 76.2188
154.308 264.578 239.092
131.183 323.165 179.944
98.868 357.885 191.925
132.597 148.3 190.826
134.322 164.942 204.022
145.841 295.089 71.6596
96.7618 112.889 223.432
51.6369 84.7183 102.038
120.649 176.917 103.652
123.211 136.275 174.217
125.885 286.617 255.983
139.652 144.254 101.412
121.755 104.03 113.679
107.389 169.305 171.064
121.728 197.832 252.764
88.8764 131.98 126.864
107.957 263.492 272.782
109.104 127.685 70.4105
89.7144 124.965 232.004
127.268 118.466 106.408
148.672 293.034 80.6439
88.231 152.631 259.694
151.309 259.48 245.187
117.361 234.774 28.3106
127.837 230.974 265.71
120.047 284.108 192.789
162.377 273.758 85.4753
136.749 256.276 161.309
149.921 241.634 52.9745
143.702 170.378 88.9188
132.342 9.78396 89.1628
149.072 280.404 68.8695
124.577 351.334 167.487
99.8225 213.449 221.039
145.99 201.158 210.866
88.4121 113.274 111.779
113.037 289.359 194.472
134.591 123.69 113.874
142.996 175.491 173.463
171.54 235.681 100.125
152.733 7.81808 76.5333
164.184 275.101 94.717
124.5 298.389 112.445
135.821 333.4 163.922
176.376 244.264 128.42
87.2387 362.428 144.468
144.055 230.901 118.249
145.89 186.66 72.2056
142.324 288.715 63.2308
153.667 202.624 180.547
135.055 281.168 247.668
123.683 193.777 156.742
139.685 233.536 38.5533
123.531 347.607 127.895
177.174 265.327 119.42
114.173 190.843 35.0934
106.302 109.564 207.495
150.998 273.569 236.291
93.9629 117.616 228.738
103.226 101.156 144.675
166.727 283.499 194.98
175.705 275.82 158.437
131.65 196.547 115.019
165.154 208.462 143.863
156.295 303.156 100.902
126.035 258.536 269.408
156.026 217.22 201.997
174.344 268.136 107.967
119.722 122.06 79.0814
135.341 289.864 54.7417
168.503 263.907 209.832
106.209 356.644 118.86
135.684 129.705 96.371
48.2805 72.5713 91.711
109.144 105.291 189.755
159.951 298.776 107.246
60.3125 56.9602 68.8707
101.587 307.219 253.875
122.771 141.943 208.46
121.484 284.316 97.4635
112.307 309.518 151.05
141.251 151.787 127.887
46.517 47.6183 92.0968
109.733 105.453 203.365
102.853 279.67 268.521
115.31 126.656 208.954
157.594 3.26521 69.3617
129.111 132.339 77.7405
126.76 119.575 99.2217
170.073 263.803 152.4
130.855 137.028 101.321
120.776 337.496 102.879
120.296 117.283 90.1664
127.19 345.259 151.784
120.401 292.629 45.4685
90.6505 95.8509 143.358
105.057 98.7152 120.473
120.4 314.203 224.25
159.035 385.732 20.617
149.208 203.302 195.202
101.318 160.74 98.2806
106.221 169.161 95.8899
95.6576 370.177 168.107
120.704 148.012 230.454
125.175 313.912 72.1234
142.184 142.122 110.143
118.097 104.455 150.402
161.965 208.568 157.18
164.712 215.597 172.128
106.281 302.412 193.892
109.533 99.6516 182.474
151.607 294.749 201.192
129.639 260.878 36.2058
167.427 235.792 164.641
125.061 297.115 54.2853
136.153 235.989 162.318
93.8206 165.793 54.8374
128.786 204.026 91.0121
101.124 173.784 260.6
141.69 3.84536 43.8098
145.345 265.855 55.4962
150.222 239.639 247.401
153.75 221.312 71.2555
125.89 3.21856 81.6497
130.64 252.267 31.7083
93.945 157.802 263.083
158.066 239.37 230.592
150.115 299.041 212.391
157.252 219.192 91.5664
114.233 172.7 161.527
72.1918 170.41 266.513
141.025 151.547 94.0095
144.469 196.016 60.4548
125.878 344.423 186.1
144.617 310.418 201.506
90.7972 139.873 153.649
149.767 309.027 118.823
173.68 281.955 131.08
120.136 179.872 131.051
119.206 128.275 197.183
120.452 126.758 86.8521
92.1432 314.849 90.2983
112.63 183.552 175.45
128.45 287.018 128.807
157.872 210.303 126.968
134.779 306.591 218.818
142.153 310.117 84.0594
131.335 128.608 107.714
129.919 339.911 130.571
120.079 158.295 241.739
112.881 304.401 249.345
115.736 106.56 98.7579
139.52 217.834 265.687
90.2189 100.525 189.848
122.778 113.01 143.881
131.757 313.287 219.595
88.2974 328.321 97.2267
85.9942 342.715 120.077
156.17 296.959 206.644
140.578 322.741 159.437
143.219 273.839 247.251
102.272 344.366 92.1825
170.589 360.634 7.3964
135.522 229.854 96.1023
100.84 172.067 188.879
109.641 281.71 39.7841
128.895 281.234 171.172
117.536 259.338 34.8443
159.174 305.524 162.373
137.745 303.153 82.8887
173.265 259.8 141.786
124.889 190.389 181.102
173.265 243.108 136.5
104.998 351.148 100.497
166.032 258.77 84.4863
152.533 193.559 119.233
131.407 282.159 164.085
94.9644 94.9773 176.185
133.23 10.8793 78.5298
92.7502 136.943 80.5553
116.854 184.899 41.2555
87.8577 363.391 175.542
136.858 249.038 101.465
131.849 330.592 167.256
113.187 178.599 96.3209
174.413 243.439 188.194
135.178 310.655 80.6822
106.807 313.065 240.288
135.682 291.096 244.005
140.681 245.521 38.2763
123.329 256.209 78.1852
151.754 349.876 18.8455
128.498 154.634 60.7111
116.517 283.867 38.7898
133.432 330.28 129.437
111.504 332.504 78.2473
155.642 362.749 13.7863
115.967 173.013 125.727
115.746 251.436 276.945
73.6722 133.257 181.177
126.642 288.654 177.008
165.185 303.101 155.931
168.191 376.845 15.9012
131.519 177.039 208.219
176.521 266.884 146.527
131.243 187.6 239.7
125.09 4.06581 48.9637
138.931 202.387 241.744
155.415 376.937 14.4582
82.5 146.862 173.315
170.633 223.194 155.215
113.074 118.305 208.416
96.3744 335.113 83.8964
151.663 207.569 203.26
46.7174 64.0973 82.3324
113.952 281.724 199.183
138.776 224.736 40.933
122.313 285.447 42.9736
151.042 238.184 194.566
148.511 181.129 144.317
112.969 204.002 275.16
143.474 175.137 78.0205
78.7326 124.637 160.495
139.171 233.282 252.49
173.106 381.618 27.7518
100.37 363.464 164.633
103.691 249.369 34.1727
121.002 139.4 66.7894
119.816 178.603 168.327
134.056 245.151 256.158
79.5006 116.481 187.218
139.112 252.013 145.852
172.124 288.429 156.617
153.184 244.366 242.13
133.055 281.045 46.6913
74.3736 180.833 282.586
154.411 225.828 64.0481
109.85 337.864 209.297
142.854 288.22 226.028
143.28 322.376 147.565
174.408 259.062 113.564
115.364 314.115 140.243
118.487 205.317 181.095
98.7754 306.323 64.0806
133.785 182.537 50.9741
107.834 169.449 83.2493
108.032 291.798 259.771
113.875 214.773 279.987
149.626 174.769 134.693
178.73 250.903 114.16
163.545 281.974 205.213
151.538 196.476 75.1589
87.864 339.753 102.052
119.032 294.832 251.573
107.599 220.308 28.2269
169.787 293.791 151.76
171.973 290.717 176.42
151.988 212.748 58.9112
175.618 375.424 13.4378
125.173 254.532 33.8156
141.54 159.664 136.143
95.6097 348.923 98.6728
146.225 150.971 121.979
151.818 171.538 128.976
107.107 238.467 281.312
109.17 306.638 53.0645
85.0743 349.823 128.294
120.658 178.689 119.501
95.4052 164.901 76.4948
112.754 177.685 169.244
80.6565 355.076 190.447
137.092 279.807 52.1358
96.2996 190.602 40.0633
97.2754 147.734 117.913
155.971 250.924 69.1617
170.66 258.477 184.936
96.6099 112.021 102.898
152.186 179.009 128.321
124.822 308.607 63.7064
83.0279 171.769 280.312
105.704 365.549 157.049
126.834 6.06333 72.1715
125.121 185.115 116.155
132.184 228.807 36.3306
127.608 240.811 33.5417
109.989 164.494 158.488
108.165 199.49 193.691
131.282 239.131 89.7328
139.591 145.844 117.417
155.977 261.307 228.623
175.341 368.121 12.072
157.945 296.801 190.362
111.357 247.072 28.8864
172.055 255.094 107.375
117.204 173.636 112.444
135.47 324.789 194.211
88.4659 319.462 203.097
169.061 230.152 129.692
117.143 205.919 31.8852
166.269 224.512 184.501
126.824 288.524 116.615
118.158 357.995 162.892
153.45 199.866 163.152
150.205 188.715 158.385
103.249 163.737 163.761
132.904 239.418 262.902
121.961 110.292 185.877
115.664 244.238 32.7472
102.275 316.894 180.701
131.772 267.287 41.4909
124.944 294.378 254.246
133.193 203.476 41.7664
88.4059 199.956 236.744
118.663 262.346 266.091
90.0858 357.722 130.853
116.222 335.096 88.4844
117.143 106.277 177.988
102.63 248.965 57.6996
151.05 215.579 77.0393
92.2154 158.711 72.8598
116.697 313.073 234.115
89.0704 351.727 118.445
100.773 242.997 50.6736
148.816 375.233 4.39687
89.0874 335.338 161.424
139.429 325.536 126.937
76.6402 160.523 255.088
142.505 205.416 65.2231
103.969 257.007 59.6918
126.891 264.531 263.174
102.164 156.368 257.369
83.9381 84.4107 114.386
159.28 211.764 164.488
138.265 239.807 146.743
122.016 110.119 100.467
172.653 244.473 159.229
93.3812 152.039 77.35
108.33 357.769 197.039
123.951 164.355 226.693
127.419 290.868 54.2869
148.486 285.04 228.92
112.416 174.06 152.16
112.508 104.309 155.483
111.295 314.783 172.709
133.784 297.146 57.4765
166.094 226.994 191.257
130.576 328.367 105.352
127.446 171.707 244.174
121.397 359.118 154.713
125.904 121.361 173.199
161.3 216.801 121.354
92.5752 141.884 137.733
102.744 98.3952 178.722
105.522 121.378 78.1279
128.866 247.391 81.6815
60.2559 102.232 91.5331
70.8275 72.5625 64.1274
113.857 251.724 37.5454
87.0272 102.249 179.89
144.724 8.46739 55.5061
156.283 301.685 122.417
140.133 204.739 42.8273
95.4989 242.269 281.237
127.914 11.8291 67.0912
111.962 165.686 107.559
140.925 316.63 147.882
122.938 113.425 163.524
133.167 274.143 171.332
168.047 296.748 179.013
131.124 212.004 153.437
142.378 307.566 212.499
139.79 195.631 214.909
145.319 375.593 15.8937
174.872 255.796 156.349
130.209 312.325 77.0555
104.191 179.252 192.098
75.3082 136.39 173.744
93.7065 125.548 103.125
140.682 184.01 63.0027
151.632 228.764 245.581
42.282 78.9325 113.944
164.434 219.127 179.115
104.505 158.64 114.936
90.0561 134.858 102.101
98.8882 242.216 31.4449
118.404 186.862 165.516
159.794 273.776 141.608
64.012 194.494 254.425
44.4099 50.1816 165.692
146.442 212.407 245.198
135.359 262.249 105.561
175.228 276.808 124.497
42.2093 85.7172 95.6402
119.735 299.235 156.65
112.866 362.792 160.564
114.952 158.009 248.603
128.975 190.978 124.436
115.931 112.872 192.284
135.547 284.125 60.29
135.033 131.988 118.318
94.5112 169.434 269.722
102.126 153.539 122.157
135.436 191.003 48.5847
116.512 361.086 170.037
100.656 134.285 69.9691
171.358 235.602 153.877
139.354 271.914 52.3508
120.278 269.995 39.2462
130.928 191.769 40.9564
164.881 383.12 30.3061
125.278 340.821 161.094
117.986 197.708 31.885
146.741 255.07 51.16
79.4764 155.978 262.527
137.203 265.528 146.828
108.637 99.8793 156.774
137.412 287.096 236.87
63.522 84.4656 72.8496
138.58 268.458 256.074
132.931 192.104 228.993
66.9359 200.791 277.413
176.13 234.33 113.95
173.339 253.361 146.427
117.734 181.932 150.42
146.536 201.246 67.9688
130.336 149.315 71.5288
47.9282 70.6433 77.1768
132.956 332.538 143.402
104.253 188.078 210.334
92.2171 147.297 99.9354
141.702 242.214 130.158
118.16 102.272 160.343
106.073 191.995 33.4278
144.106 190.382 65.5907
94.7201 220.262 47.5217
98.7202 325.396 73.8575
109.794 95.2357 144.147
119.301 351.663 145.734
155.835 379.015 29.5341
106.283 365.403 172.233
93.3164 223.936 39.7943
98.7922 169.216 82.7177
175.743 268.42 133.782
115.321 304.6 157.585
117.685 348.618 161.741
77.0708 111.638 200.583
129.749 208.907 37.6856
113.407 310.204 241.281
162.469 241.452 78.2841
125.202 185.211 131.757
139.196 318.598 105.586
110.578 341.102 91.2858
92.9597 95.7214 159.307
115.901 273.325 196.223
80.4851 373.436 136.093
103.694 135.148 232.219
135.13 312.351 103.062
129.085 198.615 105.913
154.941 211.536 80.6662
99.0503 60.5965 85.5856
139.563 162.551 154.849
150.082 247.255 180.249
116.702 183.196 86.4339
59.261 37.9516 87.8509
137.769 226.287 156.654
97.078 183.791 43.1608
80.5558 196.505 281.758
120.228 191.432 270.194
134.186 306.086 69.3187
113.01 123.358 75.4342
109.423 236.389 29.8413
162.188 249.373 79.9347
140.244 139.321 96.3453
142.674 268.149 251.26
136.053 144.201 149.363
103.525 105.883 184.895
141.101 171.32 98.98
87.7245 183.833 231.773
108.856 172.242 188.612
69.3954 187.147 277.962
177.497 269.073 157.836
138.351 256.662 119.426
98.1004 288.059 260.231
112.072 322.868 226.951
65.5267 103.201 103.604
118.615 341.797 110.328
94.4634 354.755 207.652
151.865 284.073 75.7668
120.258 307.038 133.907
82.2794 111.723 133.331
102.778 152.955 52.0777
127.238 199.821 98.8205
146.363 266.264 245.085
88.5523 153.494 170.4
125.525 144.968 177.861
132.431 237.861 171.636
130.505 200.25 172.381
103.363 363.162 178.573
122.209 222.061 275.912
99.5066 270.528 59.1079
93.7895 260.56 280.705
137.921 140.828 129.999
88.4871 100.084 160.779
149.944 290.818 87.5138
135.104 219.147 106.202
109.601 171.707 44.7645
171.186 241.886 154.313
109.792 195.543 204.751
137.173 212.067 38.2774
63.48 101.743 82.7259
85.4409 340.926 127.923
137.332 262.977 40.6913
121.912 114.213 154.671
134.943 227.544 102.667
131.576 268.368 102.386
134.022 322.679 98.0756
126.85 204.231 269.087
130.805 133.717 178.205
92.9399 199.549 284.741
159.925 216.453 187.223
114.19 167.692 118.432
91.7464 126.712 84.5896
176.824 260.234 181.359
150.942 203.568 106.118
163.181 257.319 222.671
88.2033 108.425 131.434
81.8901 309.163 212.571
122.568 354.02 173.41
105.508 162.973 90.032
96.0343 157.914 52.6737
81.6417 118.893 209.586
51.76 42.8678 95.4364
128.712 329.33 98.6938
107.133 262.177 35.4832
63.8502 154.122 229.021
176.723 274.535 132.426
129.532 270.838 253.951
126.138 119.525 186.134
106.309 294.048 200.867
151.552 179.532 138.801
146.213 166.752 103.335
125.692 168.464 238.204
81.7097 340.525 182.164
80.7934 124.63 126.913
68.6113 192.146 243.035
101.337 278.216 45.1083
95.1494 219.587 279.23
66.8473 149.238 236.792
112.152 184.754 270.516
138.398 265.87 47.6832
134.072 258.405 93.2352
105.148 338.67 86.4285
133.296 135.783 84.323
139.363 230.219 138.13
134.647 270.666 162.857
100.642 102.523 197.596
92.9805 247.197 286.357
127.69 197.765 146.347
104.228 186.361 281.351
90.8436 293.89 263.963
94.7481 257.889 47.2122
88.8968 130.558 95.4053
159.829 209.927 182.684
178.797 362.899 10.8537
159.201 271.462 216.423
115.245 309.883 182.794
126.741 250.065 37.6479
141.075 158.915 86.8573
131.315 325.647 203.666
135.238 312.637 94.3651
97.5035 289.647 53.1502
128.537 162.203 171.562
155.419 209.597 95.3871
108.736 211.42 218.193
139.395 245.881 108.668
147.432 197.427 184.371
97.8833 365.825 173.987
135.595 208.748 136.065
151.482 221.933 60.5325
63.8776 177.829 263.129
126.741 322.99 90.9179
113.516 214.372 28.1271
120.258 278.578 89.2056
141.275 245.885 256.089
139.399 257.51 133.757
134.532 144.496 133.355
114.887 247.319 64.9135
86.1073 353.443 160.238
140.492 315.614 201.976
145.505 216.375 239.114
98.1185 250.734 52.6202
172.354 280.182 140.641
75.9956 33.0061 92.1808
56.657 70.8467 122.374
68.8467 147.187 216.115
92.8234 207.394 41.1268
164.34 264.818 222.573
109.292 108.945 94.3403
64.8802 34.2553 95.623
112.804 293.282 92.2727
112.711 273.714 269.08
138.979 158.662 79.2644
104.806 273.16 68.3874
92.7998 152.483 61.2014
123.148 176.663 253.148
129.61 274.476 39.8289
130.045 316.55 207.391
141.837 187.825 170.888
122.826 184.828 47.8503
76.0231 264.127 274.487
67.6928 232.841 270.297
103.761 177.1 39.6098
176.391 264.112 164.381
136.711 236.139 121.287
96.6095 209.641 54.5373
95.593 152.836 166.197
162.308 266.443 82.862
95.2602 101.136 114.168
175.685 231.752 106.186
92.2729 270.839 272.827
123.385 352.474 155.375
116.828 235.581 277.126
152.16 306.86 189.559
87.7393 163.276 271.976
123.996 204.596 34.941
136.11 264.949 116.565
95.5876 156.232 87.0289
123.161 294.273 133.568
127.781 279.949 250.768
139.671 209.718 51.7534
91.0188 305.636 205.43
169.209 295.788 166.348
129.498 283.44 185.436
160.322 241.956 71.4541
82.2879 348.921 170.873
80.3435 338.514 203.051
162.932 298.259 162.632
90.1204 178.227 222.631
65.0956 38.5828 75.7763
61.1012 201.54 271.901
94.9162 192.406 50.0481
102.293 355.116 110.897
65.224 143.831 227.842
89.8489 105.71 198.406
128.961 257.633 88.4777
99.1116 200.694 219.962
68.8311 61.3968 65.7366
141.409 281.815 242.221
40.1845 70.2996 93.4619
108.821 342.336 98.9782
172.313 252.345 97.0856
60.8093 41.5594 101.624
147.138 314.385 128.461
80.517 105.877 168.609
139.44 137.021 117.121
113.758 103.499 116.83
126.046 278.218 259.721
136.707 171.251 63.9441
112.328 116.886 201.772
137.556 4.10478 137.13
91.6216 104.56 122.378
144.697 294.081 227.952
116.15 151.232 54.4896
168.818 373.806 34.2191
157.271 308.906 140.286
96.7011 197.729 35.3878
137.209 218.226 121.155
120.755 285.849 184.685
66.3772 166.057 234.799
112.606 122.137 221.415
108.388 286.801 45.1202
102.999 108.439 194.094
133.825 131.453 132.594
106.96 316.137 148.646
157.998 264.666 75.1335
110.672 357.375 145.154
115.704 213.47 201.338
103.912 368.798 150.64
113.682 342.745 189.786
130.023 230.984 86.5555
150.597 184.853 133.284
168.32 234.668 181.368
85.8728 353.343 134.815
127.784 224.094 31.3666
132.327 143.908 172.427
172.715 273.45 182.475
97.4535 160.06 81.8574
100.011 214.178 28.0585
132.154 217.717 163.739
155.493 259.319 69.0588
105.433 190.182 199.944
61.4485 187.23 264.024
112.356 168.959 210.291
122.024 344.773 122.935
98.5127 186.247 273.082
149.444 8.90986 61.8086
123.574 325.854 204.839
113.97 173.251 178.562
78.3249 140.245 183.326
96.1012 180.246 209.464
112.372 98.0761 133.582
95.3734 314.159 76.4676
131.701 195.833 242.708
136.338 304.125 73.8649
109.21 311.944 126.104
143.985 10.3905 61.9085
109.358 169.585 103.308
127.216 288.393 158.955
117.355 190.465 171.322
78.2823 127.994 164.918
81.1194 99.6673 163.323
108.27 363.216 166.135
133.314 179.046 58.7192
143.765 257.712 252.451
150.763 228.06 57.4222
84.0057 246.906 282.83
87.3603 353.737 210.831
120.065 346.277 198.255
124.714 132.731 71.9069
102.567 139.663 63.5384
87.6722 134.677 118.814
148.594 2.56544 88.5869
160.967 287.259 208.494
176.842 258.748 121.627
127.741 273.286 100.42
163.234 232.376 208.394
79.7065 347.539 203.758
158.366 224.565 80.1378
93.2443 164.357 180.377
127.47 282.152 105.535
140.12 12.5483 73.3928
148.914 3.28015 49.7077
135.582 285.305 134.787
100.421 349.453 109.104
105.304 200.388 31.7913
150.279 377.615 26.1752
95.865 284.85 211.035
134.261 2.99821 40.4237
95.7707 367.338 153.91
131.816 222.142 157.778
146.513 192.37 135.385
128.087 288.303 143.848
144.182 284.128 235.49
89.9169 172.699 275.911
121.325 294.149 107.009
109.191 334.792 222.261
97.6328 276.509 53.6242
62.4885 100.837 112.893
105.074 186.494 268.669
107.521 211.585 27.331
145.719 164.841 147.746
131.392 118.861 126.605
147.777 171.317 141.14
101.381 206.751 30.0906
122.841 129.669 206.076
138.924 6.70643 50.446
168.176 226.338 142.815
38.5531 67.6398 103.946
100.471 281.43 69.0601
141.075 228.114 258.936
105.107 266.068 63.4413
119.365 292.725 259.035
134.244 254.886 41.1562
73.3402 125.35 204.548
73.9569 181.708 237.936
163.9 216.711 165.039
95.4564 363.794 182.007
62.4226 166.013 242.963
147.462 202.227 58.0711
92.1687 325.76 85.1625
72.5511 141.515 239.521
126.865 218.444 187.227
132.539 205.009 145.405
134.97 248.325 166.93
107.658 315.79 138.874
170.601 245.835 196.058
112.53 222.788 280.77
123.562 264.269 35.534
132.496 149.762 173.456
95.6228 138.73 244.492
130.745 268.212 176.292
137.046 311.535 209.435
85.7448 268.022 279.221
75.323 299.714 244.454
108.938 260.406 65.6813
155.213 359.265 3.18435
82.746 354.472 148.563
151.026 236.267 57.2522
92.713 304.914 255.962
123.74 305.706 140.889
134.122 276.008 258.12
110.751 203.882 30.1975
145.428 157.346 118.97
95.8157 201.401 54.6585
98.3465 213.809 232.025
87.5516 345.686 145.654
123.072 227.452 83.6138
156.908 206.883 166.532
139.252 227.632 126.491
119.227 295.036 184.361
119.222 299.933 164.483
81.5862 355.555 199.312
76.1337 327.589 227.977
146.281 163.338 141.725
119.382 159.994 58.1653
100.737 209.958 62.9917
68.1451 50.5024 69.916
98.4552 174.91 52.5312
93.6097 215.812 40.8302
111.506 101.146 173.153
142.801 232.072 46.983
124.679 191.566 140.997
86.2465 174.682 210.427
70.909 139.357 218.243
143.663 206.704 236.691
152.577 193.537 127.933
91.0379 338.191 111.188
92.7638 298.892 211.486
92.7815 178.314 46.759
111.142 188.782 203.561
92.9673 199.623 227.601
121.508 269.111 259.258
168.636 297.273 156.585
81.0914 193.933 235.956
105.317 100.83 112.512
66.9765 177.669 236.894
78.3313 309.685 228.777
118.005 119.256 198.832
127.453 222.235 86.6402
141.03 173.556 153.544
77.022 152.033 179.597
100.21 169.342 181.505
94.9187 215.706 34.0037
161.234 232.357 88.0373
98.1421 98.8367 122.83
170.37 229.661 177.336
83.41 348.489 136.751
174.225 374.451 25.8693
178.001 246.078 121.811
136.697 195.63 43.4853
94.2237 232.093 39.3864
106.825 317.569 126.718
64.9787 162.29 253.089
135.601 327.635 135.034
125.754 295.068 159.683
70.356 136.529 229.923
53.6829 58.3093 119.363
136.094 216.548 96.6207
133.58 263.032 256.826
51.6604 53.0043 72.7589
98.3656 162.466 171.601
65.1902 156.386 237.659
80.5864 240.013 283.633
137.56 324.637 148.334
80.032 346.987 179.102
114.241 226.843 33.7954
123.281 235.555 32.3922
156.756 2.63945 63.0022
108.633 356.827 131.102
134.375 256.037 174.624
88.8261 360.75 196.355
159.248 258.328 233.002
121.931 193.055 147.108
118.749 295.633 100.215
139.812 136.898 103.138
121.856 231.547 76.8372
148.097 165.787 117.047
120.048 302.554 172.241
101.634 228.308 56.8962
107.375 307.574 184.018
103.501 114.19 214.878
112.026 203.073 206.773
116.623 305.853 166.643
126.244 117.977 134.451
58.3803 42.063 92.8886
54.8687 93.2881 92.9337
70.6402 36.3219 87.3355
161.578 278.182 218.434
130.288 135.523 110.71
79.2117 127.279 204.844
105.339 163.832 260.616
133.976 297.441 231.697
75.743 41.6903 75.1884
112.891 211.343 212.916
147.284 184.475 120.596
137.349 216.194 112.69
169.988 234.458 189.375
101.436 260.379 280.984
147.868 163.88 128.879
95.6267 206.54 34.3787
157.707 268.467 231.049
98.0094 292.149 204.817
134.329 245.842 93.8923
99.4883 173.976 75.6839
116.655 179.807 184.014
133.653 260.099 155.487
105.604 155.001 160.664
174.12 237.531 159.37
100.069 362.387 157.213
100.518 174.37 60.7004
139.662 252.535 255.584
108.756 187.78 186.449
81.0996 287.306 261.036
82.8872 338.677 162.27
91.8317 278.707 268.859
167.741 290.521 183.099
138.289 200.111 48.1778
152.345 294.973 93.1722
113.815 185.891 193.999
119.088 184.333 158.582
89.0846 353.603 199.91
169.773 221.932 163.771
129.364 273.969 161.857
154.159 284.045 222.266
148.229 186.893 167.901
109.95 152.285 51.4604
110.976 181.069 41.3553
175.955 253.823 134.646
111.157 359.91 172.859
127.213 301.19 237.781
86.9118 183.596 219.422
155.884 225.555 220.629
100.931 362.271 139.498
106.448 299.285 254.905
136.633 255.305 104.554
99.2706 156.065 161.301
88.3883 330.607 109.192
120.106 263.95 77.8828
124.346 197.822 171.86
97.3673 104.709 105.636
115.766 300.927 49.9126
140.487 246.756 133.126
143.769 308.62 185.748
96.0277 282.503 51.2007
151.529 244.902 61.1126
81.5041 357.076 182.559
147.644 220.893 175.472
69.5669 40.4921 82.9761
174.59 272.584 197.911
80.1082 353.35 176.666
149.097 206.452 98.3486
129.992 262.162 93.7156
144.777 226.563 49.2615
89.5667 43.4376 75.7142
171.488 261.205 200.27
125.208 121.732 165.391
64.5635 215.379 271.433
149.288 2.65294 132.482
136.518 14.1023 66.8136
147.258 214.447 51.2532
122.086 201.208 40.5964
110.849 100.093 108.536
76.966 315.893 237.862
170.046 253.363 160.364
138.743 252.504 112.008
126.442 318.406 78.3993
124.012 109.045 119.787
91.3373 318.974 82.7786
91.1825 148.173 84.1197
170.308 249.445 207.555
127.572 186.625 44.0181
103.362 339.129 191.761
126.411 293.937 140.935
102.33 320.055 135.492
55.0892 67.5659 83.242
106.589 120.011 220.915
169.372 282.229 204.286
126.798 340.881 192.978
97.9598 114.531 87.3355
65.0867 167.666 263.286
133.683 194.888 137.316
94.286 327.217 131.648
122.246 294.54 150.078
100.043 294.903 63.8979
152.261 233.637 63.2712
113.805 297.592 221.544
126.192 341.307 122.051
149.89 167.527 134.199
86.4355 222.736 285.822
132.647 208.204 112.815
113.4 212.25 69.6854
81.0432 62.8024 63.57
133.075 272.964 152.25
113.512 180.418 190.971
96.8529 230.31 33.2837
114.404 174.166 141.645
158.912 261.391 119.226
106.426 314.271 161.459
77.4818 315.815 217.585
118.989 143.826 59.4624
92.8312 353.983 139.095
83.7749 108.399 202.743
90.4373 287.834 216.607
168.984 285.255 147.71
103.363 146.082 241.551
106.543 210.969 281.296
100.768 129.802 228.879
125.131 270.897 91.1575
148.422 191.992 98.2026
137.979 170.63 188.069
121.806 194.857 162.711
138.76 186.338 72.5798
117.296 305.311 79.731
141.523 200.443 53.8258
112.82 265.261 70.9907
134.731 301.326 235.479
101.12 196.25 212.881
144.347 318.09 155.552
90.6352 323.504 194.376
148.509 358.676 19.2626
126.624 157.221 221.3
79.6461 107.294 196.148
120.876 191.729 39.2539
99.9604 320.997 116.171
121.479 276.683 42.5306
154.008 223.968 240.154
77.7613 201.404 285.693
109.537 302.36 97.168
58.575 47.9876 70.0477
142.754 173.606 107.035
128.381 231.546 188.801
136.618 273.912 249.767
180.534 3.83012 30.7151
138.114 246.153 126.717
135.858 235.301 105.29
124.138 235.19 82.2393
103.572 253.731 282.838
119.901 299.748 147.907
98.6468 269.817 46.7883
91.4948 215.748 233.893
131.161 275.731 115.852
128.733 282.398 50.6291
101.676 220.36 58.5243
101.545 196.533 65.7505
105.266 298.856 85.4199
113.409 301.042 136.858
92.9522 362.631 158.612
125.536 165.021 55.3281
104.766 174.176 269.668
106.171 237.538 55.9331
79.9558 340.485 217.848
100.812 273.786 39.0602
74.3708 284.008 252.921
126.607 280.795 121.399
151.186 293.892 101.25
81.8077 304.742 254.634
100.406 180.522 201.609
100.675 283.001 206.96
126.179 184.738 123.112
97.7522 341.532 93.5006
94.0252 345.302 220.701
125.688 280.419 190.553
97.3171 221.636 30.575
91.0118 167.913 197.384
111.919 116.508 86.2521
119.174 216.503 78.7922
63.3954 192.705 272.86
96.8294 249.014 40.8499
82.9072 298.661 222.695
87.4336 156.494 180.572
122.955 118.548 193.642
128.526 196.573 134.435
46.8707 90.9762 95.6462
102.032 320.574 162.164
119.983 252.084 31.3787
101.488 110.119 94.1374
81.6167 260.388 281.675
111.151 308.441 144.151
74.3748 245.392 280.055
113.203 272.577 69.3811
100.266 191.792 283.081
138.917 132.885 111.975
85.0425 160.996 187.645
101.118 153.354 132.307
120.968 108.465 171.099
99.2174 346.591 211.442
103.044 342.233 221.223
77.2942 156.281 203.756
156.298 210.635 190.348
151.437 362.115 24.9455
124.691 188.458 106.474
117.263 171.613 256.379
83.4443 275.217 274.562
110.617 306.205 169.685
140.894 213.398 44.0375
111.575 239.558 67.319
127.715 281.606 154.219
94.9405 350.275 110.752
94.3611 324.53 147.963
78.4584 48.4586 66.6745
131.329 165.153 210.423
117.011 174.296 246.311
112.428 306.472 108.527
100.338 99.9589 189.719
103.808 325.852 235.92
104.287 290.543 204.464
119.832 124.592 212.874
123.739 204.497 171.547
104.266 232.849 61.7867
108.696 294.881 45.7439
77.7812 272.57 272.66
76.6582 226.509 278.831
157.449 202.553 154.467
94.3626 42.0766 82.4669
93.0896 292.723 209.655
134.914 226.95 165.361
120.573 299.224 140.462
129.757 176.158 50.6996
142.906 256.857 224.23
93.4004 172.868 201.862
93.2165 44.9695 103.58
126.706 147.313 170.661
48.4939 79.6849 75.2802
116.248 134.519 68.885
69.381 160.717 222.716
96.6267 325.205 235.333
95.5877 194.478 221.483
72.2192 102.632 91.1112
57.4385 84.0844 123.142
120.141 328.516 214.032
115.876 220.564 71.2278
49.2795 99.5081 89.2759
121.849 291.44 167.352
76.9619 127.851 232.451
118 172.706 132.93
97.4608 322.614 169.809
81.1363 98.8456 98.9384
145.003 168.766 152.778
129.182 237.794 84.3343
146.562 277.534 238.557
112.754 103.427 166.225
168.524 296.921 137.948
175.673 265.18 188.288
75.3486 274.653 260.884
143.788 144.373 138.871
77.3289 318.22 210.406
162.202 241.888 212.513
104.842 215.702 65.0146
103.504 138.729 238.134
106.007 206.128 68.6704
149.207 296.884 105.72
99.1421 315.122 110.103
126.487 7.15374 59.5652
103.179 331.142 195.866
118.657 213.615 32.5844
93.7204 114.536 93.1355
147.246 215.909 64.8536
143.503 175.991 117.267
113.972 299.071 126.711
161.423 369.722 24.3055
120.32 271.919 85.1806
132.989 270.333 110.89
75.0975 122.84 182.116
63.763 185.792 279.405
140.162 232.362 128.628
96.7222 304.731 81.3181
85.2238 128.76 115.283
101.272 167.558 46.8137
148.682 210.714 69.1761
128.014 289.147 106.514
85.944 123.542 144.759
134.355 212.963 103.966
86.7296 347.686 155.714
112.552 204.79 195.761
123.196 128.056 158.911
99.3286 315.972 194.238
66.9873 223.906 276.227
108.565 277.495 75.4676
96.2759 170.439 194.57
148.267 220.385 55.8629
98.5916 286.387 61.7992
118.066 105.708 167.171
104.77 325.899 139.311
95.0867 79.9942 92.9119
72.8029 211.901 284.552
114.581 104.392 110.757
103.615 153.36 154.154
146.183 192.42 171.145
137.093 259.879 126.9
165.553 275.078 214.728
126.548 300.391 134.259
76.1185 160.457 210.516
134.323 319.005 197.617
95.8997 215.194 51.1689
116.694 300.421 105.019
139.158 208.763 246.495
110.177 321.794 147.098
91.9804 162.983 190.86
93.0599 161.168 65.6295
165.506 367.311 15.4786
69.6267 153.713 223.31
143.666 6.55608 132.216
119.472 298.775 118.534
106.5 227.372 28.4201
114.726 302.552 149.525
105.372 162.588 106.101
119.26 170.04 239.511
164.375 222.109 129.63
68.8388 143.029 204.37
98.9241 277.52 61.7292
96.1573 300.199 260.902
122.545 324.86 210.647
143.678 201.371 189.616
114.762 303.746 123.237
78.8127 124.562 221.26
114.15 312.442 132.014
82.7884 171.513 226.435
150.744 376.065 304.586
117.861 238.434 74.7898
114.589 273.747 38.9578
85.108 340.611 169.932
109.766 313.275 59.1259
123.497 299.029 127.368
157.588 229.582 233.932
149.848 173.278 147.425
101.225 234.947 49.7145
77.1931 235.219 276.817
129.923 241.774 178.579
99.7929 184.311 58.5628
80.3801 104.093 176.308
140.176 319.209 141.01
175.082 278.882 186.864
127.58 289.999 150.908
115.086 273.388 78.9926
100.538 295.802 260.238
75.928 305.02 241.023
125.063 242.365 79.4306
141.783 195.123 181.744
144.424 186.595 134.84
160.247 262.491 218.024
72.0919 257.784 272.076
151.002 205.221 122.125
167.332 265.985 202.936
85.1638 171.268 221.076
158.539 263.03 170.151
79.8789 107.592 152.68
154.313 199.19 145.286
119.692 246.367 74.9829
130.797 229.462 169.49
114.755 209.056 78.0203
139.184 266.749 214.79
120.39 218.801 194.471
138.459 243.637 152.839
79.5499 195.222 242.532
153.666 250.817 183.19
83.0775 102.322 189.793
79.8244 125.066 211.706
118.024 102.31 106.095
129.073 160.244 210.072
105.025 178.52 79.3926
98.8222 338.321 227.43
105.48 313.338 105.296
124.933 240.896 194.055
106.749 350.871 208.743
81.5872 185.365 285.879
123.64 273.443 191.467
110.774 209.507 206.081
177.73 369.261 18.6815
124.392 184.763 145.162
101.465 332.091 228.149
85.8593 344.824 218.416
77.163 324.426 221.471
101.489 285.835 44.9107
139.34 171.678 68.8941
122.696 182.894 140.666
95.2137 229.048 46.0558
91.8027 150.756 67.6394
86.4816 334.53 146.832
100.06 202.018 61.9974
114.403 312.371 114.05
151.246 234.295 240.701
102.005 309.121 200.105
115.417 283.492 90.5512
169.573 253.652 214.482
148.16 231.581 53.1089
155.87 382.273 22.8223
138.101 172.391 195.267
153.262 194.08 163.353
93.5284 127.216 172.284
131.193 159.904 204.376
82.1909 40.3417 76.788
134.852 241.653 222.737
60.4624 176.524 252.065
108.676 162.234 147.353
88.0453 323.775 91.1163
94.0004 167.739 188.243
128.128 166.125 154.897
78.9825 348.59 211.766
119.445 223.158 78.8826
88.9645 331.675 236.333
153.187 303.034 194.531
87.31 342.251 223.487
113.188 279.939 82.6128
108.352 205.33 74.5527
83.2682 159.369 194.528
161.919 373.908 2.85933
116.36 256.361 71.999
127.876 245.875 265.167
144.059 314.543 120.898
89.4467 330.502 170.29
89.2651 262.589 282.822
136.341 10.1512 56.6376
125.234 227.036 181.07
80.7752 168.684 214.098
100.714 172.943 67.9872
151.886 2.31304 126.127
133.196 220.906 169.913
99.6516 261.096 53.4009
90.1074 142.393 94.7221
64.352 173.563 247.564
106.451 224.909 62.8166
73.4036 186.365 232.468
117.462 151.697 151.013
94.0884 328.671 154.728
94.1405 353.936 106.265
95.0124 56.9501 70.3481
132.16 261.144 167.431
130.906 277.726 108.279
126.68 336.227 111.18
126.932 346.911 179.674
71.85 156.94 213.72
137.969 324.989 169.452
49.4011 48.6868 103.688
166.189 245.931 219.802
83.3659 321.931 239.923
130.446 210.66 159.171
125.119 215.362 85.005
119.936 223.152 202.173
121.705 295.822 175.91
110.414 296.464 73.3761
115.285 303.076 116.218
135.959 248.41 116.699
101.684 228.529 30.5925
144.943 188.402 162.946
155.057 227.754 176.299
91.3514 324.826 181.925
44.9387 70.4747 100.65
110.014 307.38 137.467
78.3197 344.578 195.175
94.0972 167.916 61.094
106.922 284.478 200.947
123.916 164.349 234.098
76.8463 118.684 171.484
157.669 216.311 99.5953
84.9979 317.806 246.876
104.291 304.293 101.187
61.2895 67.777 64.4975
105.881 185.679 37.5367
131.287 231.084 175.149
109.996 307.199 120.606
110.962 272.734 33.3989
158.845 220.33 75.647
130.753 284.133 139.441
68.3157 76.6126 124.623
98.4151 227.728 51.6059
140.483 4.13892 124.569
78.8589 147.388 184.078
136.162 286.305 92.8327
82.6373 154.289 185.299
123.539 227.133 35.631
131.106 278.952 148.878
109.088 313.932 188.825
90.9009 336.216 118.752
80.1675 344.32 145.124
133.024 249.819 234.885
121.393 1.85607 74.4573
126.231 155.537 190.722
93.1996 308.486 194.782
69.1869 178.772 270.941
120.947 159.823 137.12
105.437 284.401 76.8502
88.2624 333.32 134.612
69.2301 62.4007 122.398
116.309 179.905 140.318
123.081 217.888 94.1469
81.9264 183.399 233.84
133.5 277.579 137.762
65.6101 180.859 242.983
108.523 231.754 24.7987
110.989 306.547 177.82
85.0079 336.403 173.516
99.8666 326.298 153.032
96.9347 190.272 216.591
157.532 219.034 130.37
57.6295 178.622 261.015
75.1916 326.26 212.773
124.017 286.063 166.386
98.4327 290.159 68.4443
72.0944 257.722 254.211
61.158 88.8298 125.089
84.6857 324.939 210.104
97.9214 271.812 272.682
120.661 195.456 60.4138
94.1195 187.083 57.5814
129.855 282.372 145.372
122.591 354.135 140.664
99.3074 178.982 69.8815
106.103 239.78 62.4841
114.612 306.658 129.662
109.12 287.293 83.8074
110.003 228.549 67.3823
104.872 315.03 172.223
115.274 337.384 217.63
108.885 318.356 117.53
48.8589 64.9688 119.595
96.0635 149.391 155.346
106.213 184.186 76.4659
104.572 223.312 222.129
172.449 264.814 124.665
56.5789 71.6096 70.3036
160.214 265.178 126.8
93.1912 331.841 143.654
154.364 376.648 4.13324
133.059 254.925 168.18
127.804 171.497 145.609
89.1748 324.655 188.203
121.315 341.728 202.748
95.9371 185.021 213.675
92.9152 74.796 70.3541
123.61 294.007 119.505
86.9068 341.405 140.291
82.4657 153.693 210.651
147.778 192.003 122.943
103.038 320.456 154.401
132.654 282.712 83.1301
147.633 172.331 121.681
73.7518 330.222 221.085
118.065 289.477 97.6142
81.7424 331.555 182.641
64.6566 207.927 262.468
155.353 352.916 12.372
98.2915 266.514 54.0075
84.0618 339.508 134.448
114.935 266.424 232.927
110.768 215.562 76.0892
150.33 368.538 300.977
63.3336 172.523 240.981
135.055 276.125 132.476
55.1776 50.8579 112.35
172.525 252.21 186.231
82.3861 132.067 238.392
116.833 218.209 93.9662
138.342 270.053 136.945
112.754 168.396 125.379
119.703 208.464 82.5457
104.496 174.039 173.043
108.579 316.027 132.824
148.107 195.308 81.7802
117.268 384.566 145.843
155.4 226.777 152.614
103.607 105.561 103.998
115.724 228.887 207.208
130.517 224.555 177.481
131.017 275.269 122.621
167.924 8.19824 135.866
124.124 248.8 186.989
106.03 159.095 154.342
166.17 367.793 37.0068
170.678 272.813 111.325
97.0289 309.59 94.968
129.553 1.67273 132.579
90.6525 206.182 283.192
112.055 304.554 102.779
104.65 197.13 279.664
123.115 206.509 86.5227
128.091 239.614 183.339
129.428 332.723 184.877
126.581 188.645 64.5041
126.67 135.879 182.011
174.264 366.512 35.3305
83.0693 338.697 153.259
114.523 226.803 73.3729
156.895 268.754 136.971
138.345 232.208 65.6899
177.503 252.791 182.184
75.2613 163.418 218.053
113.412 168.613 132.081
127.545 270.045 181.848
8.30875 93.7403 243.154
73.6346 125.195 216.825
88.4436 331.928 180.485
96.103 308.667 162.282
95.4357 314.914 103.302
135.132 226.404 216.699
115.763 144.179 147.032
169.928 258.946 119.135
86.1331 255.806 277.796
142.636 313.511 91.9263
91.5499 230.112 285.195
141.234 374.734 301.334
74.0968 313.601 228.128
135.686 220.921 175.487
94.4896 328.315 163.48
110.558 287.736 202.423
107.335 311.812 111.558
90.7949 211.14 287.248
123.93 141.064 183.854
85.7276 331.085 197.559
126.171 161.52 129.628
136.109 257.296 233.754
138.569 325.453 154.547
88.6415 330.054 153.079
103.792 308.024 93.7854
140.823 175.993 64.1256
140.233 260.777 80.884
99.0338 299.216 209.439
128.66 258.783 177.261
99.2947 292.816 75.11
77.8496 90.6469 119.045
182.872 9.1035 28.3263
74.217 149.126 199.88
140.907 268.452 224.057
108.357 217.49 275.939
109.513 126.061 227.142
129.121 251.442 193.369
136.022 269.039 122.289
144.838 272.858 120.557
125.23 120.709 115.593
131.532 182.435 159.978
120.512 5.12594 60.522
152.385 298.256 189.954
104.752 154.701 137.095
91.9363 322.386 99.1724
129.215 235.688 177.651
50.7524 99.1294 101.708
129.036 276.592 134.384
101.468 309.741 103.047
152.637 254.747 178.799
69.2654 245.277 262.728
128.267 150.518 176.428
97.1156 322.789 242.315
104.51 174.301 181.709
75.2904 12.1708 119.211
99.1662 301.342 89.2945
144.758 227.165 212.268
93.5214 151.9 93.8134
126.283 331.277 104.4
126.439 140.029 82.2592
93.5079 323.763 76.9521
115.385 192.293 80.5436
96.3721 248.89 226.004
108.492 151.138 244.411
123.922 292.217 125.684
105.355 297.318 90.9982
83.0746 44.3515 112.558
74.8816 298.004 235.88
98.8962 326.423 161.939
93.1334 328.216 139.834
105.567 361.582 129.141
11.7293 73.4082 230.791
140.346 275.907 223.137
135.523 239.252 217.979
162.166 352.859 1.11309
69.2533 85.2141 123.701
116.488 199.277 78.7763
89.069 315.934 251.76
87.5416 204.264 287.47
87.3039 191.614 226.034
101.907 292.913 81.2308
105.578 333.337 134.874
97.7581 182.853 65.7262
148.924 280.35 126.416
98.2043 125.833 232.171
127.472 239.504 240.04
83.9917 205.438 247.148
139.388 5.65222 106.103
133.449 266.207 214.718
125.976 292.129 77.8836
90.7891 322.086 104.637
115.487 159.96 137.402
95.1204 125.676 230.036
80.0874 228.768 286.3
167.481 287.322 203.341
119.418 85.4603 18.3417
103.862 187.492 70.0197
144.105 4.97079 99.9178
16.7784 46.5446 217.684
127.048 141.411 171.094
19.0101 33.2553 207.267
138.273 268.009 130.366
137.145 251.719 151.218
114.905 234.034 71.2582
111.466 189.103 170.258
132.484 139.003 173.644
134.941 237.493 232.026
136.441 230.712 218.562
156.258 318.328 112.073
168.226 354.301 7.51097
74.3723 196.613 280.952
93.457 297.287 55.2252
109.141 250.057 278.321
83.2786 120.095 149.473
98.5468 300.46 200.902
