ply
format ascii 1.0
comment Created by Open3D
element vertex 1697
property double x
property double y
property double z
end_header
136.645 192.792 183.481
134.23 90.5387 167.928
139.77 181.011 166.99
141.122 100.98 160.028
112.831 225.488 153.51
119.767 47.2818 97.7809
149.793 175.125 114.32
120.653 224.909 259.941
101.7 225.983 140.237
107.635 86.8408 63.5967
120.673 130.284 91.5895
105.836 227.719 273.895
114.609 103.45 43.1098
94.8964 199.813 100.772
97.2016 206.035 111.968
122.729 216.579 165.405
135.423 204.307 120.587
102.405 135.727 73.2638
139.867 145.27 147.802
144.345 156.059 174.317
109.082 229.641 263.238
116.447 234.991 275.461
121.925 178.794 93.1947
150.702 199.617 143.552
129.801 165.77 101.68
131.91 158.084 99.3867
128.664 156.825 190.001
139.387 41.8872 90.5858
111.929 207.863 104.425
149.474 166.788 120.075
110.968 126.045 171.411
144.119 194.94 118.534
108.303 103.296 179.605
146.988 93.7055 78.6938
133.978 192.848 147.613
138.335 203.043 129.655
122.519 157.33 95.4619
116.266 243.387 267.334
137.008 165.213 100.02
108.65 222.442 132.302
110.736 181.853 174.186
139.781 160.67 175.313
146.08 92.1095 156.898
117.726 141.314 190.675
112.414 223.9 278.654
92.6546 92.0326 36.3694
153.06 179.807 125.105
122.886 222.113 132.649
94.6186 223.922 139.888
132.766 101.888 63.407
114.637 195.956 106.592
138.097 153.504 154.785
129.807 183.428 182.386
131.396 64.5765 89.3314
139.406 175.426 185.986
127.706 205.533 121.812
127.05 218.736 157.036
146.289 117.802 109.088
127.279 139.407 93.563
130.914 170.291 189.225
120.372 149.184 192.634
135.796 92.3539 52.4194
153.908 185.346 141.068
144.817 89.8353 62.864
110.985 133.778 193.299
127.838 189.471 170.683
132.323 70.0841 152.164
124.793 53.254 129.99
85.3814 108.074 38.9997
113.689 216.268 118.143
136.199 185.736 131.251
127.196 176.018 197.32
137.009 158.538 104.118
134.003 182.543 98.6364
114.014 167.058 202.353
130.561 200.038 178.877
146.706 118.605 126.961
138.589 74.4561 153.604
148.343 138.601 119.589
144.29 175.691 173.629
152.362 153.425 153.613
110.249 135.225 82.3065
93.2713 196.068 185.88
87.7837 196.936 99.5182
146.493 144.413 163.782
121.345 54.5438 49.9553
113.529 219.338 175.117
83.6589 96.6147 35.3059
135.311 192.309 105.018
89.807 189.06 190.085
135.863 137.961 157.535
120.104 203.297 188.866
146.357 178.187 181.119
145.947 56.1334 73.7226
137.939 82.8352 54.047
120.321 222.32 153.03
103.584 211.537 190.441
114.24 41.7371 73.1898
139.689 127.37 104.316
146.221 91.975 96.1014
135.039 182.395 190.567
113.741 95.4235 60.222
113.923 216.003 272.859
131.24 218.443 131.604
122.022 175.401 169.802
138.584 147.174 178.866
99.4227 107.138 37.4484
99.7936 150.682 202.418
147.244 111.06 117.267
150.246 62.613 101.326
107.183 66.1366 57.2387
134.224 171.983 180.871
111.768 64.7824 156.849
134.92 85.1542 48.1507
77.3925 163.015 184.319
82.3369 212.429 183.601
154.59 158.492 157.799
151.215 121.84 135.739
126.853 124.269 94.6298
141.205 96.5229 70.9234
149.306 185.888 173.838
120.847 165.812 93.1811
109.573 242.267 261.724
115.94 110.029 122.024
130.85 173.083 97.3055
111.654 231.706 255.634
106.183 157.667 94.2352
142.131 71.5224 143.481
148.085 123.857 120.524
138.985 184.38 103.538
102.816 135.579 196.208
107.063 171.295 181.565
110.615 217.491 259.776
123.452 110.213 67.2823
148.928 196.902 154.298
150.41 163.357 127.76
140.592 88.5159 157.279
134.811 53.5745 134.392
134.823 98.1447 59.3097
149.54 168.926 172.078
98.6748 174.996 206.852
146.552 192.607 144.148
128.287 47.3694 95.7115
120.001 221.785 278.781
123.723 163.149 197.625
110.722 58.3933 49.0168
139.989 153.886 180.695
79.2692 64.2555 42.4386
137.913 100.303 76.1336
131.782 214.053 165.416
134.497 213.283 137.735
137.56 211.444 149.643
150.839 167.139 158.52
149.092 131.353 121.28
137.824 135.101 145.44
128.406 207.937 175.975
101.887 193.086 94.5478
107.815 155.591 200.805
124.557 101.409 160.166
150.022 181.229 168.124
147.25 125.246 129.978
117.378 74.0877 118.864
119.481 70.656 84.2109
142.428 192.62 167.493
113.81 126.588 93.8878
140.904 183.629 124.073
149.007 135.158 108.608
93.0419 135.2 72.9682
76.4535 57.1643 45.6216
128.626 82.2349 95.233
120.376 210.449 150.464
106.994 216.882 173.386
144.587 98.5305 153.132
150.963 168.82 132.184
134.626 211.799 127.323
138.328 47.1517 73.4977
98.897 218.634 166.112
117.115 208.431 115.157
134.751 133.385 153.128
138.03 117.647 131.244
86.8699 55.874 44.7908
147.585 123.081 143.135
104.692 222.915 167.52
131.332 55.4122 91.9326
147.623 61.0579 112.41
125.024 55.0037 99.3156
100.121 144.456 162.929
136.783 139.107 166.415
130.186 77.2186 46.3493
143.365 90.3772 148.085
123.074 201.537 111.764
126.784 200.903 187.371
155.218 172.503 162.057
115.547 109.72 49.3051
151.136 190.519 134.165
111.678 136.886 184.915
123.035 63.6128 128.356
148.458 126.652 113.123
82.6442 102.267 42.3618
138.155 83.9846 136.428
110.775 155.424 191.438
76.6899 138.381 191.062
123.665 103.888 171.266
136.686 104.768 117.26
131.511 72.6606 110.584
104.297 151.682 85.4734
106.618 110.321 43.491
116.854 195.7 116.456
124.351 87.1007 170.391
83.7501 188.608 103.132
111.617 146.367 198.138
123.923 212.487 121.949
105.043 91.7144 46.4424
122.758 218.174 121.905
140.249 189.917 109.512
136.497 63.2642 73.0259
135.429 142.642 96.1198
121.82 113.68 145.482
118.522 245.162 277.417
106.752 236.528 269.685
131.208 137.126 170.46
93.3388 212.355 187.297
104.964 200.04 100.485
116.277 67.7504 113.464
107.561 78.2752 55.2752
116.636 225.775 267.614
144.228 84.0816 149.376
118.943 172.282 90.4856
149.508 101.067 142.623
115.807 221.706 127.191
124.673 133.181 81.8015
109.901 236.401 280.403
126.686 92.2004 66.7056
112.23 214.309 125.314
133.554 210.011 133.435
142.079 65.4146 116.612
137.057 170.824 125.457
103.723 178.509 112.996
128.039 144.907 186.66
129.112 194.714 183.939
104.699 128.802 180.377
140.454 123.521 112.347
150.54 87.125 100.945
140.989 118.752 119.29
93.0258 38.1505 54.914
137.121 80.8363 158.079
157.214 172.723 151.927
95.5105 175.353 187.284
137.398 98.4006 166.376
152.742 125.286 124.959
137.627 75.9973 53.9633
123.512 57.0813 145.433
138.797 83.77 61.6835
102.234 49.5917 63.0527
133.814 75.9434 102.074
147.188 185.053 148.636
101.346 119.494 171.585
123.336 126.193 80.077
119.642 179.59 199.494
131.54 165.806 176.429
131.994 71.6604 49.3045
94.2294 224.246 173.073
98.3369 183.617 186.4
99.5982 131.786 191.916
123.541 113.611 157.983
135.414 202.488 170.999
80.3443 112.472 43.9832
119.899 82.3582 167.306
130.157 201.64 161.561
129.453 142.061 174.916
103.036 172.922 89.0635
149.766 160.521 166.106
134.463 85.3732 161.683
126.323 173.581 177.88
101.688 167.734 193.864
113.398 159.309 182.806
122.725 218.867 267.863
100.818 78.5782 34.3944
124.117 77.817 78.86
131.943 133.332 89.8365
83.4106 103.594 59.2478
118.016 233.838 286.047
85.1665 111.904 137.481
80.3909 89.5013 36.0993
128.255 129.913 85.8713
152.852 75.0487 99.5762
76.2364 217.369 171.888
129.068 190.421 190.428
128.28 232.148 280.676
101.773 125.914 83.522
124.03 189.865 107.471
113.318 93.4555 168.15
120.377 182.192 176.855
101.018 56.6881 149.758
124.477 221.733 144.267
101.88 221.769 173.891
118.542 96.5442 144.594
127.936 102.423 97.906
90.4162 145.428 87.5952
113.452 131.094 166.182
99.5941 47.1177 72.958
133.412 105.471 77.0141
94.5151 133.873 197.112
99.2777 180.452 180.161
129.318 119.977 143.855
128.814 75.6796 162.944
151.92 179.703 158.072
111.417 191.568 171.336
91.7558 215.183 133.104
84.6222 45.5287 50.3874
83.7953 200.272 103.881
87.0188 178.289 96.8828
107.331 183.93 194.024
122.83 148.555 99.9107
104.199 39.2863 135.395
120.959 201.141 102.881
130.518 97.7241 52.8378
121.481 129.613 178.472
115.364 209.747 171.412
138.403 78.5094 131.25
125.289 68.7412 123.517
98.206 205.412 194.496
117.941 53.4217 145.787
115.929 32.3946 97.8774
115.027 47.5013 105
130.968 199.743 147.905
115.084 117.771 152.629
128.939 143.52 99.4595
116.256 86.8924 57.4128
127.446 180.476 99.7085
93.0859 72.8471 57.9997
91.1609 112.733 41.4981
112.891 236.122 269.018
118.318 157.431 192.215
112.197 216.704 154.451
103.513 73.5991 57.0612
130.784 218.311 272.84
146.823 181.242 142.494
97.0489 218.977 179.211
99.1871 69.545 53.8297
134.791 90.1769 120.025
112.639 189.81 178.038
117.562 72.1235 60.1133
120.606 195.169 185.145
94.799 45.4334 47.8672
93.2784 153.968 200.586
113.184 176.701 204.316
114.492 70.7445 157.824
151.631 189.999 127.24
130.389 196.633 155.569
121.234 170.219 197.282
132.101 124.399 135.801
120.43 215.943 273.768
126.795 226.854 264.62
130.659 109.195 172.184
147.006 157.082 150.235
118.397 211.749 182.102
129.12 63.4831 149.025
105.92 216.19 119.06
142.241 148.5 171.785
92.9137 214.251 171.064
129.728 69.903 83.726
126.717 144.593 88.9866
94.9779 181.792 90.51
139.861 56.3418 126.196
118.159 131.839 82.1386
73.6134 129.205 179.164
97.6966 141.757 200.962
141.139 202.548 164.871
123.736 98.2945 92.4078
125.146 117.392 133.208
120.303 81.356 110.471
131.008 98.064 109.288
146.737 92.1296 141.706
123.515 156.103 193.483
108.093 140.155 191.223
130.825 100.969 123.461
125.289 34.1761 93.693
132.913 44.0769 112.805
119.48 102.339 98.8339
137.456 182.965 111.014
119.474 93.1529 63.029
130.143 199.096 109.416
87.2468 127.422 184.971
116.3 120.748 176.917
97.1653 61.0217 50.4549
125.168 74.4993 145.298
140.428 98.3454 91.469
119.663 45.3879 65.0562
146.506 131.093 104.01
113.707 53.8803 150.591
118.473 124.43 161.582
143.185 176.593 126.378
100.581 83.2297 59.3489
121.483 93.4142 129.308
87.0672 140.436 200.989
144.573 77.6491 138.121
113.418 31.2619 70.6179
105.726 93.5564 35.4066
139.485 109.948 112.971
116.693 27.0489 81.1127
98.6934 191.011 200.122
87.3576 46.7402 74.9066
113.082 190.261 200.346
145.44 100.278 126.725
103.181 47.7668 129.056
126.964 79.0267 137.779
132.083 87.2916 113.878
132.809 204.079 139.18
112.46 64.6647 125.047
132.477 124.117 99.7161
124.445 111.843 171.403
133.621 191.2 124.376
127.538 94.5755 167.156
122.292 59.9584 103.087
105.285 174.937 172.636
95.289 94.4413 60.7802
119.153 66.8377 44.474
106.605 187.313 95.2913
117.826 93.2491 47.8487
144.871 168.899 129.793
139.681 61.7576 128.853
140.398 177.405 119.521
100.006 110.261 174.149
109.299 81.2617 35.5652
131.346 179.745 104.932
141.949 165.587 171.068
79.9939 120.929 176.827
141.911 205.63 157.413
142.233 148.648 106.442
156.455 179.017 150.026
77.3591 156.13 200.701
112.847 175.979 178.632
113.476 144.808 187.001
134.789 207.803 170.96
144.242 68.9348 130.961
117.684 135.615 183.113
107.169 141.092 95.9312
102.585 139.631 83.1014
110.421 244.559 270.982
106.388 92.3149 58.1569
138.483 101.333 151.053
108.356 118.538 171.305
125.936 39.9818 63.5132
123.444 71.8321 130.475
150.09 89.8301 86.3006
98.9241 108.867 181.553
108.345 177.764 194.14
84.2758 69.2596 39.3357
118.374 139.582 93.0336
95.5457 131.578 82.2429
123.853 62.824 151.209
113.426 78.8848 139.268
115.066 161.709 92.0666
144.406 204.995 137.044
125.113 99.0553 71.9212
135.103 55.1064 72.5147
156.125 186.916 159.658
122.827 132.021 126.898
109.776 107.592 50.2224
80.9726 207.682 112.474
117.706 58.4091 127.304
131.404 229.19 273.043
138.738 201.821 177.191
139.706 144.914 166.561
118.75 51.574 113.215
128.668 233.832 270.009
117.229 113.883 53.4583
142.103 52.0655 99.9308
111.196 83.8807 119.013
128.42 37.9259 70.4426
129.979 71.8306 75.0237
127.826 129.042 151.714
133.756 115.308 113.986
145.92 63.4867 124.443
103.73 31.0942 105.535
106.181 220.264 156.429
126.372 85.391 81.0949
104.809 143.789 197.062
107.028 55.8707 56.3867
74.1677 197.179 84.7762
111.154 58.9953 147.021
106.447 106.274 65.7688
105.233 128.926 112.644
99.2057 115.31 45.7607
109.711 45.181 136.72
134.916 41.082 75.9493
146.519 76.8905 105.294
151.169 154.891 137.613
140.019 173.957 100.635
99.9474 214.337 151.241
97.4299 120.134 184.651
127.37 40.148 79.1144
109.358 150.983 181.248
106.647 135.092 176.828
141.357 88.2989 77.6055
112.033 184.093 97.874
95.0674 120.312 50.6728
141.203 76.7665 61.0122
138.835 48.5308 94.5323
136.862 195.356 112.178
104.446 134.01 92.8582
122.101 129.267 165.475
112.949 135.125 73.4302
106.266 41.3683 70.6405
126.187 62.0949 74.4994
133.933 47.1384 64.9265
106.194 59.5966 151.13
110.176 72.2886 59.2508
112.263 195.501 183.325
138.165 110.233 163.614
108.907 47.7277 114.945
148.369 148.125 149.798
103.139 195.558 195.77
143.866 164.402 120.919
93.7344 39.5773 71.2554
126.047 97.2753 78.6253
76.4404 41.6764 128.465
83.7195 219.456 162.062
127.562 133.252 162.861
149.545 155.358 143.855
71.1552 75.1276 133.162
135.646 140.47 173.943
89.7881 51.9286 52.423
130.102 83.8764 108.71
94.3792 120.511 179.687
132.741 73.7924 145.194
90.2415 175.164 205.645
100.062 35.3271 59.4192
151.867 164.934 138.418
95.0663 172.194 94.9854
126.23 164.388 182.832
137.783 59.3899 78.8367
139.502 137.261 105.338
129.828 63.573 47.0857
120.228 236.797 257.972
109.733 88.2094 37.7444
128.34 105.656 149.787
130.952 116.335 162.698
132.478 170.079 106.883
144.963 193.408 179.99
109.012 95.8292 171.424
135.709 80.9397 118.173
125.648 77.2346 102.866
94.7987 55.0368 45.6687
120.953 104.595 151.849
102.839 44.9857 81.6983
105.187 41.9509 88.1617
148.626 175.767 125.4
67.5969 141.132 178.139
110.514 110.255 150.957
140.066 188.749 117.215
132.887 200.705 114.192
107.87 179.155 92.6727
127.387 50.9532 139.089
108.629 43.6497 81.6654
122.702 79.0538 71.3364
131.644 79.9756 52.754
144.043 120.336 132.227
126.176 61.2585 93.3069
70.4941 186.184 112.788
88.2327 45.1489 57.5166
107.663 84.3818 137.49
125.52 100.412 63.4659
125.766 68.3523 67.738
84.8122 116.697 45.3889
107.053 115.772 72.2608
142.748 157.323 143.207
88.2508 134.342 191.112
147.602 83.4485 137.487
80.3198 171.965 112.381
144.584 87.8789 105.285
121.552 40.7649 70.1212
124.167 104.601 141.54
94.6391 94.5561 168.946
120.43 80.089 140.359
115.942 78.5919 152.463
147.037 164.652 178.816
131.83 106.813 67.8478
91.855 135.904 90.7052
143.853 75.0499 70.2933
109.597 71.0553 43.1111
154.992 176.566 143.652
123.54 124.077 143.572
126.599 83.7596 160.23
115.139 54.0441 56.4915
106.767 38.947 60.1485
128.602 221.423 278.249
112.674 214.625 166.298
113.479 77.1015 146.236
112.74 212.155 187.597
116.729 123.474 82.0701
135.907 160.631 117.356
91.0016 165.625 89.0493
94.5561 27.1728 76.3804
112.924 128.41 113.113
116.288 178.728 96.3947
92.8633 104.467 36.1338
106.021 43.052 101.95
129.668 190.923 105.718
139.29 44.7431 79.9663
146.684 200.076 158.152
81.6126 168.119 200.556
121.704 121.443 92.1834
132.841 76.6224 158.177
152.681 183.035 149.442
129.385 56.7586 144.796
96.0154 126.499 189.07
89.1819 29.0621 70.8097
102.858 99.8014 170.456
126.599 71.6997 47.5258
130.551 130.325 95.0291
134.268 66.5153 129.285
85.4776 77.2234 53.002
85.3865 159.643 204.243
83.9876 148.553 199.7
118.602 145.277 86.3263
143.704 187.492 137.448
114.118 119.005 90.1201
127.254 34.5123 84.063
83.343 219.844 173.882
141.276 47.9113 105.203
141.274 153.834 163.741
118.163 96.5081 108.392
122.727 78.2887 161.785
146.287 144.851 142.916
80.2056 218.146 125.02
108.515 71.405 155.411
133.975 160.286 109.352
80.2814 187.242 129.994
118.738 103.193 84.199
140.102 166.673 190.038
115.781 101.105 137.532
132.774 61.5971 66.3624
87.6557 166.63 203.446
122.983 94.8527 99.0706
102.427 125.422 187.186
116.619 47.783 60.4978
108.836 194.879 119.195
75.3785 149.121 196.116
123.629 186.05 100.875
139.281 74.6926 107.273
128.756 217.217 146.144
116.805 56.9111 134.878
129.938 92.2615 74.6986
145.56 165.17 149.168
118.848 53.2026 104.998
141.341 70.324 122.288
119.52 84.8943 42.7374
93.4752 170.808 195.587
115.723 94.0383 92.6229
122.171 86.247 131.884
98.6228 94.8018 43.571
133.375 99.7343 70.3657
139.496 88.4149 89.5218
106.57 43.8856 94.5203
147.016 189.335 153.495
92.5608 213.64 117.186
146.801 80.6003 98.9309
112.916 143.991 86.5995
105.006 87.9131 167.585
133.685 112.272 119.473
82.6679 126.194 190.586
127.408 109.669 125.378
91.373 79.4315 56.7052
116.711 37.0165 117.247
122.326 54.7148 138.068
83.7836 33.4746 73.6939
83.7939 134.12 86.6273
82.9816 81.5029 43.1249
148.795 192.26 165.202
124.958 96.4484 54.1225
118.03 46.1718 48.3974
88.5702 167.964 129.582
142.113 140.192 132.955
114.216 208.325 150.294
129.314 131.412 101.649
62.438 178.485 110.101
136.59 143.815 158.52
137.365 67.1145 136.512
147.879 85.4529 125.965
110.754 176.161 186.855
122.054 40.6418 55.3494
98.8441 100.029 38.8206
149.333 105.809 133.52
89.1365 216.175 180.067
94.574 86.2315 59.5952
112.679 154.026 96.9846
98.7862 66.8214 150.868
142.547 156.559 114.419
108.391 99.4863 43.9626
137.663 118.298 160.748
118.642 63.7037 155.897
102.478 164.1 202.491
78.2761 54.0126 52.7612
151.168 180.353 134.844
130.888 55.0896 54.7633
145.992 65.4837 106.33
77.3005 53.2076 73.2063
122.719 204.269 151.651
131.913 151.821 111.274
108.37 117.959 154.343
122.713 122.97 151.584
81.0664 191.123 192.399
140.278 68.7251 98.0932
117.479 76.5293 125.066
127.671 39.712 130.373
70.1261 114.126 52.3385
90.3136 200.85 167.822
117.054 110.466 177.924
129.264 151.117 101.361
120.112 201.142 178.349
129.063 102.548 57.3129
120.44 186.861 171.023
94.4188 163.653 197.956
117.539 58.0065 63.4549
98.921 70.837 36.7866
85.1684 213.623 115.296
122.746 111.313 61.4808
102.112 83.5889 124.706
150.676 175.599 138.43
124.91 82.2542 86.4775
147.931 197.27 134.398
111.303 40.1167 128.717
95.7193 108.476 42.2325
106.606 75.4594 145.808
144.222 48.541 88.7905
85.6831 32.8366 88.5347
115.275 206.523 120.544
136.566 101.277 110.127
123.918 162.512 101.578
127.919 109.828 85.2336
72.2666 218.876 158.402
126.428 57.0709 64.8194
124.619 87.5761 45.7664
121.398 39.6891 123.36
132.735 37.2057 103.888
114.766 48.777 123.041
111.395 121.518 180.792
119.281 91.1553 169.021
88.2778 152.626 96.3197
91.6489 147.645 202.914
142.331 188.728 157.906
132.127 112.589 156.846
124.497 95.4089 111.624
107.584 197.471 105.825
142.086 79.8717 153.054
137.936 197.836 118.024
130.152 90.8548 103.286
139.8 101.327 137.302
93.2388 45.7263 141.602
92.9507 158.73 121.324
98.2618 151.564 98.9573
150.734 189.086 159.968
100.558 223.011 159.934
92.3939 47.9175 81.8863
95.7197 213.697 161.965
78.5362 173.065 184.798
147.297 66.1121 85.7557
110.877 104.369 116.072
120.144 65.354 67.577
108.505 188.889 101.708
124.142 153.584 177.637
146.353 118.578 146.142
137.59 74.9471 137.416
123.934 63.4079 46.1032
123.853 67.9728 90.5125
77.7792 67.6705 56.1245
137.437 57.1811 119.983
92.8837 85.5185 122.421
143.74 79.8469 144.567
138.638 195.272 127.999
134.836 94.8449 135.726
90.3716 54.5874 70.7948
78.7509 86.5964 57.6025
119.513 118.625 141.27
105.597 121.763 91.7293
118.162 95.1658 137.596
129.924 128.422 145.021
103.222 89.0325 158.522
121.043 95.7149 158.983
138.839 92.6182 59.6396
88.9404 94.8056 56.4005
66.7108 104.082 42.3388
143.672 105.705 114.059
77.5073 71.5502 64.4742
136.278 49.8848 110.917
97.9924 168.385 100.769
103.39 109.031 89.9712
133.159 129.71 138.72
140.028 112.295 157.253
136.446 129.414 126.755
127.543 73.8061 155.514
137.45 143.383 135.98
133.662 44.0814 94.0474
130.007 39.6676 89.6877
107.773 172.165 201.077
124.994 89.6114 96.4045
115.723 93.3595 40.0776
103.519 30.7424 114.819
64.527 215.778 147.838
150.503 168.344 144.267
146.641 67.1233 76.5349
109.465 33.3071 83.0911
109.807 114.024 51.7873
119.664 170.419 100.877
106.138 134.629 186.903
131.894 119.506 128.826
101.357 76.6295 147.329
135.821 63.3877 142.296
95.3773 60.9162 150.358
152.326 167.702 150.588
146.179 97.2013 138.267
151.627 77.5413 108.013
133.861 65.1726 81.7495
128.942 38.615 109.562
95.8 69.6213 45.193
105.112 40.1149 124.246
110.156 169.809 91.2784
96.5203 39.2259 118.792
110.656 69.3605 145.44
110.939 124.52 157.582
137.659 85.6682 100.331
114.797 61.3656 51.4381
108.942 65.0807 43.9507
124.649 150.449 185.063
108.236 104.409 59.3588
141.828 183.488 115.786
75.7243 193.696 111.738
88.1327 221.879 128.721
102.797 65.0741 44.8121
107.573 218.354 182.336
121.571 76.6342 135.168
127.708 111.555 75.5437
122.198 85.4771 158.154
134.989 104.319 143.883
136.206 87.5164 105.044
95.4937 31.7998 123.174
123.014 48.1731 123.713
104.781 29.0861 77.8713
127.055 103.219 86.7377
77.7436 49.9943 84.2437
146.894 147.782 124.272
119.765 73.8939 67.257
146.82 153.035 157.258
124.778 118.113 86.9391
81.472 135.21 186.573
128.75 54.6527 71.0768
99.9618 28.8493 69.9578
79.2952 142.09 197.273
130.984 102.428 157.95
134.561 93.1048 82.1665
106.097 64.535 156.646
94.2298 128.96 68.2046
136.515 129.257 114.78
128.801 43.7447 65.3313
124.778 204.937 159.759
109.935 44.9522 48.7002
100.26 90.678 62.1398
124.639 137.994 88.0773
113.915 112.349 143.036
133.965 62.5083 117.203
116.051 102.713 112.778
125.736 104.257 79.9772
143.186 132.586 113.958
141.837 65.7756 81.3021
77.7035 135.129 163.89
144.422 159.813 168.724
148.08 111.203 125.546
120.629 71.7289 161.763
64.6396 205.852 134.159
101.443 54.2458 53.2649
94.2328 225.041 154.978
104.01 199.819 112.8
109.988 96.2676 93.7361
141.138 140.781 141.626
98.4718 195.261 165.578
105.423 32.9411 63.5477
132.709 62.6621 135.915
87.6802 65.1439 57.1805
137.536 174.123 115.768
127.633 32.2405 76.6208
134.589 54.5652 65.3357
74.4616 113.339 46.1371
110.381 218.592 161.836
142.94 72.6603 112.579
106.61 53.8485 145.671
132.334 65.4588 53.4536
147.54 148.858 138.875
121.878 33.752 81.4709
104.816 65.424 136.515
109.112 35.3058 120.741
128.29 123.457 85.88
112.282 116.687 57.0358
123.021 128.396 157.236
93.343 166.336 122.676
124.947 118.055 166.692
122.461 109.975 80.9134
104.69 118.815 65.4132
80.6113 111.694 173.55
107.876 100.046 107.663
114.488 201.24 195.313
150.443 171.828 166.445
148.145 197.321 168.15
145.14 175.136 112.062
119.291 122.793 70.0507
104.452 70.4992 151.667
94.1655 115.728 45.0547
99.3109 159.725 102.454
136.211 77.2056 112.648
87.5989 179.855 194.216
123.243 51.3628 62.6171
98.0131 116.808 64.8957
130.047 62.6439 58.7518
127.184 189.035 197.509
120.316 143.162 180.169
68.9966 73.2116 40.5558
112.961 58.698 40.955
140.805 104.308 143.313
120.89 117.473 172.061
84.2206 219.997 151.473
136.851 96.7195 100.211
133.198 34.9342 82.5909
94.0584 177.339 104.267
114.275 94.9384 149.93
116.365 127.118 74.1868
104.322 46.2468 48.6941
115.543 175.245 171.221
101.24 101.438 180.972
111.089 127.366 86.0606
145.481 107.272 146.771
141.523 119.71 155.349
146.575 101.323 132.605
142.583 193.194 131.722
128.932 148.806 106.663
141.865 139.662 151.874
96.4563 168.707 115.754
127.665 91.0743 162.383
140.474 167.787 115.201
140.902 115.408 151.288
92.1435 50.6893 88.1857
118.367 96.5389 52.8882
89.1167 119.224 47.951
147.075 78.6712 75.2782
148.411 114.235 138.531
117.083 87.6542 143.99
113.486 90.1188 46.269
147.64 105.408 126.344
141.702 83.6257 97.378
104.55 32.9909 70.8614
83.8553 28.5144 78.6942
100.766 222.583 152.305
142.981 148.489 135.303
111.064 42.8598 121.531
111.506 45.3987 63.2929
94.5277 184.439 96.6464
141.362 145.344 124.459
87.3303 88.1063 36.5939
137.438 96.0057 107.335
130.797 43.0567 84.2404
111.697 175.567 95.1176
122.4 100.408 58.0316
119.545 209.024 158.12
135.281 98.8492 87.7303
142.488 108.284 154.357
93.5304 87.9044 45.6225
142.521 111.733 136.053
147.254 171.653 136.674
102.996 176.812 188.373
134.406 157.47 179.998
117.73 74.3213 42.0564
144.163 73.6259 77.1923
109.871 59.0091 136.146
133.185 77.3366 59.3556
141.644 70.1061 74.1135
125.717 140.244 177.85
116.667 79.4106 61.9083
134.71 119.081 123.481
146.69 56.2245 96.8988
85.7184 204.187 185.218
121.354 67.6943 158.292
116.509 114.385 59.5593
75.0025 80.9595 59.7075
138.75 97.0506 128.161
143.888 73.4314 90.2308
114.634 44.717 131.872
116.891 51.0111 140.325
141.678 85.0194 121.714
99.8579 39.136 69.2994
122.356 60.7533 52.9974
114.876 83.2271 160.281
102.153 112.711 158.834
128.846 83.5748 47.8243
113.14 122.765 70.8818
122.647 111.705 128.152
128.288 85.7638 75.0806
82.1578 111.343 58.6685
53.4569 100.997 57.5652
144.087 113.9 147.047
106.299 100.794 159.524
146.002 156.668 134.428
94.9814 110.399 168.814
111.792 52.5702 143.406
143.589 81.9373 107.476
118.766 60.2302 149.556
134.451 124.241 122.723
137.283 73.6865 118.094
118.074 104.266 49.2213
137.897 149.825 119.599
128.849 59.6523 123.391
121.515 193.747 172.543
117.125 145.89 95.0866
86.7786 108.526 178.677
82.9535 44.5152 65.048
110.765 94.0695 159.319
143.374 71.9028 135.228
81.0698 42.3721 56.9534
128.854 203.587 154.814
90.8281 201.764 114.498
147.256 109.73 142.227
147.063 85.8992 111.435
99.3635 70.319 136.467
97.5095 104.821 58.0005
141.074 56.7122 89.2749
117.106 90.2405 160.286
119.021 117.382 69.2004
101.521 109.087 48.2073
126.356 68.5518 151.906
115.962 167.162 92.1663
135.286 45.5103 102.673
125.85 170.986 201.578
101.821 41.8241 53.9014
142.856 79.1207 91.0925
122.051 74.7209 45.3367
89.6363 58.8611 128.532
97.4271 46.1158 101.396
132.929 47.224 122.9
144.391 159.918 126.917
97.5748 43.8546 79.4217
143.138 60.3323 83.0696
138.609 67.0327 144.323
122.421 112.028 72.8185
144.373 52.4199 93.1746
105.87 107.772 143.468
109.671 105.504 87.8454
109.326 180.626 103.75
138.579 170.885 172.195
130.687 54.1604 125.851
100.491 133.195 185.696
136.233 41.4556 83.7241
74.4598 43.7876 56.8795
94.1361 24.4691 84.1971
120.896 120.26 76.0528
143.321 98.0446 112.727
121.278 99.2093 120.821
100.713 88.1612 134.192
95.7263 192.411 95.2879
114.556 105.564 63.6416
122.097 64.3837 96.105
112.831 120.752 64.3076
142.989 56.6652 104.898
109.199 34.0928 76.3382
94.9423 48.5112 63.6422
139.067 168.005 180.307
119.854 101.787 64.3252
70.9761 97.192 38.8215
146.596 77.8685 132.315
95.2957 73.1042 150.315
70.4778 63.7044 42.1473
96.4046 72.9348 142.672
110.147 79.4855 113.67
133.314 137.425 98.8198
106.827 75.1613 37.5842
110.587 110.291 91.5536
107.557 34.5066 99.0091
142.663 78.0392 120.635
92.7542 177.556 174.062
132.817 107.059 165.39
107.092 52.177 47.6487
124.54 104.688 68.3337
114.081 48.4955 112.059
147.282 104.131 151.444
104.098 109.899 60.2256
88.3795 112.328 59.3346
110.369 76.7104 158.844
88.1624 126.593 68.0144
142.972 88.8311 138.834
94.4828 43.744 115.636
82.856 160.268 129.449
118.551 123.398 114.102
116.976 86.4149 136.772
115.475 195.606 194.912
133.17 149.764 179.987
121.283 67.4817 100.634
73.998 90.762 36.1944
84.3443 39.5258 69.3584
140.214 59.5976 111.076
87.9073 184.49 183.014
117.28 110.446 69.8463
97.1374 82.5125 36.5288
113.87 104.28 94.3598
139.217 62.0247 87.3011
140.099 53.8119 114.312
148.507 153.51 129.485
68.9427 106.52 48.543
138.331 135.829 139.245
100.311 90.8601 36.9077
120.63 71.4418 151.732
119.802 48.7001 130.686
134.402 131.889 132.276
119.17 181.88 104.393
91.1321 161.226 98.8957
88.3686 101.068 67.9186
147.65 114.264 132.61
110.972 85.3685 48.6234
137.368 62.3705 58.3116
116.776 102.356 124.838
116.04 114.439 75.173
115.513 36.1942 56.0401
85.9707 131.943 71.1304
144.679 161.646 132.859
86.7254 108.581 67.0717
89.1794 27.8747 80.7397
71.1216 155.473 188.572
101.625 81.81 140.116
120.217 82.6618 127.328
146.137 91.5924 124.087
108.551 218.624 278.94
86.3658 178.992 132.969
147.264 95.1554 131.753
130.294 138.838 162.547
136.483 49.8902 117.779
100.289 205.976 139.514
141.825 92.5695 133.174
93.5658 31.3251 63.8007
85.9067 133.018 195.82
136.344 145.253 171.486
118.522 99.2226 46.1562
125.108 79.1922 45.3434
124.724 135.42 168.028
92.6076 36.3963 130.413
97.2503 77.1954 55.5516
109.821 129.043 73.1714
79.0629 60.9862 113.522
89.7424 26.8297 88.5141
76.8734 105.203 45.4992
110.845 124.89 131.752
121.077 159.63 181.647
139.485 51.5844 85.2499
95.9028 54.8895 57.1288
155.331 163.465 154.47
110.986 50.644 60.0557
119.071 97.1149 172.217
97.0267 93.5039 150.286
86.5699 50.8131 87.3169
138.32 67.7455 90.0937
82.717 33.2134 66.9431
146.136 78.604 126.381
152.628 18.7545 91.4939
106.645 208.321 133.256
102.877 174.769 106.525
109.964 113.99 64.6061
80.9576 119.465 54.0725
120.823 103.546 90.8873
110.481 93.881 131.587
100.818 80.465 52.5255
116.444 98.0634 159.683
113.017 42.0971 57.092
139.732 138.128 120.959
94.1682 32.1299 70.9485
122.747 39.6153 88.5911
143.518 62.1418 101.694
94.9932 107.995 151.911
100.754 189.998 177.859
114.873 57.9457 115.36
132.415 144.584 182.143
141.697 152.045 128.247
139.989 81.8714 112.97
119.198 198.186 164.037
124.62 98.2496 105.098
90.5843 168.456 103.705
130.807 94.2289 92.0743
123.375 137.569 179.991
94.0299 46.4088 93.2139
76.7708 123.82 166.416
76.4713 96.4969 39.512
139.268 158.708 110.508
138.876 54.336 108.326
123.293 48.8005 117.241
129.517 132.463 157.823
130.335 48.0709 117.603
91.3383 63.4536 47.1377
94.8441 218.727 154.603
119.245 82.7679 120.445
105.511 56.6361 125.631
104.568 84.7433 39.4949
91.726 84.565 39.4514
112.271 78.6877 59.5927
112.255 183.102 109.214
113.633 132.08 176.09
78.1616 167.104 192.347
117.826 188.367 105.097
84.4462 69.8897 51.79
138.784 135.064 130.102
109.982 45.9103 108.447
140.958 99.0565 120.268
63.6256 156.832 184.603
118.327 107.752 89.9243
143.497 82.5439 72.6302
101.272 91.779 119.6
95.3627 112.074 58.4432
109.658 61.3873 62.4746
109.091 124.014 69.0647
145.972 87.767 131.549
99.6851 41.6248 97.8047
114.555 111.068 133.756
117.286 206.695 142.217
126.088 91.5738 49.4875
65.586 56.4791 92.4099
147.772 76.4511 84.6153
111.369 149.266 93.4479
87.2448 116.727 53.6831
126.232 61.5327 135.345
93.5093 98.552 37.4158
101.622 101.191 59.1817
119.537 151.914 92.9117
69.9523 168.497 193.939
82.8677 47.3331 81.2914
130.475 100.129 167.732
120.089 88.3125 68.143
89.2588 98.3411 44.246
151.345 161.387 142.308
67.8902 47.2176 59.7375
92.3265 109.642 68.1278
82.5384 34.9126 124.277
130.57 90.0154 49.9839
147.207 76.4361 93.7929
96.3359 116.821 74.1014
83.7766 53.0137 48.5873
99.7235 25.3481 100.071
112.082 92.3484 121.257
71.0831 152.803 181.547
112.223 57.4764 126.944
141.831 154.439 122.569
105.22 43.2685 108.926
107.319 49.7457 141.64
90.8735 199.442 191.123
90.4247 65.0189 148.629
129.561 140.777 105.371
120.215 82.2967 52.0429
131.841 96.425 96.4957
98.6088 100.243 98.7236
116.895 77.7436 160.641
77.3534 77.9696 40.1534
87.2025 66.95 46.4856
81.6699 180.751 95.883
102.939 100.265 42.733
88.63 54.5576 123.251
141.143 94.7336 119.581
91.9974 50.4026 120.167
117.348 106.941 54.6162
116.157 114.418 65.0924
95.9883 161.209 205.156
128.043 39.407 96.911
97.4178 30.8378 117.579
121.51 106.8 57.9208
144.854 107.292 120.673
101.175 177.414 197.132
99.7642 41.1152 108.83
87.6074 34.8939 118.48
119.731 37.674 109.898
130.725 60.8869 140.425
103.661 161.614 193.847
142.944 84.3685 90.7964
114.195 63.7323 108.108
83.5197 204.864 144.227
142.186 79.6786 81.0943
122.833 85.2331 72.2191
85.648 40.9403 131.805
98.1003 66.925 143.401
127.831 101.723 112.996
98.3102 61.8493 42.4981
143.885 145.956 130.067
115.155 89.7524 153.879
137.323 93.5268 92.7543
107.986 43.7951 55.5031
128.073 210.8 157.597
65.4421 112.164 48.0072
93.6549 87.9613 132.167
108.195 127.383 81.4079
105.436 104.251 48.4978
123.637 200.23 169.704
66.3813 147.03 188.615
141.635 82.8004 85.1936
110.982 84.9326 110.916
105.226 119.283 51.5838
138.511 98.1587 143.061
148.599 67.6053 91.1025
102.401 115.112 82.5505
115.979 79.3434 45.058
114.472 104.622 131.573
103.066 103.991 94.9202
124.987 170.94 99.8998
115.363 84.6725 150.319
130.152 56.0469 79.232
127 76.6366 90.2863
79.5496 54.1025 108.711
92.6945 54.1803 139.822
108.629 206.625 117.61
110.098 112.5 75.0904
144.864 84.1942 67.6422
89.2493 73.3405 46.6712
102.584 62.1224 54.9206
145.863 53.6135 83.0037
132.559 71.1358 58.5989
117.719 34.5769 66.5392
125.146 35.2486 101.07
102.522 50.5127 118.727
90.8997 54.4887 62.286
77.7401 54.6925 94.5068
89.1057 103.112 42.5778
90.6031 124.212 57.2762
140.575 145.454 112.609
101.571 81.9427 115.995
122.97 76.3288 95.0156
122.548 134.686 172.99
127.084 98.266 85.3518
70.7573 128.637 161.606
104.057 53.8873 134.841
76.4897 140.273 168.181
94.0415 150.945 92.3133
92.0805 43.694 133.72
135.376 133.112 109.902
144.668 59.6058 91.7333
122.292 34.6147 71.9591
128.366 68.6232 141.755
69.4034 82.9776 67.5824
79.4798 123.857 63.519
91.119 67.8775 42.6523
112.257 82.0593 40.3041
89.0375 174.092 182.187
91.9478 158.569 91.6434
119.215 81.893 66.2829
68.524 216.112 134.149
96.3872 77.7021 138.243
102.388 52.2075 142.401
115.519 58.2097 108.333
131.01 155.091 182.94
102.296 33.6766 81.6192
105.681 119.632 58.5277
78.8381 45.5148 110.317
59.2593 74.3262 65.6528
76.2757 73.7612 46.2491
94.0253 71.8077 38.5036
99.488 36.9826 93.1501
122.716 90.7703 123.317
126.323 90.1456 90.6193
116.139 109.92 79.0552
65.2311 95.9007 39.1053
88.4115 79.8689 46.531
80.0736 78.149 54.0687
101.703 45.0371 114.823
89.7125 30.9271 106.076
111.823 104.998 141.138
82.0849 181.371 176.609
111.925 38.8519 91.2321
137.879 93.2746 112.811
98.4272 50.5723 139.825
85.5356 86.3817 58.1323
81.6443 217.064 147.705
130.78 44.0326 72.4773
113.435 62.9995 149.492
144.906 71.2273 106.597
150.443 77.2062 113.144
92.5398 76.2121 43.2719
76.0425 103.07 38.0344
97.8288 200.811 119.248
139.548 81.0378 67.7014
132.26 144.584 111.283
118.416 122.648 148.326
138.281 62.9479 106.075
91.5855 180.992 129.613
119.978 70.0863 49.8719
124.046 105.437 74.2253
118.261 37.7197 62.7528
86.4629 51.3173 112.37
107.875 94.1177 50.7055
76.9245 59.3028 106.909
136.948 52.3707 80.2259
86.0267 118.661 179.03
93.2348 117.446 56.8266
119.287 107.619 130.069
100.195 119.169 52.9614
120.193 77.1881 85.5064
144.21 71.3505 82.6887
102.049 222.153 131.218
122.164 102.608 52.5106
135.908 74.2878 70.4061
117.568 87.928 99.0758
110.058 52.8182 132.622
131.077 73.0398 63.8153
80.8131 173.292 122.111
141.334 66.8038 109.837
71.6046 71.0106 67.485
133.189 47.9686 72.1576
140.611 92.3133 97.4426
115.465 178.481 104.782
116.609 201.384 169.232
118.492 40.0909 93.7454
96.7837 57.4237 144.025
115.513 66.9322 41.3302
88.2929 61.2223 50.6741
120.868 79.6725 148.122
97.4779 44.8929 86.5367
108.043 145.511 135.269
107.983 101.395 96.06
104.557 105.24 155.124
103.644 126.384 66.6963
80.1585 63.8488 122.08
123.039 43.7955 118.846
105.401 98.7587 36.6846
101.171 109.214 165.694
110.314 61.267 119.033
72.3676 103.633 43.7389
92.1997 94.3655 125.351
134.233 66.2421 63.0024
140.767 136.422 126.232
142.563 84.0076 128.775
106.677 53.7372 120.457
116.354 74.9845 89.7177
84.1301 161.788 97.3208
69.3293 143.664 168.886
100.169 26.7311 87.8046
130.12 107.08 120.149
112.754 38.5003 64.4719
79.8205 116.318 48.8284
115.144 64.9303 48.0864
90.547 113.403 181.064
80.307 100.795 70.1068
96.4926 193.267 174.008
70.677 40.7787 122.685
58.7004 160.082 182.486
110.042 85.0649 161.288
98.9208 86.7366 40.1364
79.4376 92.4094 60.4005
84.6265 131.835 77.6578
85.4793 89.0392 48.6106
100.131 27.7279 77.8311
87.8837 38.5649 83.5685
92.3771 100.593 130.392
138.85 70.8839 65.4274
118.167 70.9362 92.9242
96.4381 78.6317 40.0628
100.961 113.415 51.8187
117.716 32.1565 76.2985
85.0077 123.353 62.5888
72.0963 129.545 170.03
74.5728 30.3874 126.287
96.0665 123.023 71.242
92.676 129.117 97.194
92.7927 66.6634 139.789
118.674 87.8985 111.811
101.198 100.19 109.268
121.853 86.3103 88.9398
73.9206 119.054 56.8056
85.8692 118.25 70.3683
123.318 40.5909 114.011
87.8247 144.292 96.9025
83.4808 50.6176 93.2508
95.6953 45.33 129.31
99.1834 50.0434 48.9941
98.9105 110.146 63.9208
119.615 84.8938 78.6378
97.3839 52.9456 132.122
111.151 37.6964 112.741
93.2845 111.162 96.295
80.023 64.0089 64.3176
106.665 90.5421 124.216
119.967 204.89 161.794
136.566 144.41 108.281
114.793 91.1971 134.423
148.594 156.256 162.419
65.0583 133.131 169.61
110.14 116.016 46.9295
117.664 89.8789 103.506
71.1915 38.4739 136.398
84.6515 188.595 118.014
114.883 32.8739 111.213
89.8981 120.689 62.7914
100.621 166.026 92.9419
106.896 98.2998 59.0605
127.904 91.9557 83.9183
119.085 72.2201 98.8808
83.8867 60.1984 59.1184
124.071 88.702 112.022
116.415 110.737 84.0955
79.1908 163.041 110.633
90.5993 126.349 76.198
119.536 33.7486 104.215
89.6888 80.257 39.8552
78.2186 108.237 64.9477
84.2286 110.112 166.302
84.2297 177.296 107.207
73.5634 34.4043 118.466
140.317 62.9465 96.4145
135.353 67.0459 68.0975
85.7577 50.5435 145.084
111.576 65.7482 118.565
85.6535 93.3462 41.4404
109.033 77.5981 151.32
89.4042 46.0587 63.8309
72.5658 123.813 71.1503
70.9984 45.3955 134.17
118.716 78.1982 50.2305
59.5071 92.0125 41.465
77.292 129.947 149.885
63.6133 56.1208 49.7026
58.311 145.242 174.684
104.726 58.1034 43.7122
122.269 49.1445 55.3405
89.0639 212.639 141.501
79.1271 95.0913 46.5294
113.454 37.0186 85.0945
115.939 98.0413 128.854
125.097 35.9506 108.91
117.067 42.5091 118.192
88.0573 182.946 199.325
84.9447 29.4125 115.957
82.0519 136.945 97.621
102.12 116.395 73.7692
100.384 208.616 130.517
74.1007 215.587 127.568
99.3451 148.99 91.9772
116.832 112.53 88.6101
132.671 55.8145 60.5009
114.299 104.806 152.077
94.3298 66.5794 53.4456
92.3852 100.803 56.437
83.8035 39.8203 79.0936
136.133 149.163 114.832
101.522 154.679 91.901
99.0948 160.37 93.6829
79.1009 129.47 73.55
82.7395 163.604 105.512
76.9711 60.8098 137.386
79.0211 135.994 157.041
88.0912 193.464 177.354
79.7036 58.3737 98.752
143.862 104.804 138.383
75.7025 131.457 101.519
109.489 223.753 148.837
122.479 116.493 79.9606
136.489 140.135 115.819
75.873 179.393 183.256
66.9362 54.635 105.905
97.2698 127.739 75.722
126.895 51.6859 54.4121
89.6932 38.5604 124.105
60.4962 107.439 51.1079
104.541 101.619 103.447
143.692 74.8664 124.439
61.7676 146.174 183.015
78.9075 180.464 194.74
60.155 97.6162 44.2246
78.3748 54.6641 133.034
126.487 98.5976 135.217
69.9853 70.9182 57.7625
116.109 89.8271 116.318
69.5314 58.1902 49.0883
78.4344 119.818 60.0637
116.423 111.003 153.972
83.9318 115.937 61.9829
71.0472 58.4691 99.3081
128.315 42.2984 114.505
139.064 99.34 85.01
91.9083 59.0873 56.7257
104.989 54.6107 62.6311
96.9601 61.3503 132.046
86.9758 161.012 114.085
89.9621 60.9163 145.228
101.15 104.511 86.017
85.5823 141.109 84.167
104.922 124.108 75.171
86.5162 51.0581 138.304
111.331 75.603 43.2857
65.3605 77.6018 61.9085
93.6832 105.423 64.2594
77.1771 44.1697 66.0197
90.0169 65.9281 134.379
97.3076 59.1448 137.647
74.5939 53.8607 100.504
68.4889 202.228 180.782
128.798 64.9396 64.7551
100.758 54.4463 43.7444
93.5434 29.7339 111.841
73.605 111.153 57.3671
88.2177 46.3731 94.652
80.7754 72.9547 45.6249
113.927 95.588 100.901
89.8388 88.3679 53.5911
128.065 217.879 125.847
70.2292 49.9342 90.8562
78.2166 112.716 54.8719
71.5305 65.1622 101.543
104.334 92.2279 129.279
79.4459 38.0364 116.824
80.421 180.265 113.375
83.8876 54.8881 78.4177
108.659 118.557 83.92
72.6587 118.297 64.6484
100.86 104.354 44.1314
97.4297 89.565 162.48
122.73 73.0796 71.5199
87.3573 35.5757 129.658
58.1003 154.02 173.81
109.775 100.221 101.892
113.847 71.8968 64.7386
96.4123 112.705 90.4977
80.1618 124.258 70.9592
76.5141 46.3363 138.583
101.371 65.2499 39.5672
76.1898 71.1361 139.464
72.466 36.4185 82.0827
60.8908 85.6737 39.6829
141.441 68.6482 86.4362
89.6928 104.676 161.615
73.552 63.6836 143.943
91.3784 48.2821 146.382
101.89 98.663 133.324
71.3432 60.4033 111.473
98.4327 123.155 64.9573
79.3783 116.491 71.3841
76.39 168.407 124.817
109.102 68.2996 36.6806
72.085 78.3108 65.8546
116.673 35.4765 91.3968
73.435 60.3861 55.4372
100.524 116.726 167.036
109.145 102.86 132.452
76.467 128.287 187.148
83.8639 61.6793 133.536
91.3179 83.1475 141.388
76.7099 33.5748 71.717
67.9174 54.3375 63.3702
134.876 78.4172 65.7841
87.5926 56.3919 143.23
74.9434 71.9336 54.3141
116.863 103.617 144.766
93.1969 181.455 194.65
69.1194 157.068 108.55
72.3929 81.4836 40.3446
89.3813 48.542 99.9049
96.0026 165.474 148.445
87.6762 40.8059 101.166
71.5785 43.4081 86.5375
74.0736 48.8671 62.7452
84.1666 61.7033 142.372
71.2075 58.0928 86.2668
120.266 82.8958 103.339
88.5864 63.813 138.335
85.0507 158.638 118.477
72.1863 57.2417 119.514
125.309 97.7167 117.441
100.239 126.518 71.2516
89.9887 112.206 173.512
79.0558 46.2818 103.297
66.2178 82.2229 89.2243
89.0219 45.3499 117.19
62.6428 109.131 55.9636
92.3356 45.288 105.176
79.5105 52.6267 142.717
85.4192 45.6616 136.342
95.7838 96.8104 136.556
74.0145 221.508 145.37
86.7764 42.5193 108.418
74.6841 65.6871 122.486
98.4411 213.681 124.707
71.6991 140.467 158.161
71.0839 88.7881 66.1214
65.8662 77.8754 72.0923
113.969 64.2343 68.1716
118.606 34.2794 85.9225
63.4418 49.1711 96.8667
70.2916 134.461 155.11
63.8352 45.3905 129.478
59.0879 51.7465 100.374
83.0702 146.949 99.3883
65.4402 44.2649 103.722
93.4626 39.5563 99.3056
113.099 32.5911 103.968
125.59 72.7429 84.1303
86.1097 118.768 127.26
63.084 195.352 119.234
79.8918 40.5951 135.087
76.709 217.723 149.816
77.6275 29.4712 87.4231
73.5818 128.18 75.445
