ply
format ascii 1.0
comment Created by Open3D
element vertex 804
property double x
property double y
property double z
end_header
101.49 211.722 134.834
119.099 118.04 160.031
96.9692 52.4729 86.9052
23.3723 255.391 151.849
101.329 214.384 107.371
94.8841 111.929 154.442
110.742 199.585 76.4346
112.369 63.1139 136.232
104.781 78.3637 76.9856
124.096 182.844 80.1957
124.134 186.967 122.69
66.6579 102.36 197.506
37.2993 275.695 120.916
77.4312 144.116 81.1396
106.275 131.754 121.554
110.403 66.1616 112.419
100.573 99.0162 199.36
96.614 123.785 154.75
116.605 150.907 136.579
105.994 212.43 115.502
96.2435 199.177 177.004
123.742 174.785 125.479
117.428 184.874 171.546
125.606 191.672 108.855
86.0072 40.9664 140.225
84.478 102.214 38.0402
110.005 93.3565 119.07
121.824 156.502 151.38
106.216 140.516 88.1671
99.1923 69.9896 108.21
119.794 187.506 159.125
105.094 106.552 105.853
25.6215 260.029 133.278
105.466 92.2992 62.765
112.715 83.8023 143.492
105.908 86.7644 85.8193
113.031 67.6678 126.592
115.017 160.912 195.061
94.6268 167.894 204.824
121.068 151.509 186.477
116.729 288.762 183.345
80.4834 229.849 197.978
116.613 158.053 79.6096
88.8446 161.939 45.0574
92.7132 104.852 40.9055
119.844 133.576 183.105
71.4461 127.325 194.52
122.923 149.784 163.48
82.8906 34.9386 109.293
101.457 44.816 104.381
59.4191 94.8696 62.1116
97.4278 55.7803 153.223
91.9443 138.69 117.745
120.935 165.624 108.27
95.6751 39.5408 112.21
99.51 90.6511 53.2412
98.1206 56.9338 162.947
109.494 135.593 73.0887
124.578 180.745 102.427
98.1056 212.573 91.2062
101.818 47.6436 132.68
92.5795 93.7364 105.387
85.3632 79.3988 107.067
73.6823 170.311 48.7019
97.0015 129.774 137.533
110.457 121.363 66.6882
40.1151 272.936 200.978
105.06 71.1099 85.829
75.0189 180.406 187.877
81.8482 312.415 141.72
110.442 154.073 53.9235
105.153 76.2728 176.638
65.7293 173.499 59.4084
120.782 199.251 118.145
114.314 129.453 144.126
81.3023 44.9931 81.8442
96.5213 105.196 109.924
49.9596 48.0301 98.1029
68.6268 261.927 105.143
77.1897 157.452 113.248
118.545 155.787 95.644
42.9887 287.719 189.968
61.8308 198.143 132.798
123.844 165.678 91.7974
114.482 300.586 124.955
85.4257 186.68 59.6953
103.908 128.448 108.758
46.4459 291.265 180.529
74.8837 157.359 201.683
66.0208 72.2463 156.287
86.8945 209.54 86.136
78.8633 66.7513 182.653
108.72 165.545 52.1729
106.592 91.0629 101.458
120.197 199.607 92.8863
94.3237 137.944 131.514
116.96 145.182 143.101
47.0508 66.507 61.6137
41.2917 280.916 162.326
119.896 161.45 132.661
89.8943 150.315 150.158
89.0898 216.331 104.927
99.2286 80.3375 61.1248
121.553 185.808 151.305
81.6391 141.817 37.2785
97.5061 315.919 156.415
74.4701 278.511 125.053
70.6131 125.335 207.909
83.2338 156.421 141.925
122.515 162.816 99.9931
81.0815 282.372 154.243
109.051 63.3155 151.564
112.363 169.809 192.246
107.308 139.024 110.307
121.471 161.105 86.0561
110.314 147.38 99.1597
88.9306 52.6894 77.8373
66.3891 259.76 114.626
75.0217 151.194 40.8899
101.056 64.8359 80.6432
112.912 70.4872 144.407
25.4823 248.093 158.032
70.1207 264.334 145.9
67.6939 122.199 62.0567
107.721 106.117 122.81
107.446 203.493 149.237
106.629 52.1464 124.826
85.6551 92.9481 141.91
28.5211 247.578 167.314
111.213 146.222 74.2117
102.544 122.407 97.7173
105.746 100.792 57.1425
98.1732 117.051 134.845
78.369 75.0346 191.093
111.814 76.8078 110.011
88.2781 64.2382 177.514
64.6367 246.82 128.735
94.8484 294.839 209.405
76.5693 39.6943 139.949
109.437 55.8678 129.39
86.877 88.315 129.999
90.874 296.78 92.087
112.218 177.263 58.8548
111.225 82.9724 112.903
116.654 159.367 66.4541
114.013 76.4442 131.98
90.4485 81.2415 194.078
96.0684 244.751 194.638
83.5575 144.506 92.2627
118.208 173.499 178.664
86.8273 149.882 41.6488
90.0633 146.102 132.944
95.9983 99.8087 118.41
79.3496 75.3226 96.8515
84.6868 77.3604 117.292
111.117 185.784 63.0112
90.8479 38.3227 103.585
115.039 307.148 140.751
77.969 271.113 156.323
85.1853 311.408 129.578
87.9079 114.841 168.51
101.021 167.075 50.8298
77.2588 156.886 95.4525
82.5653 50.0833 72.7898
123.917 174.822 148.951
122.224 197.963 105.95
110.618 148.712 86.0969
120.667 125.134 164.752
63.7313 163.833 52.7345
97.0153 49.1662 147.965
98.6707 47.2004 95.4075
98.5539 121.274 128.317
114.312 132.17 194.747
72.9914 183.666 175.223
118.507 195.793 79.9486
108.109 112.017 196.325
57.2151 157.994 62.8289
120.094 145.246 189.546
88.0437 280.295 109.905
100.492 44.2721 120.049
97.3216 159.135 209.607
79.9211 287.266 132.446
67.0911 91.8071 17.7334
90.4661 183.351 196.359
74.7048 229.296 203.382
119.997 117.32 171.567
122.809 142.577 166.927
104.324 131.366 85.5719
105.839 100.689 87.9342
24.6051 262.315 147.372
108.572 147.795 202.912
81.2768 152.12 121.149
121.39 162.498 172.745
76.1568 269.369 104.261
93.7202 42.8936 137.861
91.86 131.411 166.289
100.64 119.622 206.722
59.0285 81.2276 72.8317
81.727 170.053 47.1325
119.597 178.166 67.2574
65.0743 232.914 204.46
118.127 106.517 167.455
86.2148 199.586 71.0791
113.249 94.605 133.124
70.5381 194.971 166.671
110.597 124.957 199.014
79.5502 38.1888 92.721
91.1992 190.787 63.9538
108.814 58.0695 115.084
103.484 83.9984 67.9793
76.7397 153.135 193.906
67.8054 110.373 193.797
30.333 267.215 181.204
66.1554 262.371 125.55
114.131 112.472 146.243
79.8341 159.694 43.0802
78.9387 121.874 182.653
59.9681 198.167 96.0203
91.2364 95.8015 94.0297
65.6668 66.1404 170.458
74.8195 167.479 142.421
56.9733 191.419 115.57
120.224 188.897 74.9588
71.229 70.7408 91.4736
107.447 57.2575 143.194
103.075 53.3388 94.191
124.672 175.279 78.5237
107.349 78.0225 100.023
40.3533 247.931 107.195
69.1239 77.0143 144.482
76.0531 220.16 196.26
62.5815 222.22 196.345
76.1879 247.256 213.787
101.398 130.792 97.6908
107.505 119.946 78.5567
121.994 168.144 122.386
84.5827 118.487 214.499
88.4557 98.9271 151.416
83.3198 59.8323 175.842
83.6392 58.8035 67.7843
59.0314 74.7153 77.32
114.581 162.721 58.3441
71.608 54.9846 64.4279
111.416 208.047 101.893
84.3754 35.5399 100.645
101.083 188.708 61.0886
69.9713 95.9761 68.4896
95.8646 211.867 148.813
98.1054 117.948 119.262
104.468 180.076 56.8134
28.9744 237.842 158.305
70.8137 206.254 92.524
104.451 209.645 87.2615
73.4174 83.8828 154.985
91.997 215.01 114.946
115.231 201.212 138.848
84.6369 211.376 141.54
60.2358 100.889 35.8572
116.047 153.439 196.982
67.4293 87.6283 38.3608
123.032 162.242 144.313
115.052 153.571 73.4996
39.757 271.107 111.981
63.1201 177.426 132.884
47.8095 77.1176 61.8032
48.99 57.2339 66.8298
107.133 124.02 54.8019
113.768 305.22 131.177
48.7027 83.7477 53.9243
80.8142 233.624 208.717
70.743 106.053 34.0033
93.6597 197.471 73.4951
78.9051 61.1982 61.1733
49.3787 227.806 188.426
125.211 187.449 87.5376
108.849 205.384 84.2241
70.3143 50.2778 70.3551
80.8603 212.914 91.8623
67.746 75.0448 83.0252
75.6771 87.0773 150.115
108.946 111.017 76.7816
73.2837 177.959 162.576
91.1943 109.865 160.514
86.5415 237.831 202.479
105.465 57.9485 152.465
88.2157 54.4661 166.881
102.498 174.328 52.1399
71.8197 224.134 174.437
110.052 106.198 66.3145
98.2022 132.021 209.563
60.0999 275.751 97.3866
70.8756 253.506 215.933
83.8987 189.498 189.257
32.546 273.342 138.171
104.72 108.015 51.4152
27.8929 267.068 162.557
84.5085 47.4528 156.231
89.3583 93.298 43.2574
97.9083 63.7358 170.551
68.6918 117.774 200.373
112.951 310.342 155.387
107.901 96.1647 80.8799
74.6173 168.311 187.71
75.753 189.146 182.565
85.0533 210.395 151.359
78.2157 70.9402 103.01
28.3321 270.525 133.082
61.0899 87.043 68.7245
99.0972 184.834 191.676
71.0979 192.993 71.4244
117.613 114.754 181.304
69.1517 228.543 152.058
60.5606 176.921 65.6101
89.5893 44.9828 148.748
74.9088 143.818 202.596
118.315 205.642 104.378
110.085 138.938 55.7562
107.998 209.776 94.0524
75.5499 124.021 69.0413
99.6379 71.7811 71.5019
71.351 64.1315 118.372
79.0305 171.215 150.799
74.6186 51.6972 163.258
125.63 176.915 92.3151
79.4121 276.571 113.666
115.059 77.8435 119.623
88.3129 152.916 159.757
102.03 204.205 162.285
106.118 65.6214 161.71
116.223 204.981 93.9653
82.0784 83.2024 89.4043
90.4333 134.371 100.003
58.3798 68.5153 83.6163
113.735 148.485 63.3481
38.7129 236.554 133.173
69.7107 199.513 79.8017
72.9921 276.192 144.414
93.651 116.288 209.684
95.7288 101.362 133.293
66.3554 37.9285 129.479
112.207 78.1454 155.128
74.1215 212.651 100.988
67.8656 243.078 212.632
43.8206 285.844 116.117
70.1728 36.3404 88.247
121.395 167.983 179.506
67.3302 83.9079 183.656
61.0797 222.907 157.228
26.1558 249.533 130.197
82.2659 161.717 158.835
105.692 312.133 132.677
116.288 109.022 153.325
76.5548 88.0721 77.6068
85.8721 135.29 85.5628
95.8276 286.324 116.049
39.282 281.574 137.389
91.9085 42.5159 92.3937
86.2876 118.197 37.5944
121.061 170.568 170.42
34.1939 250.558 187.71
77.7952 114.097 31.5656
81.2789 107.179 173.374
98.3268 73.7036 181.118
97.5473 287.137 105.136
86.0686 119.465 171.999
88.0979 77.2331 51.7148
64.1724 207.406 126.445
100.171 100.254 47.4086
104.731 135.075 204.574
32.0608 259.39 116.999
43.0719 282.758 126.286
108.796 176.421 192.438
63.7112 184.718 92.8732
70.5895 231.859 211.859
81.8319 305.822 193.376
76.4037 70.5149 124.933
90.3917 213.615 89.5228
109.449 194.096 68.2675
87.0153 194.156 183.912
122.417 151.537 175.112
58.3202 118.282 53.9516
122.227 193.288 85.4863
74.842 104.991 180.071
65.948 186.628 147.643
75.7705 89.7563 40.0308
64.7351 63.3498 147.408
63.5604 81.8633 16.6314
79.674 93.8533 159.629
71.6345 143.821 37.4556
56.3187 150.326 53.0963
83.8326 35.0718 116.827
116.888 200.282 84.4971
71.5418 96.4195 36.4139
61.7101 203.95 114.288
68.2431 192.855 156.992
59.3539 127.619 57.3058
112.298 83.4078 168.016
113.931 101.086 183.375
56.133 62.6314 88.5435
82.4432 92.2924 40.1835
71.4893 33.3774 108.263
97.2289 111.76 42.003
44.1015 243.645 199.465
70.2848 81.4722 78.0432
76.26 204.802 78.6117
79.9577 175.682 52.6133
106.195 85.0815 184.744
86.2308 102.283 210.169
82.037 98.4214 78.2847
74.983 191.233 65.5004
68.9951 273.237 127.161
117.093 187.17 69.1
109.71 311.521 162.771
71.3146 67.2776 180.562
86.0583 129.295 215.943
103.69 311.911 143.102
118.269 100.043 163.961
34.8849 234.27 166.118
90.8457 139.16 39.5638
56.4598 85.9351 42.6018
53.354 115.144 47.1505
93.7467 105.897 91.1698
92.6665 294.505 136.015
65.5455 58.2009 58.4139
89.8172 216.315 96.4956
97.8538 266.152 209.317
105.655 122.513 117.321
59.7561 184.798 124.386
112.858 93.9038 179.117
78.207 309.804 128.235
66.5186 93.3038 194.409
81.6755 198.482 176.905
92.7858 294.351 148.267
63.9446 179.098 104.089
86.6254 84.8763 46.6887
102.62 115.622 47.9276
77.7362 103.006 210.619
86.2672 91.4458 87.124
81.8896 216.447 123.667
23.6331 241.686 151.095
117.731 170.331 62.7259
62.7719 220.134 184.597
60.7355 144.106 40.7232
81.0957 225.122 183.046
94.2893 84.5379 52.8614
112.553 195.75 166.881
53.6378 85.2576 63.8924
55.4636 47.7473 77.4678
92.6072 139.349 213.48
79.4375 84.7478 136.931
64.2718 222.263 206.954
79.7826 115.963 177.828
84.4933 95.9198 207.535
55.1887 99.6345 54.7042
78.3442 208.978 85.6628
70.2659 100.847 206.508
71.1247 167.428 93.39
105.788 112.078 85.5216
111.571 103.455 135.959
93.9294 127.149 210.647
105.37 72.7413 167.963
101.528 170.561 200.524
92.462 315.326 175.06
78.5096 42.0434 148.699
100.928 48.0715 141.915
69.2824 74.1624 182.631
71.6121 119.231 190.179
52.67 221.376 146.921
93.1124 171.847 50.2223
56.7359 140.146 60.2998
43.8846 222.894 151.603
65.8385 34.6189 96.5331
123.939 177.071 142.025
65.0712 79.3534 44.0135
40.2388 263.079 200.29
65.6758 88.8017 187.622
99.5285 196.82 67.9755
110.04 62.6287 122.713
72.0924 204.412 163.437
56.9724 135.561 38.6807
118.219 305.225 162.229
72.777 33.6773 118.546
68.8537 86.8694 167.654
109.591 95.8382 73.0816
72.1163 41.0238 79.903
102.516 314.509 168.347
67.8601 109.513 203.652
62.4601 284.634 100.264
117 205.58 110.361
120.927 167.96 70.6187
33.8568 253.491 112.688
65.6984 130.949 65.4661
82.8669 156.82 176.842
73.2702 178.167 53.1341
65.8485 303.685 118.553
113.31 184.805 176.994
71.0272 117.486 211.353
88.7108 204.599 171.17
112.06 149.281 119.661
66.5581 147.967 40.8814
60.8423 126.545 36.1303
84.2088 270.444 214.89
124.813 172.314 86.6381
37.7814 234.658 141.655
85.2148 251.557 210.786
66.6186 178.564 138.226
70.3072 270.961 117.378
104.216 292.636 117.268
90.4908 301.371 113.139
73.8508 34.2413 100.204
114.441 153.845 90.6037
99.8002 214.1 114.764
54.1812 239.719 110.382
71.4715 111.099 184.657
63.4607 238.642 127.838
67.7072 90.0989 71.3706
91.8589 64.9917 67.9707
82.7027 297.512 107.467
86.3498 290.603 208.367
64.5906 66.112 91.831
74.147 73.5753 133.967
100.427 149.975 208.402
86.1059 128.273 37.3623
75.4129 176.232 171.395
68.7978 210.592 105.279
75.5897 78.2079 87.7813
51.1809 75.9474 69.7984
91.1269 120.464 87.5752
60.7556 263.032 216.159
29.9466 252.966 121.066
82.08 90.7467 147.108
68.8901 152.434 79.2363
48.7643 58.6897 81.7325
83.1581 279.624 213.913
107.968 300.428 117.419
41.7061 239.889 113.053
80.4323 227.819 168.513
97.5434 151.74 45.5628
103.284 158.998 49.141
73.2506 60.6582 174.388
47.0454 68.8879 71.878
53.2454 144.112 46.1403
96.0036 128.091 42.0916
74.0812 35.8149 131.881
67.0725 112.162 60.3165
74.6955 124.853 34.0029
69.0542 204.664 139.238
50.5764 54.4508 93.5392
76.3319 202.372 172.424
71.0116 104.001 66.6384
89.6723 148.377 213.712
84.5491 175.556 199.588
86.0869 167.217 208.047
55.0463 231.085 122.229
64.9677 196.451 143.56
101.006 205.491 80.1139
56.4851 155.447 55.8003
65.1453 74.5597 166.007
61.7945 35.3778 106.676
121.185 165.014 78.7934
84.616 97.6063 158.652
97.9084 143.297 44.0121
68.5984 221.032 193.531
76.7007 81.2203 43.4134
60.7868 92.6267 38.3845
114.888 190.006 170.589
115.102 292.919 165.188
104.373 297.824 150.872
53.1928 239.879 205.058
50.6054 293.232 141.733
86.547 37.7067 123.545
112.539 206.235 131.175
50.3458 232.423 114.28
92.9833 292.236 102.356
69.3612 49.4076 155.902
70.1797 166.262 120.682
101.679 305.655 123.822
79.8991 132.631 76.4106
61.8046 181.467 112.474
85.7366 275.849 102.659
91.6683 40.221 129.991
107.154 281.829 178.617
42.6974 257.708 203.188
82.1777 214.114 108.829
42.1267 225.628 161.971
44.8143 265.675 204.968
68.6582 101.562 186.791
92.5773 248.804 204.374
89.9371 237.188 176.186
102.663 113.463 93.1104
120.458 297.318 169.042
91.1554 204.428 75.8286
75.795 212.525 115.255
103.153 156.881 201.539
84.1478 111.808 75.2966
65.1448 34.5758 118.255
44.3846 269.824 104.985
75.499 167.383 199.582
79.3763 222.467 175.613
62.5774 269.739 217.183
66.1006 173.114 95.26
53.9747 258.96 212.545
29.8048 240.167 134.309
80.3097 157.793 211.142
68.2967 202.462 84.2641
43.6814 271.446 180.589
86.0788 68.9572 56.9205
63.5471 205.062 106.918
71.2912 65.8294 97.9633
66.8883 144.075 70.1589
66.6255 41.6049 141.159
103.157 62.3072 88.4478
24.4442 255.864 141.461
98.9572 182.707 89.1508
89.0988 299.763 85.5708
72.1114 203.715 150.942
79.2664 71.6559 50.332
55.6101 50.0659 112.188
56.9471 56.4241 98.5782
60.3113 171.686 80.2975
76.842 101.512 71.3323
68.5665 299.158 110.05
90.4943 207.676 166.176
67.264 213.068 119.062
87.2525 217.11 118.379
51.0056 100.133 49.861
84.4541 251.902 163.81
75.0559 312.704 172.981
97.0303 193.54 184.471
70.0839 284.381 98.2956
73.8347 190.642 172.21
105.863 296.575 137.693
63.9567 55.1354 139.882
75.9638 269.009 219.028
65.2135 87.5431 22.06
64.3739 40.6658 81.2258
89.4546 286.007 115.907
96.5798 97.1715 44.141
48.1116 50.6486 86.5577
57.394 295.03 114.541
57.3056 60.5672 58.7521
63.3386 55.239 122.499
52.029 293.651 127.006
74.7568 262.653 219.565
105.623 198.129 175.771
82.3803 76.9152 123.007
86.5826 144.042 117.32
119.401 192.794 152.706
26.6732 256.513 169.683
60.9784 45.8912 133.779
54.5932 291.186 202.615
95.9648 306.218 187.412
86.2847 281.45 96.9252
42.5485 281.816 145.127
79.2328 211.999 158.339
80.0289 216.311 129.456
61.8266 242.198 112.464
65.0855 63.4625 102.411
85.6907 315.034 175.528
53.5988 105.658 40.2327
84.3581 149.721 180.626
53.2776 222.263 158.63
76.2535 132.646 34.3038
49.8009 235.128 198.538
114.773 94.0324 148.935
51.1332 66.6018 77.705
57.7072 168.592 61.3545
70.3966 156.631 84.1771
58.2119 165.512 72.8753
58.4607 37.5638 94.1185
66.0647 219.069 170.204
73.8792 162.036 128.783
45.8741 282.749 206.233
110.082 91.3485 186.059
75.3378 91.7832 202.881
58.9334 232.36 210.614
56.7569 229.243 202.069
55.56 107.329 50.9779
66.2867 71.0694 48.8862
92.6676 313.715 139.977
51.5237 44.519 88.5689
77.4743 112.327 212.9
72.2202 68.4876 109.706
95.5464 103.443 139.782
59.2958 65.5256 51.0998
91.8916 278.717 173.121
95.7697 294.02 202.132
100.623 295.767 132.788
65.9898 136.196 36.8809
65.7465 308.882 165.513
101.451 131.453 6.37635
53.0478 223.299 174.884
61.197 187.195 73.4873
90.6225 99.0226 40.0732
108.444 125.551 127.216
107.57 277.823 183.166
55.2141 39.3623 108.36
57.3275 96.1991 9.69194
35.7567 235.718 177.868
79.9866 145.513 213.632
92.684 291.737 125.336
36.9022 238.177 118.601
93.9596 188.142 85.275
58.6731 254.138 214.478
110.246 301.834 186.135
81.9251 134.667 185.261
101.52 208.453 151.323
35.6869 245.721 112.689
74.6903 102.543 165.971
65.9728 267.93 94.4508
109.811 174.681 155.222
83.3153 59.6455 115.013
51.6411 96.0933 42.0986
96.7595 278.757 209.075
77.6011 196.989 69.7854
63.0358 172.444 87.793
38.4096 226.378 141.922
105.381 184.735 186.628
55.612 42.7235 116.596
78.8697 273.494 94.9405
94.9244 303.687 193.546
36.4129 229.233 154.705
67.3656 76.3867 160.243
63.7475 117.152 33.0406
104.849 188.815 78.859
89.1512 192.812 93.9893
76.8369 117.424 36.3129
56.9034 117.983 35.6054
89.9209 55.3413 132.232
59.7691 39.0285 87.1478
94.9737 190.055 93.9433
68.4613 299.967 199.575
79.6665 296.494 204.946
63.1778 198.875 85.9372
118.584 299.086 137.111
61.3593 257.785 96.3378
95.1892 180.714 84.8564
110.643 310.493 148.964
62.7031 46.8857 71.3781
116.537 158.005 108.782
114.137 152.328 100.849
52.3302 294.715 189.356
32.8023 268.53 119.777
69.3934 119.073 35.0691
58.7836 41.0251 124.75
90.7573 52.7047 139.654
75.3285 197.478 178.44
81.6165 142.817 186.587
41.3842 232.083 179.222
64.325 127.356 194.382
89.676 182.122 87.0498
71.2492 95.3717 143.053
117.785 103.028 151.648
109.088 162.742 201.72
67.3605 89.72 174.335
107.748 286.069 201.684
69.0487 62.5821 130.894
79.6047 254.252 216.171
58.5461 45.4575 120.562
91.944 90.7469 224.845
58.185 95.5616 17.6723
123.402 136.543 170.242
79.9882 191.139 69.3037
51.4401 73.0902 51.2739
24.5644 259.744 161.432
63.5395 286.969 217.254
73.0002 159.631 89.46
80.9245 295.331 88.1094
108.31 183.722 76.2765
60.5394 145.805 66.9713
58.9576 57.8741 108.236
110.383 78.6208 173.023
108.761 96.9429 186.056
50.8881 226.944 129.363
104.257 66.5296 93.6179
104.331 91.8369 186.515
34.4369 258.193 191.996
62.9535 150.899 71.0353
79.3026 168.172 207.886
96.8459 55.9192 107.9
51.9397 222.335 185.019
120.752 182.255 162.33
45.7327 226.82 177.135
126.646 247.713 18.7325
71.422 173.866 145.827
66.2817 210.826 135.17
64.5392 56.2934 160.718
48.6664 54.4198 75.0466
47.7335 289.663 200.199
117.716 171.726 184.989
70.8686 232.808 146.658
68.693 70.304 120.846
49.5823 275.614 103.86
92.005 157.004 211.948
59.1904 222.719 173.355
97.2914 71.0362 98.8851
96.3705 132.455 130.683
56.8875 81.9234 17.2172
73.8931 146.216 212.544
71.4804 313.324 161.583
78.8401 163.188 175.031
54.2124 85.1741 8.28983
37.9491 271.871 180.904
57.3592 288.335 216.106
