ply
format ascii 1.0
comment Created by Open3D
element vertex 2021
property double x
property double y
property double z
end_header
111.476 40.9187 120.034
115.244 293.358 257.013
148.303 165.313 245.863
148.136 172.135 200.752
149.882 251.288 277.535
114.876 106.397 69.9513
123.598 132.697 149.835
151.365 89.1152 240.04
144.18 184.866 102.273
150.398 230.921 136.398
151.739 152.965 135.676
137.765 316.128 129.207
119.194 329.615 152.862
150.779 109.272 227.179
152.318 78.4433 257.15
150.62 107.322 285.311
143.792 45.082 165.397
119.565 58.1037 264.823
144.149 132.038 44.0698
149.34 102.83 179.622
98.8807 105.484 228.369
152.168 89.4338 160.749
138.53 292.598 91.9929
148.889 150.197 209.983
140.725 61.6743 105.782
150.262 233.937 284.87
97.7195 67.0391 169.829
140.322 315.585 251.787
141.822 248.763 312.92
151.065 150.144 154.068
114.438 183.087 350.672
126.776 280.551 65.7502
143.435 255.937 155.411
151.741 92.391 98.7771
148.539 136.822 189.479
110.515 249.158 82.491
111.525 57.9133 134.681
124.598 161.233 201.8
126.022 221.626 243.58
128.676 148.677 259.426
123.247 336.098 159.003
109.956 82.099 100.22
146.765 131.707 52.9375
113.033 314.44 136.222
138.967 138.504 39.6839
133.69 278.397 67.0717
135.726 219.403 47.2561
111.645 194.251 39.1547
125.022 139.162 277.238
69.9469 35.314 252.99
119.53 161.517 302.59
111.185 59.8288 112.665
108.829 37.6653 130.118
130.143 228.431 237.37
117.823 315.383 206.006
113.738 323.964 143.617
120.26 161.121 77.9237
142.549 328.572 182.97
141.764 238.445 91.818
145.135 109.581 63.6612
121.882 304.68 170.105
94.8618 53.5797 168.489
90.8958 298.649 122.781
121.944 150.387 293.294
106.333 265.454 307.042
132.209 184.208 257.672
124.847 265.403 201.755
121.328 232.616 169.826
151.515 71.5566 249.081
147.813 221.423 108.611
147.044 97.412 64.0634
143.176 73.8979 285.541
150.818 143.64 134.929
149.516 219.595 303.694
146.726 45.6325 192.661
122.655 245.53 42.8084
122.844 151.044 206.012
144.398 157.822 273.35
153.726 109.215 118.954
144.427 240.397 109.258
147.865 272.989 276.3
116.884 142.268 298.243
148.542 165.995 48.3692
117.617 188.338 87.2514
148.889 112.002 106.542
125.041 242.816 212.379
117.79 281.84 251.402
147.235 200.938 72.1729
143.87 176.962 147.833
124.495 134.283 241.787
151.918 89.4023 107.035
146.628 204.675 285.08
147.255 44.7347 175.224
133.439 270.277 57.1274
117.508 194.426 345.302
152.719 69.6391 239.561
103.563 293.811 140.686
148.032 163.419 177.61
112.386 285.735 278.852
142.736 258.694 127.112
143.767 318.565 178.575
114.478 233.317 288.948
120.456 166.333 93.3876
140.316 140.462 335.738
147.717 116.392 272.774
122.688 144.454 286.779
118.076 93.244 135.585
113.289 44.9502 241.582
147.302 287.601 275.566
127.122 164.415 291.636
146.21 93.7435 156.313
146.628 66.6817 213.356
78.5431 83.1594 256.099
122.744 153.461 134.43
119.979 204.299 344.595
127.855 252.813 224.927
120.382 169.417 131.485
146.303 273.562 248.461
121.831 221.795 261.362
150.285 56.8144 215.586
142.966 269.688 184.157
113.269 215.497 41.5974
126.87 197.766 194.405
131.081 171.789 251.555
131.882 29.3647 163.297
78.3551 55.76 195.537
107.638 51.43 151.409
134.37 178.874 81.6964
132.509 302.491 100.202
150.288 144.39 54.1295
131.2 155.221 256.521
153.714 70.905 212.76
106.742 22.29 197.931
132.18 327.405 134.172
144.765 308.154 255.04
150.087 92.5261 271.557
145.248 271.947 198.985
144.217 324.619 190.484
150.457 60.5944 179.258
141.208 225.008 255.356
110.968 195.509 66.7145
150.192 101.193 297.838
101.721 106.201 269.009
139.818 209.573 192.866
117.2 114.919 89.6294
140.641 129.747 332.199
104.149 253.947 160.192
130.718 259.004 189.555
134.603 334.933 188.749
137.547 72.398 76.4842
127.735 338.35 165.306
129.377 266.364 314.082
76.9042 227.437 140.207
133.968 182.889 224.284
102.975 245.753 319.178
146.349 55.4652 253.37
138.828 185.237 96.4241
145.094 272.813 129.594
143.819 252.592 112.85
118.268 132.417 340.747
144.589 244.179 155.257
114.723 230.323 89.1991
116.648 172.351 145.062
142.855 160.713 34.9734
104.721 243.459 160.939
147.767 156.292 328.628
148.401 269.104 254.948
148.646 83.0561 212.667
118.069 117.543 257.794
146.378 250.675 208.587
149.044 164.121 161.724
146.533 231.428 105.072
147.187 244.68 115.693
127.948 236.571 254.214
123.289 150.964 103.244
120.221 205.455 296.048
143.335 264.167 139.773
146.225 104.331 249.15
147.152 189.531 278.594
128.318 282.221 164.498
136.709 248.133 55.2459
117.401 248.16 275.213
141.518 285.175 290.502
149.712 138.547 309.918
141.052 80.0653 296.811
115.259 283.152 290.293
117.205 96.1047 318.04
123.943 170.701 109.012
147.804 98.2098 188.195
147.09 99.4958 214.139
130.342 159.703 237.533
151.12 95.0592 73.3649
131.932 91.7533 307.968
133.441 244.852 43.8655
145.268 168.213 38.578
142.353 228.27 281.884
131.153 167.674 343.64
125.841 264.433 193.824
144.421 186.668 40.7864
127.734 152.712 243.071
128.583 218.449 253.831
145.318 248.259 304.215
124.795 230.857 213.548
128.656 168.062 203.253
142.66 180.753 158.345
69.9338 84.8462 321.918
150.187 149.307 61.4332
139.287 183.646 114.355
128.734 159.806 208.634
149.864 153.107 160.592
119.32 222.901 35.0928
125.44 330.739 131.033
146.577 122.515 285.051
152.699 95.0519 87.1717
144.717 179.646 194.502
129.844 178.526 208.733
150.312 162.38 55.413
147.394 132.017 267.517
136.506 324.681 142.749
148.63 60.5053 170.304
129.957 136.328 262.879
130.917 198.361 246.254
119.472 124.031 272.096
121.805 163.296 349.481
118.732 77.0555 74.1391
142.379 52.8412 239.176
149.986 54.7224 225.392
130.97 166.606 212.729
120.854 123.472 251.857
128.09 258.834 182.509
79.4874 290.54 131.852
115.978 112.211 58.9898
131.861 170.826 228.94
153.645 125.712 147.86
146.531 226.321 174.507
110.465 23.0006 189.454
148.825 108.073 267.808
148.399 169.521 140.349
150.759 122.182 164.898
148.71 293.192 247.184
137.814 281.946 75.0867
114.369 207.722 117.374
116.839 286.162 70.1687
124.236 25.7778 185.602
124.041 128.583 43.1045
114.025 133.142 175.172
137.577 264.226 78.3435
148.255 61.0614 108.017
115.946 249.831 50.5282
126.566 190.801 192.711
117.835 203.235 113.63
146.59 191.276 298.145
151.301 104.943 147.315
146.239 37.4481 165.03
148.955 215.623 201.804
114.174 277.003 275.878
138.515 214.579 50.2955
119.099 328.589 191.262
148.259 185.864 236.931
118.663 320.442 211.801
106.363 185.3 351.232
151.171 117.854 136.302
116.463 170.96 307.961
126 233.13 244.403
129.859 27.3038 172.23
101.509 283.381 77.2408
146.691 198.805 279.057
120.422 135.76 167.349
148.282 210 313.69
116.007 66.6256 144.407
122.111 103.504 121.228
146.63 185.783 219.501
119.707 173.881 90.3954
126.624 252.775 214.353
109.381 305.157 135.747
142.358 302.025 162.627
151.932 99.041 93.1916
137.446 264.147 311.667
131.971 213.277 34.0211
147.566 131.318 211.461
126.088 224.891 254.589
145.741 186.72 326.858
144.292 202.229 116.164
138.163 301.63 170.889
145.553 41.9433 152.328
116.252 284.467 148.278
146.574 307.276 223.901
79.0615 281.73 139.25
142.761 287.217 152.279
153.068 103.65 108.011
122.638 238.677 259.921
136.853 147.868 34.4373
124.757 79.5534 68.634
140.553 113.801 50.7703
111.294 51.0105 117.573
132.49 262.508 51.3133
124.493 216.772 268.116
68.8784 57.2041 286.998
145.892 96.1735 226.732
150.491 227.413 125.336
125.167 94.4858 316.112
110.716 216.211 305.545
121.387 300.32 196.71
94.0144 34.6318 174.962
145.342 158.913 191.892
122.925 163.768 117.783
112.361 113.5 74.5481
149.637 46.0709 159.265
110.598 126.478 218.366
125.905 227.433 203.745
134.223 93.9325 57.2822
129.121 185.872 216.49
145.504 178.457 57.8394
140.721 310.084 134.506
148.048 212.244 134.409
151.15 126.44 175.831
109.182 116.727 177.631
132.644 232.686 81.3993
135.353 112.874 327.129
147.68 122.08 254.775
146.87 236.719 238.756
152.671 62.5121 227.441
127.027 157.795 347.82
129.261 195.109 166.985
143.627 271.88 168.034
130.121 165.509 265.151
139.918 152.551 337.32
122.595 107.716 53.5925
118.871 147.949 89.7222
148.196 56.5328 126.124
151.044 66.6922 255.687
144.632 210.774 104.593
124.925 126.352 245.397
113.963 229.612 103.86
111.22 68.7504 132.578
117.466 222.838 96.2626
146.854 207.793 249.291
117.209 150.883 80.2831
146.216 183.076 129.279
125.611 212.343 255.517
117.039 298.617 273.232
128.581 205.059 222.897
146.293 254.738 235.444
123.017 70.3472 75.112
153.982 121.352 111.618
111.843 255.97 56.4594
119.494 50.2375 242.871
131.343 192.546 213.342
148.881 102.971 273.15
149.758 157.564 174.576
122.284 158.484 103.867
131.363 230.729 324.356
124.985 253.467 243.927
104.525 141.914 349.348
141.765 169.736 87.3426
143.534 257.179 245.316
96.7129 40.9629 167.294
147.569 207.834 217.42
79.2282 39.8554 254.37
119.656 136.848 215.744
152.97 75.3604 108.518
152.911 86.6827 88.1432
75.7119 65.2724 302.025
131.019 213.242 241.731
138.275 229.909 62.4153
121.329 274.053 311.609
150.166 138.198 154.458
114.526 133.168 80.6099
131.949 176.157 258.772
143.824 271.929 293.831
113.277 232.867 54.0201
125.567 245.571 221.932
125.14 52.0727 259.384
120.121 186.629 105.952
126.38 133.601 271.937
144.755 180.288 331.524
145.308 169.869 62.7368
116.93 153.496 299.801
129.752 73.888 72.1744
117.848 176.396 187.721
148.35 108.665 186.361
127.167 259.341 171.157
148.928 129.549 157.726
121.929 132.18 231.047
136.495 315.448 145.752
148.824 127.154 277.262
150.59 146.6 314.092
148.981 90.8836 187.84
92.2282 202.473 155.486
145.112 317.597 195.362
78.6946 71.3612 306.309
80.4695 87.3727 197.989
120.885 116.523 153.739
114.809 290.269 76.7474
130.045 331.507 143.672
114.906 116.208 267.689
150.551 134.318 320.47
149.06 212.922 212.961
122.627 202.291 289.039
126.793 215.528 209.038
116.17 97.6083 69.9477
136.586 183.538 29.0298
152.962 75.9835 128.357
123.899 217.643 177.626
130.999 137.113 339.314
131.67 98.1584 316.792
149.697 86.2605 192.626
137.103 331.725 215.475
149.864 270.651 268.884
148.971 152.473 322.119
146.618 112.668 210.029
137.689 192.882 195.287
146.018 70.4016 83.5037
132.835 198.288 339.355
113.624 212.03 81.1666
118.841 308.656 260.602
149.238 114.919 128.73
126.67 238.031 238.115
104.104 106.97 250.578
105.661 137.505 306.316
120.17 255.68 48.9192
138.51 55.9991 264.945
142.501 310.121 178.917
126.493 32.53 174.051
123.237 276.56 158.557
94.4716 146.257 204.643
140.27 264.405 195.389
136.927 156.376 34.7377
111.935 204.805 38.5898
148.253 101.36 206.411
121.116 326.975 120.891
149.481 57.7597 193.027
83.6454 92.6421 230.602
108.309 225.188 305.967
145.56 237.564 157.45
148.475 223.198 238.916
124.802 232.691 37.9492
150.344 93.1584 211.35
110.286 68.9528 114.517
121.256 22.1389 170.955
138.479 32.0368 169.189
148.582 231.065 233.36
139.613 213.127 90.4782
131.84 335.738 152.232
118.702 38.0512 226.356
104.894 281.406 144.248
116.746 168.631 152.768
118.374 196.056 118.331
141.899 301.663 123.571
124.523 46.1175 105.474
151.837 101.73 164.291
86.5161 230.058 168.27
126.315 226.869 171.933
146.339 171.783 292.891
142.875 284.525 189.994
142.169 178.968 48.6599
144.936 254.957 216.433
110.373 243.648 72.3972
143.055 263.613 147.604
146.075 184.088 260.543
134.497 321.947 246.593
124.961 154.612 35.0021
111.162 139.962 345.039
147.678 203.242 260.645
144.883 186.344 211.765
144.603 274.479 139.972
146.272 312.56 235.139
98.5394 132.638 305.847
122.77 195.908 294.592
150.338 78.2019 274.075
119.668 125.08 169.974
149.589 141.995 233.654
153.881 68.5929 125.555
123.154 210.891 286.012
150.265 120.084 80.2761
125.956 131.166 263.23
142.984 261.47 305.577
147.707 217.868 256.553
151.558 100.55 173.43
115.812 166.637 192.905
149.073 113.228 278.118
149.572 113.449 292.101
131.426 202.559 229.654
128.236 258.692 200.67
123.673 292.362 155.809
123.758 337.141 148.328
117.197 172.353 77.8238
132.158 164.067 251.178
139.903 325.455 160.872
120.343 290.255 149.105
127.679 174.955 273.125
145.17 148.165 82.5417
124.269 214.39 342.215
115.634 129.721 287.986
151.132 95.9826 195.42
150.745 92.1577 222.775
143.459 254.842 105.805
151.035 77.3135 136.568
146.249 58.787 264.103
113.96 214.26 68.1968
137.128 200.305 261.688
118.189 315.876 102.934
144.561 306.307 196.268
100.526 82.2227 176.244
139.329 227.998 92.0932
127.453 224.317 273.798
124.325 230.82 266.483
152.772 85.3708 145.793
143.584 296.758 168.81
111.267 234.606 336.346
113.955 264.391 56.3236
148.667 164.642 306.473
126.222 122.051 147.265
141.989 265.689 226.78
142.881 60.8617 116.261
148.496 197.45 239.667
117.934 179.473 84.7965
139.941 206.26 42.8809
127.253 147.635 220.478
125.086 292.811 185.086
148.448 239.282 305.623
132.991 80.941 66.9976
119.351 312.761 225.115
130.648 185.187 235.05
86.9009 219.851 143.795
151.35 93.6116 176.557
140.885 50.5024 247.633
150.301 222.021 214.337
128.46 154.38 231.116
105.704 255.029 318.121
149.873 225.989 289.042
148.552 115.419 187.698
114.45 64.0314 93.0564
111.366 224.346 166.591
124.417 239.698 332.73
147.31 140.147 326.696
116.01 177.039 39.4902
145.953 86.162 295.716
110.799 58.7395 103.198
147.297 196.826 203.831
144.505 198.482 107.644
120.729 157.756 94.7336
150.141 133.523 164.436
140.288 52.3001 255.207
152.867 138.823 146.019
146.653 172.929 51.7238
112.072 50.0764 128.019
104.234 249.939 296.617
84.3308 88.0582 241.168
124.138 232.832 232.783
121.667 319.487 200.012
141.457 166.9 75.2511
151.668 87.2786 282.116
112.013 234.657 97.5988
90.0724 294.343 128.706
119.302 68.2646 83.7437
130.634 242.786 328.921
148.309 178.63 263.463
142.603 169.009 147.392
77.2415 25.6034 224.512
118.951 122.073 109.45
146.61 62.2949 206.117
111.367 49.2596 247.468
137.127 53.5366 120.34
122.474 142.687 41.7373
111.759 42.8021 233.064
150.951 130.826 83.8081
128.165 33.4364 133.727
152.908 99.0011 116.236
149.449 91.3012 231.443
125.146 275.7 166.59
151.488 130.32 92.262
149.984 165.894 144.801
147.366 236.788 247.661
147.538 83.1284 80.7452
114.828 77.6203 149.765
147.88 120.906 179.332
131.48 153.677 34.6752
151.03 218.066 121.791
134.739 42.4743 224.963
128.88 194.578 266.908
139.463 183.21 59.2003
135.516 177.605 30.9157
143.874 249.187 163.923
118.57 83.0486 143.382
112.995 90.6371 108.389
126.537 305.895 272.584
152.189 151.529 51.6739
97.2883 109.768 290.064
94.629 91.9174 236.183
146.56 125.522 207.785
112.977 261.804 275.217
128.42 88.4761 60.8677
117.288 23.2555 152.76
149.202 153.282 92.4816
119.946 241.162 164.908
126.654 64.9445 79.8443
131.389 176.324 220.393
146.193 267.989 192.303
136.658 190.703 33.1257
147.908 139.725 48.8446
112.423 215.851 111.866
119.873 315.39 179.798
131.239 121.86 43.3979
141.789 264.759 109.445
147.832 197.315 121.796
132.845 52.1455 263.704
122.708 293.422 169.716
109.454 320.013 107.29
127.045 195.2 235.886
149.656 162.617 317.406
141.435 175.945 181.156
130.023 321.713 127.31
109.908 208.29 130.012
90.4183 306.595 116.563
149.568 209.028 226.604
104.54 43.5151 141.295
125.489 104.172 143.024
142.629 288.542 117.353
107.473 190.82 155.325
149.515 108.727 68.047
126.458 268.933 164.25
131.355 338.326 177.81
125.514 49.0789 249.342
145.325 203.393 315.926
125.121 49.3261 96.9261
149.608 111.608 144.199
129.896 245.939 254.446
131.982 301.449 279.903
148.003 130.741 237.445
142.303 262.85 156.623
145.825 145.783 250.813
106.446 317.717 123.387
130.117 325.001 240.211
70.6674 40.2215 264.67
89.4085 171.06 343.301
146.237 183.96 52.1986
123.871 158.6 294.992
127.794 198.244 273.883
145.702 283.615 227.845
115.351 131.817 165.286
145.128 274.682 205.544
118.283 296.748 249.993
101.504 164.216 314.898
116.478 82.6928 152.998
125.659 125.307 136.481
147.205 142.715 93.5276
125.365 260.18 164.498
100.877 35.3036 160.084
116.185 116.774 249.45
126.399 109.677 328.841
139.877 173.651 161.213
99.4929 258.587 160.653
104.711 65.7629 164.566
143.507 254.294 185.285
153.429 81.5594 126.063
126.271 157.219 286.855
146.056 217.836 145.157
101.301 154.902 311.416
149.64 108.465 298.809
138.127 54.7696 110.244
104.961 115.52 186.779
145.267 133.528 329.747
138.255 40.3258 132.731
149.436 152.987 143.635
126.645 263.818 232.571
96.801 264.022 89.9578
144.224 247.024 106.895
101.317 245.171 165.796
125.374 168.018 300.674
136.039 187.785 337.779
128.738 176.833 200.998
149.801 196.947 232.193
138.917 58.7575 92.6712
120.156 187.36 95.9009
146.874 142.832 184.464
87.0934 126.915 213.717
128.307 236.968 221.93
145.548 277.025 194.464
141.904 207.302 160.836
138.405 311.622 124.148
125.936 282.206 209.265
148.943 212.496 193.448
117.168 146.696 49.552
128.349 29.6748 147.755
143.851 261.376 185.75
140.297 270.47 300.427
151.289 63.5169 132.309
119.747 197.123 175.838
120.418 190.253 304.972
97.0608 207.052 333.326
106.424 257.864 82.387
149.002 100.74 256.455
136.252 243.988 63.727
115.223 147.897 170.802
103.875 99.3928 252.688
108.948 255.96 284.879
149.491 137.766 139.32
105.487 265.268 72.914
126.51 249.465 199.633
128.786 31.2686 185.239
151.175 119.94 118.839
110.012 226.411 111.883
139.595 68.1101 89.684
145.838 232.898 166.149
152.453 149.021 171.923
121.775 167.412 102.258
113.813 274.247 298.772
100.023 211.448 140.397
150.327 75.7626 281.363
110.643 202.805 135.084
140.117 97.1154 59.3395
139.06 172.319 332.956
142.17 318.889 168.944
148.033 237.869 122.264
148.029 109.8 237.86
94.7932 232.667 127.306
125.467 196.722 212.44
141.642 195.166 98.5285
124.07 146.207 213.041
104.612 44.2463 158.616
62.0284 178.001 208.401
122.606 220.068 279.415
130.498 187.925 343.291
142.563 259.823 298.454
107.958 325.305 126.638
142.212 109.105 55.4987
151.888 220.288 223.18
101.604 214.826 339.051
150.172 161.011 136.071
104.358 242.905 326.378
104.232 112.239 282.173
103.121 257.952 304.503
102.293 149.686 353.152
90.773 284.076 148.997
76.4102 51.3846 273.388
128.303 248.413 180.326
150.074 155.756 167.55
126.629 277.461 193.596
119.462 124.676 233.656
136.308 278.901 106.786
125.744 174.445 195.397
125.193 308.804 101.222
147.037 115.314 60.1849
123.233 188.797 297.123
136.51 221.06 326.716
144.083 181.54 139.546
52.6134 38.143 255.716
77.616 156.264 337.117
119.781 298.527 157.492
143.578 214.358 163.369
125.896 169.874 287.234
149.229 167.523 224.184
151.818 58.4146 162.218
146.906 284.13 238.211
131.506 150.447 248.951
104.509 249.34 88.8256
130.837 128.86 336.581
139.347 254.483 74.0013
116.682 153.575 87.6327
148.755 135.599 295.479
115.026 30.2194 136.176
122.58 171.844 33.5767
113.251 47.6613 138.905
153.72 92.2839 111.442
102.685 27.5497 162.373
105.419 255.646 74.7044
117.174 92.5968 303.364
139.718 190.777 56.5369
126.262 205.045 240.2
114.186 113.813 114.243
140.374 213.253 154.099
82.1034 78.2559 311.887
148.934 123.414 240.213
124.526 199.751 343.165
124.328 238.85 227.916
63.3698 55.7371 295.746
110.001 195.479 48.0296
147.868 226.166 275.393
126.568 206.702 32.7457
101.467 236.887 164.232
109.212 306.094 90.6887
97.2895 97.4724 257.367
119.306 276.65 260.018
122.991 179.927 108.866
59.4926 36.7036 264.162
147.434 187.911 316.922
120.725 91.7753 310.299
141.694 227.987 205.973
133.718 225.802 71.0261
117.571 25.7246 185.574
89.8435 182.917 337.702
146.949 261.723 266.194
150.747 196.811 222.756
116.583 139.531 291.15
151.097 80.0428 247.384
152.211 93.0197 278.553
110.829 134.871 298.59
145.283 190.051 105.925
119.981 227.131 283.556
145.12 172.412 321.232
139.907 183.205 69.2199
125.371 267.334 213.311
118.635 159.018 163.182
146.374 180.168 297.53
109.183 77.9347 110.189
106.691 213.253 142.728
140.904 181.596 86.8883
106.096 147.97 310.857
98.1633 106.578 280.735
119.257 270.464 266.032
135.802 198.627 38.5473
97.921 266.133 155.92
118.059 140.284 82.1643
123.448 243.38 232.478
143.271 285.078 214.07
121.46 190.395 115.092
112.635 92.7288 162.982
118.239 68.9467 278.866
108.955 74.2341 100.725
97.0219 141.85 309.651
132.578 287.433 74.148
150.697 206.416 200.047
128.914 285.908 296.29
145.302 256.822 259.917
129.142 149.281 235.402
133.594 183.612 73.2073
129.986 155.1 266.595
129.062 179.795 231.917
99.5934 216.995 332.493
101.881 111.008 229.266
96.7331 217.185 171.437
141.842 121.242 325.221
116.737 193.841 124.783
108.585 280.22 283.388
112.462 154.67 54.9622
140.542 304.86 115.7
122.061 281.248 231.242
123.466 211.091 238.449
114.626 328.327 137.861
145.583 92.4301 181.308
130.021 308.972 266.021
114.573 302.811 141.455
121.775 296.091 284.783
114.93 207.339 303.782
108.254 118.225 287.623
115.991 201.087 299.025
146.136 237.011 276.473
119.827 122.147 47.9597
124.178 238.411 247.07
109.887 241.413 83.3733
134.207 154.661 340.854
90.7925 93.9093 273.889
111.798 297.426 82.1313
147.867 76.6129 102.929
104.85 169.266 193.308
130.645 60.8162 86.9361
112.719 244.136 331.067
120.846 335.121 174.548
122.466 270.371 156.82
116.947 260.918 156.523
66.4674 31.6111 244.16
113.493 116.098 276.545
112.738 87.6311 115.939
142.807 210.499 95.5803
79.6894 67.6348 196.179
117.967 281.93 300.553
118.547 188.481 36.5291
75.3212 70.389 202.914
136.753 178.464 337.191
124.366 271.994 250.429
128.286 269.623 185.108
123.867 137.138 338.635
150.749 103.247 80.2363
145.315 151.063 272.812
151.753 112.399 178.133
124.732 194.901 248.942
149.258 107.61 258.301
127.832 303.732 88.8272
95.6319 295.638 136.809
58.5351 34.0067 249.452
113.167 221.783 74.1333
145.995 154.925 182.087
147.57 135.772 303.695
113.676 72.7348 93.5388
144.989 270.274 211.251
146.822 122.673 215.273
127.911 267.648 171.749
119.552 140.954 101.079
151.158 83.5399 289.427
128.804 212.849 228.385
146.898 228.714 194.398
139.346 255.433 312.9
113.578 228.566 81.9034
111.156 180.557 55.3707
99.0166 311.336 119.9
131.648 173.347 282.113
133.458 84.0875 191.155
142.075 265.145 176.924
144.99 242.937 203.545
125.584 186.149 250.612
103.099 251.562 311.327
121.571 283.152 154.009
82.8696 163.966 334.148
145.074 163.276 102.244
126.724 228.773 332.441
145.061 191.435 120.079
139.632 331.648 188.153
139.005 224.412 54.3809
148.976 207.638 291.882
152.569 93.4678 286.707
141.357 38.7229 175.068
121.141 184.372 32.0984
142.659 269.937 156.458
145.312 152.978 72.3148
151.633 203.948 220.798
122.325 317.885 109.91
118.963 41.3366 214.923
131.198 292.934 289.848
148.526 118.115 205.199
115.132 171.928 64.6587
105.594 61.8249 157.257
84.4258 111.595 196.669
105.459 122.899 182.854
102.95 24.2654 206.704
67.4424 71.0383 202.339
149.742 163.785 153.424
73.7031 31.8001 245.437
140.873 218.751 165.574
108.919 298.357 139.132
131.485 166.933 258.455
152.009 64.2085 186.336
149.017 230.441 243.528
123.439 126.625 336.859
108.265 215.606 312.449
108.785 250.376 289.438
97.5249 158.72 354.551
113.491 228.584 95.8251
80.4442 105.071 333.236
112.98 227.178 340.357
141.97 39.1228 146.159
141.271 289.878 169.848
148.599 243.992 247.447
146.378 135.516 201.643
118.008 136.366 45.1943
134.32 246.545 72.7229
99.4822 288.447 140.915
119.483 96.4379 165.848
107.242 69.8042 153.55
115.776 117.236 170.191
144.336 285.842 124.361
141.023 283.938 102.258
143.774 231.871 268.75
131.933 166.597 224
84.4176 103.415 221.186
80.5943 84.3213 264.037
102.076 242.904 312.428
131.401 329.415 227.239
84.7657 63.2932 289.483
129.219 142.392 256.104
143.805 232.869 174.655
144.682 253.724 130.822
153.065 88.4031 135.546
98.9835 278.854 146.753
151.81 77.5871 231.484
83.2784 48.6191 267.925
147.285 247.187 253.933
126.239 226.384 227.404
119.444 180.417 93.6671
86.6973 265.927 105.865
123.461 175.309 100.222
115.451 102.077 118.352
113.921 184.198 144.051
113.066 261.317 312.756
58.5138 71.0215 235.371
142.992 294.768 190.457
74.6465 77.3577 199.828
84.2154 127.709 348.685
144.03 276.555 187.389
140.189 168.376 187.471
138.898 87.9912 63.2658
148.314 84.7847 256.537
125.521 252.806 194.568
109.357 107.477 235.444
120.344 274.396 242.022
49.204 64.6434 211.901
152.147 52.8722 157.511
138.614 306.297 268.706
146.494 200.163 245.605
81.3678 77.701 195.976
151.063 79.5086 117.562
113.911 102.423 104.686
118.698 199.695 99.1134
125.067 33.1108 196.426
131.853 132.601 41.6082
115.444 86.2478 77.4406
48.4001 49.965 221.593
128.923 318.27 113.506
141.856 296.47 132.708
139.976 295.675 106.99
105.003 87.7803 169.173
147.054 145.922 165.216
100.899 222.572 327.549
114.184 145.257 63.2978
125.701 193.564 343.758
110.428 194.182 56.4048
86.5683 210.686 184.349
151.29 113.655 307.455
118.486 73.6619 137.319
148.341 237.548 144.538
111.628 183.101 155.498
148.917 163.89 169.926
81.3861 131.15 313.088
150.207 241.439 296.1
144.92 211.954 113.228
136.949 129.219 42.7417
72.8073 77.9291 317.316
69.1981 52.6457 278.857
88.4835 72.5311 183.2
95.9474 181.943 165.369
115.237 160.532 68.5363
104.901 117.226 313.849
118.921 142.285 208.469
139.656 226.667 66.6446
141.4 310.1 187.736
113.095 276.281 266.069
116.482 91.5072 123.892
92.1956 284.191 139.773
141.499 101.257 65.6073
112.477 231.456 61.9988
102.862 152.994 201.528
141.721 198.654 93.3208
143.752 236.442 216.11
111.464 164.669 164.682
137.705 38.6971 181.206
147.528 91.4412 144.865
109.169 268.401 280.508
131.042 104.371 325.095
102.664 125.874 211.761
89.8989 138.583 208.764
145.174 148.639 281.681
110.405 205.648 62.8815
154.067 94.5719 202.125
116.739 312.585 173.868
129.759 145.028 36.053
95.9629 71.4591 186.143
70.4197 92.3075 327.587
146.271 263.826 200.94
126.503 116.311 331.585
143.763 113.606 312.985
150.783 124.958 191.044
144.459 317.032 187.559
130.258 173.478 213.673
85.0529 172.228 201.174
150.42 82.9836 141.458
115.218 331.551 127.539
125.426 204.376 200.141
153.097 74.4596 156.37
110.868 185.775 65.04
142.561 295.585 140.08
148.349 57.1781 239.072
112.907 172.132 55.3585
55.1287 65.2669 300.675
124.631 191.103 258.596
119.962 101.087 323.801
119.45 119.412 333.987
96.6078 125.325 190.231
97.0777 211.804 173.633
136.498 204.92 33.7877
111.468 37.9158 214.087
104.815 259.134 311.594
126.028 283.512 172.1
81.2374 120.93 215.509
144.751 214.203 186.291
112.729 255.193 161.89
118.574 179.218 307.803
123.1 229.982 221.743
95.7732 270.711 86.6272
121.783 252.763 264.158
99.5885 125.053 300.776
105.432 120.13 298.282
126.063 189.588 184.592
147.221 143.211 259.729
95.1748 199.118 334.316
150.837 138.934 222.149
114.16 54.9125 255.233
145.112 219.804 316.211
130.478 217.51 80.859
95.0381 235.582 167.684
121.873 334.964 166.254
150.669 228.758 300.534
114.201 88.2955 297.319
120.302 130.916 221.193
138.497 262.982 114.929
100.311 39.6127 236.315
123.226 200.156 258.46
101.862 51.7075 160.563
92.7486 228.088 161.078
146.359 55.1256 245.579
73.1202 102.536 331.743
118.753 130.029 134.655
148.31 202.239 31.4741
122.85 144.628 143.861
147.462 221.858 153.735
143.007 246.755 99.9162
117.771 256.336 282.755
127.008 317.353 121.113
120.147 152.807 348.22
106.89 67.191 264.903
114.57 214.287 169.849
145.291 246.828 263.091
85.2659 236.821 169.02
110.593 218.996 119.813
144.112 157.731 77.1618
112.007 216.873 102.784
109.451 283.266 148.575
96.0379 91.1228 252.062
129.191 159.12 246.677
130.468 174.205 240.004
86.4878 128.864 309.757
142.096 200.817 41.2553
118.836 193.466 107.943
139.508 256.31 201.323
149.762 159.172 215.448
103.962 122.374 337.983
142.66 220.309 202.001
143.145 230.407 180.196
147.7 107.513 195.734
125.142 214.344 245.881
149.569 226.553 205.54
116.42 108.904 164.778
146.841 138.413 196.194
146.681 262.943 293.168
150.113 88.676 263.269
78.3617 56.9674 283.938
142.6 157.751 333.914
100.104 317.166 114.577
127.888 255.055 46.8272
96.2248 102.491 238.395
119.593 49.9787 252.066
127.376 240.004 167.26
92.7485 207.908 150.414
149.749 84.3564 243.119
110.533 289.506 145.173
146.827 282.299 199.256
104.631 231.303 165.366
107.4 146.444 203.416
150.359 207.049 236.934
107.742 273.876 286.241
119.812 257.545 268.769
107.385 250.527 325.309
150.674 150.055 307.59
89.6645 35.2904 238.533
122.857 184.403 187.222
151.647 116.741 173.331
148.451 135.099 95.4666
105.954 166.129 171.258
113.094 101.79 87.1282
96.7985 110.83 219.257
120.144 157.844 113.229
85.2989 73.4932 302.274
103.998 80.3236 166.463
120.046 246.666 331.813
142.281 224.036 325.146
146.851 210.39 280.006
102.483 19.1821 190.043
119.714 131.126 84.0624
145.185 236.904 194.754
146.879 183.579 272.881
121.566 264.887 159.549
107.962 273.916 69.9263
146.392 260.536 229.113
149.029 212.992 300.803
141.012 190.377 332.528
151.883 116.504 151.267
72.6153 92.1553 206.051
131.21 235.776 328.558
151.579 147.666 73.9716
153.591 108.969 111.254
120.102 233.969 337.605
131.88 120.937 333.968
121.521 181.82 100.195
110.082 221.634 53.3417
143.483 308.667 208.014
53.8348 79.1772 230.31
132.124 103.899 52.5255
127.274 267.017 223.835
125.282 226.059 181.772
146.049 213.04 156.416
137.563 300.176 104.277
150.864 248.852 288.862
142.894 236.717 232.95
138.393 224.724 83.8967
121.973 230.127 273.106
104.961 48.0687 243.274
151.29 131.827 149.944
103.934 40.4787 152.702
101.365 273.233 154.807
125.185 325.636 233.376
152.865 67.2453 152.405
121.708 150.196 153.668
125.203 286.139 159.134
112.515 258.701 322.897
141.531 232.461 101.469
113.026 134.516 211.862
121.41 96.5154 128.913
146.752 231.18 120.601
123.036 180.488 115.53
146.227 252.034 269.177
124.356 39.9694 216.425
112.476 235.365 83.2781
145.653 151.046 201.979
147.901 251.896 248.48
94.1476 290.926 97.8888
149.637 142.987 319.74
76.2893 149.033 331.166
69.7318 46.3043 272.344
113.889 81.3832 163.972
82.2983 66.7817 296.497
111.486 149.764 349.426
140.307 206.147 51.5491
95.6923 194.385 345.29
101.178 134.452 347.42
147.867 68.5274 264.563
93.8499 278.498 154.101
112.124 73.8515 159.239
115.042 272.002 311.862
121.092 295.485 75.7642
98.1519 297.235 95.5137
133.985 293.822 83.5568
116.963 221.637 86.3396
92.951 255.377 158.332
113.381 121.508 63.7837
111.973 177.721 45.7743
97.8147 60.6013 163.762
98.5878 196.071 156.564
127.382 230.106 197.543
143.66 218.922 195.351
120.328 178.501 123.241
111.115 171.301 185.213
123.448 251.623 161.296
118.916 195.675 306.073
144.297 214.376 208.125
148.035 233.062 256.322
132.303 314.183 259.819
105.424 72.3073 171.596
141.687 237.027 308.415
149.465 73.0203 88.915
106.738 209.429 169.102
92.6813 63.8115 172.331
126.955 285.513 189.479
123.889 137.747 222.165
123.246 245.044 267.89
146.354 239.353 260.66
100.299 202.144 150.974
108.564 112.175 325.951
111.28 76.4963 283.936
143.228 144.187 42.8432
146.488 102.043 197.34
119.558 258.955 161.065
128.212 147.823 274.906
112.901 95.9198 100.798
79.0198 44.7887 191.917
128.622 210.062 263.069
131.42 184.049 269.076
112.671 269.129 301.669
147.17 126.355 199.257
103.379 117.388 332.115
102.048 248.542 304.789
100.086 304.944 128.958
149.084 74.372 224.558
119.715 124.541 158.461
151.123 83.9443 270.32
134.431 287.384 103.324
109.824 109.572 258.986
102.163 80.4697 183.445
115.205 47.0218 107.987
149.338 233.076 153.604
106.751 322.995 113.304
120.224 280.19 245.948
108.962 219.294 61.6225
126.295 219.629 225.135
93.33 220.493 137.473
148.798 188.557 231.288
101.823 159.113 348.348
105.878 129.933 342.819
70.5688 60.9662 298.247
131.715 192.552 129.148
89.6153 46.314 187.623
149.776 67.4047 138.642
143.685 267.527 133.026
126.509 216.218 234.765
89.2912 92.8901 246.182
100.188 258.14 85.1856
152.651 88.1838 125.5
81.6416 188.155 194.936
135.458 193.002 81.7183
95.4838 152.726 317.384
110.802 142.297 177.277
44.2033 53.7876 265.166
144.473 95.0991 73.1297
126.593 259.407 322.513
108.917 326.692 119.641
77.9886 64.8524 289.602
151.951 62.1118 126.836
152.62 132.162 143.311
122.115 284.393 241.146
138.273 66.8595 80.6471
145.631 216.648 237.201
125.845 199.125 185.245
99.1651 286.67 84.8556
117.306 35.7383 217.37
143.32 118.501 320.05
121.682 174.895 304.294
59.6758 71.3879 311.901
129.066 276.506 187.19
56.989 56.626 298.365
145.153 119.055 308.87
138.995 252.705 97.0237
119.482 186.866 120.599
116.831 125.711 56.3515
108.015 67.5638 106.185
101.548 140.005 204.95
147.059 140.769 206.269
117.074 77.8796 287.968
107.198 155.389 353.05
133.586 117.927 51.458
117.309 187.835 180.245
72.0922 25.8257 221.226
97.09 99.3113 245.795
97.3987 173.458 322.264
119.656 130.004 123.042
57.3039 71.1184 207.746
145.097 256.558 224.114
144.819 234.333 113.648
147.552 178.922 325.971
77.375 90.1795 280.551
134.64 232.489 74.6641
145.769 127.214 245.114
144.796 316.991 203.333
143.618 216.533 107.512
93.5021 279.797 92.7061
142.478 239.144 315.429
122.333 300.897 279.234
144.187 201.02 295.494
47.4874 47.5825 269.116
107.344 241.961 296.825
144.748 71.7019 158.851
146.529 243.804 278.607
45.3963 44.0254 247.591
113.142 268.519 154.838
139.852 282.676 138.403
102.327 237.114 317.258
111.967 198.379 141.471
152.72 111.825 170.661
114.108 267.869 270.783
124.347 115.094 132.244
153.112 102.116 140.575
84.43 28.5198 193.563
105.552 38.9346 228.446
72.6685 110.348 340.151
86.2673 288.324 126.634
129.608 332.77 218.659
147.859 147.579 149.064
150.534 108.545 216.037
87.9792 96.852 226.01
103.482 104.947 239.055
139.842 268.574 119.4
107.692 264.495 287.786
89.5058 299.612 100.763
126.304 205.441 251.189
139.179 47.8361 230.958
125.398 250.926 323.454
144.811 243.384 240.025
125.785 150.812 281.41
107.893 61.8104 259.254
109.282 52.5789 141.343
75.1327 280.417 116.633
108.412 220.986 316.656
145.969 149.644 41.999
107.327 166.869 352.168
137.091 215.212 333.122
110.273 277.63 292.554
140.075 182.164 78.7532
145.935 242.874 182.414
145.545 252.483 256.233
84.3011 286.124 104.47
139.144 243.902 320.916
117.688 333.667 161.556
144.826 81.1995 172.718
143.135 218.351 98.9514
139.539 305.528 156.343
103.888 133.788 207.307
128.605 153.444 216.172
124.805 296.847 163.485
99.7156 24.1111 192.841
110.82 58.2173 120.722
122.211 128.775 238.407
139.093 227.883 315.918
102.693 245.623 97.2949
63.3828 218.572 186.698
111.034 108.89 266.218
105.082 200.931 328.719
114.205 75.7177 131.342
121.934 268.172 231.754
105.878 244.145 104.045
141.149 246.385 212.067
107.53 239.134 98.1843
134.226 207.774 81.445
112.803 219.672 81.9509
146.773 260.503 209.82
128.135 248.998 188.733
104.028 33.9216 152.378
113.261 150.434 201.234
111.075 208.526 311.804
131.753 246.164 320.857
110.26 69.4088 123.104
116.319 97.0507 112.831
142.006 278.393 146.695
79.6275 23.916 213.606
110.939 190.34 178.26
106.422 183.389 185.534
130.059 149.052 343.162
143.993 56.5817 206.875
146.867 239.799 253.963
149.694 145.164 143.009
148.917 148.951 300.199
121.112 73.9781 283.112
119.098 257.467 324.84
149.93 98.2679 129.106
89.0194 100.008 284.1
148.796 107.529 206.087
85.55 65.3931 192.757
151.33 144.153 124.822
114.81 71.6526 152.907
131.079 230.081 38.2427
110.956 261.178 282.454
133.957 239.534 318.959
146.5 154.881 255.251
114.455 223.493 63.5616
64.3499 61.4141 304.038
154.057 112.598 132.055
91.2389 167.542 194.127
126.401 189.925 244.384
69.6712 73.8144 242.574
101.372 237.485 110.475
147.602 205.517 193.978
91.9192 103.261 222.193
150.405 64.8148 200.74
119.069 164.956 84.5379
147.616 146.052 286.622
144.933 250.656 225.282
96.9024 224.643 131.586
102.948 171.552 317.016
94.4591 162.738 318.519
133.817 233.537 315.127
120.897 148.696 126.099
96.4221 31.266 225.575
127.992 250.491 172.709
115.777 156.454 72.9793
135.499 216.233 74.1138
92.5801 170.142 351.836
72.5762 72.0991 312.595
82.1913 25.4587 205.812
139.672 300.304 148.006
110.189 60.9137 143.383
95.8438 182.554 188.299
152.803 125.466 136.33
49.3581 73.8711 300.966
115.331 148.198 72.7982
148.525 225.082 143.818
94.5736 127.405 345.949
93.1889 25.64 218.072
100.264 28.7955 219.108
144.006 245.013 193.101
110.968 95.2913 315.657
102.693 78.8887 282.749
96.6378 191.042 181.945
143.738 153.245 85.8037
97.5579 278.687 82.4997
145.704 230.062 261.242
149.897 234.949 293.941
103.666 200.546 177.067
71.0766 222.108 183.622
114.921 110.548 298.975
114.026 320.042 153.438
153.652 120.072 156.198
101.328 91.4684 302.801
119.513 219.751 336.868
90.3549 43.0337 177.469
148.348 301.49 248.169
151.332 75.8342 264.032
87.6647 216.032 149.148
144.525 218.054 283.393
116.946 167.561 73.649
109.142 66.9564 98.4764
133.373 198.142 73.6132
106.893 19.4349 170.296
68.2394 66.5501 308.855
150.469 130.392 102.67
146.761 157.006 210.621
115.063 109.07 252.708
83.596 294.517 124.821
107.751 194.886 347.493
118.316 90.1716 143.922
120.508 28.0328 141.062
149.496 221.743 230.268
87.0317 245.539 158.589
142.777 164.904 181.421
105.611 272.438 76.2234
88.9857 130.851 193.615
126.081 165.062 30.8424
149.484 191.391 221.054
140.528 196.667 158.11
93.3682 65.3541 274.504
147.654 211.495 238.14
103.078 133.586 186.003
142.293 257.199 194.29
119.771 219.717 285.801
118.853 201.995 31.5287
97.1601 96.0339 318.112
79.7622 131.764 192.276
138.15 196.192 174.282
52.3804 51.1305 281.547
150.308 99.6705 135.629
108.991 151.94 305.722
148.576 176.503 204.626
100.04 188.784 161.014
132.049 196.267 151.369
104.812 233.296 312.209
111.327 88.2754 96.1557
124.673 116.61 46.9521
134.458 144.742 336.152
76.2463 272.245 114.427
109.274 207.757 345.726
145.08 251.128 191.737
109.537 241.365 89.7606
152.295 85.8227 167.767
103.239 175.946 167.288
88.5044 285.292 134.498
127.64 252.824 206.983
88.3368 22.6933 211.726
110.183 228.749 299.354
83.8785 46.9331 183.456
137.872 240.488 79.6457
110.634 130.36 292.451
148.507 51.192 195.956
75.6302 56.9181 293.295
150.719 68.6551 205.716
141.711 215.83 327.399
145.942 172.849 166.917
143.539 37.6989 192.712
50.7094 40.3733 266.212
72.3952 176.186 204.171
109.814 129.759 178.116
61.6272 79.921 206.113
80.635 54.2354 276.998
109.479 192.371 315.959
118.028 299.881 145.734
68.9375 83.7014 203.44
97.4466 206.626 179.088
96.6427 219.882 144.506
125.444 239.103 272.637
85.1547 249.031 118.777
82.9284 147.644 321.3
66.9913 91.0529 224.648
148.446 310.374 242.211
95.9457 100.61 274.167
96.219 146.885 352.807
118.379 317.969 158.62
90.5582 178.087 347.716
67.4017 38.5662 259.497
112.312 61.916 126.98
106.939 59.2136 148.509
76.6667 46.5353 264.615
144.535 175.69 107.215
108.898 139.004 206.848
137.089 326.363 231.292
118.311 224.325 167.715
122.418 174.892 117.93
120.259 186.064 127.824
112.761 282.868 269.464
119.281 177.947 137.008
145.515 136.318 227.257
99.9129 25.344 169.707
147.244 215.232 229.167
70.4526 184.77 200.499
82.172 210.982 153.439
145.356 171.39 267.86
97.1037 20.295 199.613
112.453 237.885 162.192
69.5402 88.5814 200.036
127.001 196.481 33.4444
113.791 125.483 82.8068
138.755 123.782 50.2615
58.9188 74.7579 243.384
108.831 90.7244 309.906
90.015 303.493 111.317
100.325 69.6457 274.466
148.448 112.19 203.215
85.1228 46.9257 261.897
147.353 250.577 240.65
136.743 164.607 35.3398
120.951 287.502 294.91
146.124 243.859 271.33
118.112 32.3229 126.435
123.983 276.47 214.759
92.7638 96.2968 266.114
111.942 161.141 308.265
109.215 195.228 321.244
120.963 36.4976 119.525
131.003 80.9819 118.552
100.063 247.533 140.695
148.445 125.007 315.122
61.2216 52.2263 280.509
65.2681 77.4011 317.357
146.798 229.874 188.399
93.8454 238.059 158.871
145.87 247.065 231.822
88.9191 108.483 333.673
41.3021 69.5606 227.091
116.618 206.008 93.1539
121.844 263.843 315.722
113.078 100.496 95.5087
108.181 215.066 325.032
85.5271 60.7552 186.001
109.643 109.265 174.427
137.043 44.7426 116.669
105.169 219.529 170.245
62.7061 153.635 216.525
105.067 34.3679 214.141
147.341 135.502 241.58
65.3212 114.413 337.633
105.498 203.087 322.404
138.177 191.759 165.752
81.2909 94.9022 282.792
143.238 236.314 201.652
142.28 86.7182 183.046
127.896 233.07 336.11
112.678 85.2134 85.1657
109.18 33.4402 218.685
110.152 145.449 302.658
125.491 284.13 178.6
114.108 123.708 337.882
90.6454 124.809 306.052
150.67 118.938 142.946
133.904 186.642 173.386
129.516 224.085 37.6742
137.553 71.5165 124.28
142.481 190.717 48.5411
118.456 278.563 152.111
89.99 184.785 167.652
69.7569 138.398 338.616
94.7774 81.8707 184.668
64.7394 70.5622 305.949
146.476 298.254 256.155
86.8811 220.44 168.958
105.415 227.213 311.55
117.084 214.237 95.8203
91.4658 173.958 328.471
79.2898 222.625 145.05
118.985 101.62 135.331
111.913 186.54 57.0713
79.5922 85.89 232.424
124.044 152.939 118.663
91.2063 202.934 183.5
92.196 117.117 212.685
147.217 69.7751 275.049
143.691 51.8876 110.273
119.001 266.623 257.973
114.456 170.068 44.5867
106.825 101.366 177.871
127.077 222.306 234.6
145.256 217.668 292.495
98.8847 175.908 185.195
112.642 64.0181 266.808
101.917 222.568 161.59
69.9709 78.6409 237.812
111.63 78.4399 125.046
107.821 72.7366 164.344
110.323 83.3978 294.26
68.4643 224.585 145.893
87.0503 231.012 132.829
151.094 130.586 169.303
153.293 228.526 269.218
118.416 148.451 111.494
98.7426 120.047 214.383
86.8399 144.518 351.47
118.755 297.555 151.463
58.528 193.602 201.985
116.273 121.18 161.031
146.178 165.865 288.246
57.7563 54.0732 289.142
82.7427 206.401 158.375
113.929 121.585 224.551
146.447 222.058 129.504
88.7612 91.0797 266.072
119.447 187.749 134.57
108.861 103.335 321.025
92.3275 166.747 323.398
92.7789 187.691 333.696
106.15 28.3301 152.475
88.1947 156.529 321.074
144.056 226.366 102.179
57.8516 45.9141 269.695
95.5726 173.863 171.665
81.6525 259.697 115
61.3388 228.365 146.422
66.7427 258.685 129.941
116.746 76.7826 84.3365
93.2627 100.607 231.174
98.4591 172.635 194.736
57.515 36.5882 240.555
131.891 67.4861 119.723
113.869 179.698 148.408
155.428 139.964 93.1866
67.922 103.842 217.922
92.4628 24.6112 186.843
105.397 193.328 176.823
120.071 133.115 105.82
146.383 155.55 287.095
79.1386 221.04 181.723
67.5059 133.903 330.47
115.655 192.553 78.1516
74.1433 29.9593 235.954
46.5378 47.8576 260.411
110.918 111.691 243.431
144.4 40.535 206.012
99.4082 180.466 323.555
144.242 229.77 200.378
50.5767 56.8888 286.42
104.286 186.761 320.364
107.931 99.6335 171.983
107.744 208.959 319.048
133.037 336.223 197.536
81.8416 275.118 111.609
132.763 207.289 67.6096
116.525 108.926 124.755
112.555 195.455 129.036
139.393 301.749 135.638
148.784 131.1 194.019
115.731 26.8817 193.715
79.7604 282.341 107.122
122.583 40.9264 229.904
149.116 158.302 83.478
141.694 286.786 202.371
71.5045 31.9918 210.561
110.22 239.509 292.694
94.4355 26.1566 210.331
105.924 236.356 303.829
73.1333 94.3489 221.656
137.589 111.01 317.664
112.585 210.046 108.26
106.816 220.822 340.816
124.458 250.116 168.744
103.642 32.9403 224.683
93.9951 306.951 104.931
126.344 237.167 175.516
154.541 189.48 71.4455
55.9496 61.4283 210.054
145.152 157.081 200.123
74.1053 147.323 339.838
101.911 159.769 176.966
120.091 193.625 99.101
116.078 82.2918 137.302
85.8396 171.139 330.053
115.524 122.842 281.677
146.974 287.892 242.93
88.102 120.358 342.719
103.357 105.324 259.621
72.0486 137.945 325.188
94.6898 77.5816 177.777
58.9444 108.428 327.676
103.901 97.482 315.616
62.6873 43.8694 276.46
69.6345 128.812 339.951
114.846 128.453 89.3773
144.556 195.156 166.43
77.9754 146.384 215.016
100.674 84.2526 295.951
112.702 295.288 144.959
142.007 51.073 220.19
115.595 86.4517 132.711
135.622 204.865 156.899
92.2145 32.9946 231.3
111.823 115.247 332.415
101.573 194.346 324.894
105.319 93.969 174.587
148.83 148.221 244.178
98.3588 74.7527 276.913
149.73 213.579 78.7586
112.142 103.56 168.572
128.175 88.1342 301.915
88.0304 151.907 352.35
110.017 79.1012 117.979
115.104 196.204 311.357
84.2448 132.887 214.723
98.4323 29.6374 212.798
116.598 108.35 322.251
88.5064 189.004 188.825
106.178 77.5116 292.507
98.2902 155.172 200.267
142.55 214.501 315.781
98.3537 243.437 108.112
121.025 197.214 87.038
87.6649 79.5975 304.384
105.459 261.849 68.9473
90.9209 174.638 334.869
68.6903 269.721 120.032
98.1699 122.674 342.093
85.6616 158.287 346.099
94.6412 82.6105 301.791
63.1729 43.8726 264.259
99.2993 103.533 301.782
102.878 75.028 162.14
62.297 64.2195 212.189
80.5142 264.897 109.287
93.5847 141.33 187.16
72.4613 265.636 117.904
91.0584 76.688 293.302
105.737 239.814 307.933
106.277 182.559 161.419
90.0486 206.711 175.522
85.7778 73.1764 189.256
66.8979 279.822 121.12
98.3976 176.443 348.934
120.099 105.043 130.205
117.286 323.476 110.319
124.607 194.6 288.569
43.5957 48.1785 235.791
76.3217 90.969 227.238
82.9733 201.438 182.949
84.0619 138.902 317.498
84.2894 138.868 190.385
94.1204 260.217 94.7036
80.4552 28.3167 232.626
88.8776 40.8217 246.351
100.486 30.8995 171.651
98.5296 199.179 182.742
148.975 228.497 149.292
120.066 135.966 93.9386
45.2063 56.5183 274.263
144.245 170.943 92.724
50.5671 55.4612 215.547
117.086 218.614 345.332
116.469 125.776 226.481
144.631 43.7818 180.551
142.921 223.274 263.837
78.3589 96.2486 328.401
139.118 200.88 180.168
150.412 73.3621 147.777
96.6406 131.555 206.707
147.85 232.421 209.827
95.6949 250.258 163.244
47.3246 80.9719 226.843
143.663 158.651 41.8713
89.0972 160.267 353.669
77.0333 214.141 186.037
120.136 137.885 114.607
116.179 199.66 90.9181
135.734 203.723 164.455
143.217 160.792 94.5307
146.664 217.79 275.331
70.2355 87.6351 228.724
148.9 129.904 227.018
118.427 111.26 143.013
144.91 170.336 79.4441
72.1476 120.893 343.286
84.1943 112.383 339.43
86.9369 38.7354 189.926
149.643 221.043 78.7033
102.725 201.156 171.018
121.043 178.427 129.82
92.1441 121.356 193.012
115.451 180.443 69.5357
116.483 179.299 75.7916
65.1592 97.6438 221.772
110.294 85.753 303.355
95.0115 50.6357 248.765
138.947 255.335 209.932
111.284 167.635 313.483
77.9432 105.962 218.353
59.562 67.7939 249.064
144.949 206.367 268.892
95.2654 248.611 106.165
127.736 184.96 225.531
145.549 85.5149 71.2022
146.644 245.498 288.389
85.2774 29.6962 225.508
78.1596 143.854 347.847
134.464 203.206 60.8203
135.458 212.712 161.89
78.6898 92.0325 321.655
144.861 206.139 275.249
97.605 76.7203 293.113
138.184 122.313 330.851
102.671 219.571 317.948
147.548 156.66 51.878
124.286 251.448 329.349
89.1048 144.258 315.603
62.9279 212.813 190.401
117.99 224.443 289.346
71.0579 153.776 214.761
54.7246 206.337 195.771
54.7146 74.75 308.616
42.5765 60.0471 219.289
99.156 185.139 345.334
103.748 106.971 177.007
110.972 201.522 313.34
124.815 246.922 244.875
144.346 168.185 97.5779
119.312 108.324 328.565
93.928 101.762 323.998
91.3033 62.3105 179.092
66.0372 97.0691 329.172
67.3824 198.358 199.026
66.8605 161.215 213.626
118.146 155.819 201.209
80.5688 95.6726 197.173
136.212 92.117 141.533
66.9001 29.0748 231.709
115.836 84.4873 123.992
142.008 276.2 163.908
53.2659 182.956 205.363
133.824 191.797 88.0946
63.9872 81.9503 226.685
150.381 89.8897 202.837
77.7305 143.392 323.907
64.2063 271.23 124.899
136.655 201.039 86.751
78.5671 113.478 200.329
86.7426 24.2701 220.526
63.5818 73.6907 260.283
144.027 298.61 266.579
113.458 187.591 72.7376
94.0047 190.3 162.701
114.852 224.379 294.033
139.148 209.649 171.41
146.49 184.935 190.886
99.2537 186.205 350.674
144.201 202.034 194.982
81.3926 195.757 189.523
114.555 90.1229 310.236
96.8401 195.55 329.017
81.2852 155.295 324.849
50.6483 68.3875 234.897
46.7805 62.213 279.299
124.661 212.067 185.029
142.763 74.7005 238.115
133.592 195.307 178.22
126.393 57.3513 132.914
105.716 109.042 307.124
112.618 25.6488 146.617
75.7109 132.917 317.504
64.7377 169.609 209.734
137.436 78.7776 120.452
149.039 248.585 283.944
67.6252 263.108 123.667
76.2568 260.364 115.778
112.027 241.234 77.1112
151.464 189.09 19.9094
77.6644 76.3126 248.107
69.5692 130.052 321.113
129.966 190.419 27.4643
144.748 243.061 216.758
101.595 89.56 310.414
97.2626 190.541 335.284
93.0569 158.241 198.538
90.567 21.005 205.282
89.4325 225.167 174.563
70.2708 120.142 217.416
92.5632 193.51 189.531
116.394 269.321 254.079
75.9706 226.831 148.546
80.7376 84.9436 315.521
139.658 129.116 137.948
82.1378 214.596 176.593
68.5319 43.8533 206.783
89.6784 178.165 171.592
74.8213 218.774 152.667
118.275 109.204 159.823
149.561 138.181 84.4275
90.063 198.102 162.076
85.3561 109.908 215.56
126.781 158.18 111.536
78.9142 152.331 345.936
153.104 94.2365 79.0379
148.141 114.899 66.9816
100.56 110.26 331.174
88.5043 70.5452 290.583
120.998 38.8272 206.524
90.019 108.451 191.519
65.4198 93.2525 206.185
142.496 239.893 208.127
58.4927 46.2466 219.529
65.8974 106.151 333.122
83.3872 135.994 349.21
84.0776 149.494 165.679
92.0617 66.6056 281.183
54.1217 216.265 187.756
73.0159 110.104 216.176
59.439 84.4729 313.748
65.8303 124.105 334.35
150.126 141.025 247.719
129.358 182.206 240.993
76.6902 275.543 152.233
85.502 80.5357 186.393
97.3171 39.6979 204.649
122.854 107.335 190.428
88.4654 170.447 176.3
135.946 40.9108 206.769
140.853 73.416 291.421
56.7716 148.22 216.689
52.4687 45.7929 275.457
100.906 120.464 189.016
69.3579 73.9191 253.199
69.9863 203.579 187.744
101.499 90.6204 178.196
126.982 188.683 270.497
84.3147 281.146 154.481
93.6504 122.542 181.69
