ply
format ascii 1.0
comment Created by Open3D
element vertex 2023
property double x
property double y
property double z
end_header
158.354 95.3861 221.133
174.875 302.362 82.2188
164.116 291.567 44.119
129.403 248.303 214.756
165.803 49.2391 205.184
151.233 236.481 142.033
149.686 357.005 50.7186
104.881 223.514 137.515
139.74 173.418 292.04
172.408 63.9008 177.511
138.324 144.711 75.5477
69.21 188.565 56.8607
175.829 319.963 95.4701
174.926 312.171 73.8087
161.853 280.237 54.6639
144.481 349.822 59.785
158.723 131.547 190.815
88.8339 142.528 50.9041
174.268 138.183 119.902
167.128 223.791 150.258
173.458 154.685 241.034
174.921 313.718 46.7109
172.129 140.431 95.8842
172.887 136.157 170.004
119.229 39.4548 146.395
172.67 92.1044 177.081
149.661 56.5824 235.785
99.7594 270.191 194.924
168.392 207.031 117.171
173.172 86.5303 208.892
173.105 119.169 248.944
166.253 64.9214 130.541
173.81 153.674 222.649
116.455 288.551 59.1656
173.84 99.3583 171.035
173.691 178.922 224.645
152.134 201.863 261.766
152.072 84.2294 222.3
129.573 78.5269 135.253
172.749 62.4858 197.676
174.594 173.674 232.991
173.347 75.2648 202.028
170.497 134.26 244.715
149.55 170.355 139.166
173.276 200.624 149.987
171.164 188.405 110.184
168.009 205.079 225.115
149.852 349.33 44.0211
174.592 126.042 172.942
173.547 183.091 164.057
162.126 220.838 228.002
144.924 239.664 162.253
174.075 92.9182 230.21
157.285 102.834 87.2378
172.382 148.902 235.472
86.9155 275.274 199.5
161.049 94.8729 269.963
174.789 124.193 240.666
122.564 232.024 107.935
156.69 89.5981 190.365
170.821 218.664 162.851
149.6 90.3017 245.393
148.261 371.105 52.6043
172.34 73.0556 174.288
113.976 116.475 58.6107
161.442 299.904 35.661
173.583 143.83 127.99
145.483 37.7422 147.837
172.328 72.3399 153.25
102.057 239.472 111.547
106.721 108.111 57.2358
174.364 157.932 231.26
171.609 163.496 130.782
173.358 195.757 125.203
126.441 247.466 159.653
164.329 164.185 88.5308
137.273 366.55 73.1901
102.822 275.11 59.5211
170.841 291.168 75.9035
173.408 213.211 147.51
172.795 135.386 228.046
146.278 234.536 238.95
173.871 300.952 92.8346
172.614 98.1202 185.006
106.343 276.351 114.423
139.952 165.558 297.752
172.642 68.2295 206.547
141.752 158.315 297.393
150.696 232.949 231.326
108.728 222.509 98.0338
173.304 134.811 216.525
146.077 123.647 76.9083
159.995 46.1934 180.892
175.257 309.378 89.3223
145.153 202.927 186.41
168.986 66.2412 138.022
149.108 234.616 216.732
146.118 74.0292 204.074
173.056 202.561 175.232
162.864 93.1065 98.3152
175.156 368.502 66.1537
173.714 114.705 239.737
119.765 55.015 162.893
137.619 193.476 91.107
120.735 102.093 109.011
138.247 91.0212 142.627
153.841 85.2619 231.222
123.824 293.934 54.1186
157.676 224.793 213.912
133.884 244.831 134.655
96.8867 218.308 87.416
155.605 260.945 68.5192
172.978 153.557 103.876
170.929 200.789 185.674
131.091 244.276 225.772
151.987 185.51 277.586
165.994 216.199 115.965
167.481 85.7573 253.625
157.986 138.125 166.64
174.05 109.74 180.934
167.051 222.857 131.923
169.137 115.944 260.442
172.588 77.8456 237.392
173.82 338.772 40.1834
152.038 256.708 100.413
173.332 83.1633 222.861
170.951 55.0502 190.849
167.349 78.5832 250.003
126.289 91.7054 113.514
131.132 370.469 80.2719
131.939 181.18 121.838
165.66 329.294 39.7544
121.472 44.2935 157.721
112.337 136.713 64.2365
172.404 141.141 250.609
153.964 160.185 277.961
174.228 161.822 246.54
162.722 67.5103 247.887
172.296 167.842 123.577
170.04 189.008 231.731
129.81 199.454 144.641
128.735 105.744 113.403
149.865 86.5449 91.0062
143.809 238.409 185.862
173.103 102.888 207.077
150.943 113.078 247.549
164.47 56.1122 140.425
159.06 350.264 110.547
134.117 61.6168 195.836
173.634 102.145 236.123
171.832 91.2621 163.127
173.104 130.483 111.628
156.932 173.616 86.4449
153.008 182.239 164.925
173.276 103.091 154.759
152.664 123.644 231.179
128.878 257.466 43.0815
166.949 286.965 62.4051
172.358 166.745 237.695
159.091 44.8892 161.101
156.189 162.641 190.909
145.486 123.007 254.977
172.943 339.453 55.3102
91.2034 270.874 214.71
173.778 108.858 171.294
173.554 151.761 113.565
149.33 96.2138 157.246
87.3988 213.639 75.1143
171.556 198.091 111.934
170.341 66.186 147.345
172.681 175.75 156.974
170.751 149.678 95.8214
173.449 150.978 157.825
150.235 188.694 156.48
70.923 323.727 135.077
157.523 155.047 284.686
120.18 129.943 102.06
173.39 71.1262 194.436
157.591 272.098 57.7631
96.2846 72.5188 76.9853
170.343 213.459 202.071
168.536 392.809 72.2006
87.6924 221.241 84.5159
149.141 133.807 291.312
130.151 247.407 198.53
85.6019 273.807 189.19
165.152 392.731 63.839
172.903 114.486 135.633
170.885 80.5596 137.856
171.081 125.745 257.516
174.604 137.595 143.25
172.479 161.828 180.226
170.186 102.873 101.307
164.236 110.668 270.127
110.717 262.078 190.396
145.588 153.164 78.7258
173.807 180.286 116
125.669 246.742 169.573
157.225 153.162 183.191
160.212 49.0292 219.29
165.448 274.832 85.7114
174.03 186.218 123.464
155.798 231.685 205.286
138.75 116.717 272.37
89.4664 178.711 63.3547
151.019 80.8054 214.696
146.605 87.6072 177.824
172.988 166.018 153.681
129.027 390.083 108.494
151.397 191.804 175.185
170.045 216.079 137.143
165.618 279.102 67.2145
161.696 266.977 97.1974
170.791 335.106 35.5011
142.064 119.249 262.606
108.052 268.919 41.7942
55.6589 201.979 61.1061
111.523 56.5401 88.9228
134.378 242.457 91.3212
140.968 233.877 248.164
172.814 133.487 254.196
128.754 78.8062 77.845
137.494 135.665 73.7401
152.621 94.8627 173.036
174.691 365.973 94.0542
146.385 330.105 38.6778
167.83 58.4381 148.061
172.77 174.509 243.49
171.805 315.284 110.84
170.554 118.407 92.7008
132.197 359.906 79.0463
170.557 90.0154 129.532
172.486 331.172 47.079
171.861 197.651 212.605
173.095 142.062 165.426
138.932 373.382 70.5955
128.308 36.1949 175.224
151.057 178.934 146.202
167.168 284.338 76.2148
116.72 253.521 180.018
94.6001 270.047 169.244
143.315 197.569 217.43
166.705 307.42 38.1383
146.331 80.7738 239.066
158.914 99.6607 196.587
172.139 383.717 90.4487
128.347 220.348 244.398
169.482 217.409 178.611
159.598 47.1438 212.727
152.685 257.974 76.6873
131.624 45.5483 195.707
124.493 93.6896 65.6721
149.32 93.2161 166.599
174.193 95.8708 244.847
126.229 182.252 115.793
100.079 188.383 76.2716
174.48 202.653 162.35
173.103 95.6608 193.304
152.5 130.016 216.079
119.592 346.746 89.6288
92.9669 121.395 47.4418
148.975 47.2196 130.039
133.315 350.865 101.018
170.497 92.7531 114.045
173.808 193.201 169.335
172.574 65.7434 185.789
137.951 319.101 33.8294
173.713 136.348 203.256
141.112 31.8372 157.881
174.294 372.084 54.1716
125.025 295.967 37.1774
128.14 317.571 79.6589
150.91 59.9376 117.153
171.815 324.892 50.3615
130.308 341.435 75.672
158.448 156.275 174.057
148.721 100.693 253.288
153.242 171.714 285.77
67.5273 119.09 76.3599
170.773 183.057 218.436
172.489 86.1581 191.11
160.544 397.201 73.2493
125.98 135.256 67.6684
151.837 100.23 162.096
166.26 212.66 187.297
144.579 234.588 227.127
154.706 143.575 138.244
164.632 101.36 266.764
136.789 315.694 55.496
140.941 194.318 148.753
146.9 114.899 77.2871
167.273 65.1238 233.216
172.901 385.298 77.2268
113.437 252.765 142.553
99.815 266.588 210.136
118.256 216.292 96.6024
138.247 267.458 37.8464
174.721 381.732 50.755
155.93 102.495 172.03
166.657 190.539 104.716
112.741 157.844 92.8436
167.75 194.371 241.267
149.247 38.7448 200.164
173.439 142.972 137.24
170.616 293.344 89.3871
173.088 178.101 133.312
143.367 288.084 26.3718
135.514 242.85 234.01
140.756 68.1468 220.745
132.951 86.7107 127.585
135.253 110.985 69.625
160.513 227.474 192.408
123.089 184.29 291.205
120.449 151.051 72.0535
155.337 109.253 230.765
150.417 159.302 132.146
173.659 143.449 229.476
168.707 179.135 108.781
174.298 112.789 213.554
148.477 284.207 30.955
64.0181 197.341 60.1629
173.621 193.35 157.729
125.874 165.083 106.616
156.199 174.817 168.204
149.567 142.575 77.1101
150.853 161.529 206.332
168.964 96.7438 258.764
120.518 207.806 278.204
122.856 206.586 137.755
108.73 251.983 131.617
174.692 354.081 65.193
105.817 318.816 95.81
164.48 99.4853 94.8102
105.134 93.4997 59.522
151.83 190.994 268.994
173.206 83.7115 200.996
145.204 372.101 103.9
165.246 175.354 93.2823
161.316 270.683 73.987
125.661 138.622 103.122
165.73 170.731 266.887
91.2662 200.39 71.7328
172.239 103.958 130.511
173.299 109.131 159.366
126.751 87.2177 71.8124
173.718 187.054 149.645
174.247 103.845 189.623
171.874 94.4845 142.413
171.986 98.2698 160.136
145.572 335.785 57.5209
158.038 112.723 203.793
137.509 240.982 178.911
79.1548 139.927 46.5952
102.46 206.38 84.255
139.424 60.953 215.792
173.248 144.815 104.368
141.151 238.31 212.19
173.878 99.7724 222.967
132.76 234.716 256.878
122.132 174.339 296.769
112.346 54.8232 130.719
174.727 144.371 242.679
118.778 252.385 168.73
153.717 140.949 200.247
117.391 152.998 98.0732
139.803 73.6483 170.885
155.179 170.854 199.801
131.302 127.681 287.034
166.286 149.145 89.2927
174.285 120.716 109.32
152.434 237.493 157.428
115.557 91.3679 107.011
172.645 211.733 167.898
135.9 210.168 204.03
161.188 51.2127 147.192
159.722 215 240.501
112.545 247.438 121.817
145.985 96.4089 140.315
92.2834 240.814 193.263
155.625 123.167 80.6681
155.635 222.415 113.192
60.8915 180.537 51.1387
173.677 175.232 140.407
140.785 118.294 122.183
139.185 242.974 148.577
173.403 73.9096 214.78
143.381 334.186 46.2251
162.421 218.582 216.862
174.466 103.993 244.108
156.439 104.435 163.914
146.686 50.8431 226.704
146.719 95.5039 149.053
63.46 209.507 66.4116
61.3789 136.304 52.0544
76.7833 114.329 56.0331
142.827 78.832 185.455
116.627 197.413 124.641
97.4024 262.389 53.6522
172.859 141.909 111.13
149.143 39.742 188.046
175.105 336.743 83.4564
139.147 65.8392 182.633
171.694 197.085 222.821
132.095 72.2557 167.044
150.719 45.4131 219.277
132.535 113.928 114.526
140.82 85.6642 82.8241
174.05 128.754 221.897
151.714 138.703 213.176
169.591 140.294 260.825
174.496 114.501 231.894
173.978 373.924 102.226
114.287 256.684 216.085
149.84 96.6307 85.3659
133.086 244.038 163.066
109.995 147.734 63.5343
136.816 101.46 72.1924
161.697 228.647 173.874
174.512 348.507 96.4051
154.482 222.917 249.19
174.451 105.329 144.687
146.73 200.242 197.241
164.521 201.514 112.495
111.444 239.796 89.9068
127.441 67.0413 86.8821
153.646 97.1358 93.5019
172.555 74.2758 165.106
104.867 127.491 56.2738
147.581 178.404 286.228
161.294 53.6881 229.303
151.302 101.275 147.291
50.3589 192.26 57.2589
161.354 164.825 177.546
138.569 52.6262 216.133
125.183 280.789 27.1433
125.519 357.308 83.5571
119.578 213.701 147.63
169.864 74.2594 133.373
173.102 111.058 110.813
170.94 159.181 94.8517
170.755 296.233 99.3451
121.789 302.005 77.1232
132.849 369.507 102.797
145.046 223.137 108.678
150.862 86.0426 196.347
144.091 174.127 135.902
156.502 231.699 186.983
170.654 109.535 150.726
167.979 107.901 262.217
136.286 121.881 115.494
73.9134 277.414 173.984
147.708 229.18 250.83
158.596 153.704 81.2838
109.114 225.485 179.128
171.581 84.9408 146.274
163.329 69.1284 123.238
74.8736 297.311 128.974
151.33 347.143 102.042
151.242 279.159 39.237
158.551 148.237 281.272
161.563 266.221 84.9271
127.065 190.963 123.642
152.226 356.345 37.4511
136.72 318.497 44.4522
173.385 164.273 204.19
167.659 200.344 204.193
154.494 187.055 182.58
130.884 214.46 99.9694
169.659 97.3299 108
173.518 157.912 173.426
154.953 276.327 50.2671
132.943 87.4308 144.498
122.541 112.57 62.2315
88.8686 131.763 47.8307
146.685 364.164 58.1282
59.9971 189.924 56.5713
168.471 217.003 123.557
157.737 126.261 167.767
175.05 346.801 41.3669
118.149 257.518 199.445
150.368 226.399 234.198
130.073 142.91 75.7717
166.902 136.712 268.749
146.352 227.874 241.718
161.203 73.4171 114.705
156.155 138.393 194.322
173.952 337.141 113.241
173.928 135.497 157.33
89.8237 310.709 122.584
161.005 208.361 250.071
144.343 239.423 173.118
161.605 180.769 92.4669
121.806 297.61 70.8622
156.11 57.2214 127.036
136.586 33.5463 179.776
123.773 62.1435 170.217
147.444 167.251 291.734
137.268 200.682 165.143
140.951 93.0257 79.7022
159.17 119.646 169.066
156.514 316.389 24.8143
117.427 180.793 79.9201
145.631 240.178 150.366
107.931 64.5453 79.8636
150.121 113.609 134.95
162.11 209.072 106.629
128.314 347.447 87.2019
168.497 188.153 243.841
145.635 140.255 229.452
165.083 110.154 92.4946
119.119 131.897 62.7055
73.9254 308.912 131.775
69.4341 275.979 161.574
98.0045 270.717 178.635
171.123 75.8012 188.526
129.663 300.879 58.3897
149.374 196.797 189.751
85.6751 272.714 160.269
174.39 189.193 220.752
60.0662 251.516 198.951
153.334 402.892 74.7026
153.789 71.4242 110.358
125.238 148.77 295.426
133.587 206.192 172.707
122.192 249.44 48.6939
164.745 391.014 57.3883
143.564 83.0485 89.8113
119.126 353.926 90.1405
153.587 305.132 105.826
143.314 194.829 164.194
171.822 81.9126 153.783
145.957 342.896 54.4576
85.6548 274.82 171.571
157.162 155.714 151.893
133.23 90.833 76.2219
138.549 254.515 55.1806
123.604 239.039 255.166
151.391 152.635 208.392
142.11 170.003 225.491
129.912 243.761 69.4566
142.424 36.1473 195.48
82.8645 244.897 225.292
131.62 216.774 268.325
156.617 317.797 111.694
176.197 306.87 50.9496
128.785 197.366 286.138
150.359 380.926 51.4105
127.657 46.4901 175.069
145.08 253.01 68.0444
154.665 155.723 199.824
128.816 244.834 178.829
144.215 204.364 97.0991
103.794 267.844 49.2125
164.374 322.33 29.6915
158.355 130.402 173.462
112.45 190.94 80.8595
170.863 59.3762 162.655
174.2 192.568 183.329
158.017 141.248 152.007
116.739 168.615 77.0445
119.577 288.746 40.0739
84.3099 347.76 127.094
137.923 123.194 76.4941
119.759 254.246 223.116
147.686 219.182 255.564
76.0548 118.894 50.2421
108.446 262.319 209.23
156.204 133.586 283.737
119.146 136.335 96.752
156.797 285.947 39.9153
61.2248 148.75 48.0553
158.73 103.119 216.098
172.258 176.165 124.88
164.936 54.7667 222.887
111.79 222.718 269.378
117.843 93.9337 63.289
110.475 241.662 113.756
174.191 134.689 132.804
147.372 214.737 103.093
120.224 43.4998 110.873
127.156 58.1889 94.2535
167.294 129.791 262.868
169.486 162.156 103.376
91.4323 228.681 94.952
145.535 131.354 122.045
172.26 84.5239 170.615
167.571 147.051 265.94
68.754 263.776 201.516
163.312 220.768 194.353
173.259 142.085 216.938
134.637 173.552 247.037
172.558 155.085 183.472
117.367 250.772 132.285
163.82 47.8788 197.833
103.2 116.17 52.0436
138.829 152.804 114.205
83.2138 266.459 141.846
160.297 57.9335 238.68
112.222 133.618 95.8943
149.529 101.828 134.252
155.9 170.047 163.798
143.138 261.631 48.5419
141.577 108.35 123.766
168.873 171.766 103.172
98.8789 256.079 133.949
77.7499 264.515 135.37
144.21 131.92 77.4271
156.701 320.378 56.0218
157.084 82.9863 99.9078
121.552 101.417 62.642
171.138 63.7016 156.34
173.91 172.688 114.575
120.557 216.323 243.434
111.858 123.471 61.1882
170.649 381.531 103.678
146.73 237.641 129.769
138.703 74.0053 110.231
164.715 385.339 48.6548
166.208 219.352 187.112
172.75 182.091 233.136
154.38 375.818 107.772
171.716 59.2038 184.454
158.734 336.258 109.651
136.203 318.313 68.1599
139.244 241.688 159.431
82.8132 276.834 180.123
157.107 112.353 84.5193
157.885 202.144 251.997
163.456 140.519 88.486
133.352 62.8312 95.7572
168.779 386.74 97.4526
95.829 239.596 163.147
109.805 224.678 150.567
152.583 154.46 216.008
96.591 256.708 115.015
152.939 200.1 97.1361
144.236 240.578 141.444
145.063 326.551 29.4197
144.074 88.6719 160.048
173.413 156.654 152.208
96.0367 355.533 120.378
174.611 323.725 81.6284
153.31 178.682 198.623
158.516 130.792 161.973
172.785 129.305 233.787
111.848 256.509 224.453
171.631 168.304 251.395
148.548 76.796 104.166
157.928 268.442 65.2494
111.814 189.659 266.502
140.9 238.469 123.229
175.334 354.151 82.4387
171.993 293.605 61.1509
78.5476 223.45 77.7354
127.707 182.757 249.041
104.509 71.3 76.5015
168.464 84.2379 117.124
173.141 165.672 163.007
91.0302 260.16 138.393
161.729 57.0205 132.782
144.946 34.0693 185.124
174.623 126.085 143.642
92.4312 235.954 206.524
140.835 136.887 248.946
172.13 85.9563 181.639
138.188 219.454 103.08
128.288 326.117 81.0162
174.752 375.829 89.6137
174.063 118.947 117.787
76.0997 216.28 74.164
136.431 147.184 263.509
127.317 291.305 28.3376
137.525 205.442 96.9028
79.8041 316.868 131.532
171.131 156.152 195.109
143.425 41.9498 136.745
114.838 62.0922 83.4127
63.5945 136.281 67.5812
144.199 145.466 297.097
125.724 165.078 266.379
89.7934 161.471 56.7185
82.7103 167.833 54.6219
145.539 60.5255 228.646
157.409 124.627 193.427
168.108 284.712 101.63
152.726 175.863 216.782
146.857 53.2229 119.356
129.301 100.11 69.1212
143.102 58.3248 109.692
99.6521 196.914 272.184
158.026 106.026 203.501
173.526 109.504 117.509
110.876 230.135 188.19
118.104 243.495 60.002
132.352 154.669 299.329
77.3612 276.138 164.47
155.819 116.216 218.648
112.292 349.556 111.358
175.105 327.963 94.5542
106.668 214.098 91.4003
133.704 50.8537 204.735
121 240.215 90.283
79.9395 263.402 117.335
112.012 101.096 57.8827
159.455 229.753 128.37
134.279 208.769 192.215
96.4061 126.34 51.7688
129.298 213.099 185.954
130.151 60.8723 186.264
159.866 142.965 180.985
152.043 96.8621 243.662
120.589 248.038 124.078
153.634 160.088 140.944
164.063 286.31 50.64
172.622 308.677 106.912
116.332 205.518 89.8952
119.448 83.8032 67.9734
100.983 56.6682 107.393
105.263 229.367 99.9629
155.442 294.954 34.0854
171.884 109.546 140.601
39.5091 305.019 118.216
151.11 142.772 292.901
128.722 156.904 266.747
169.862 104.289 116.609
150.298 39.9127 208.337
119.137 222.138 268.791
127.655 331.597 100.166
133.659 81.7349 85.5434
90.6756 131.816 91.0261
89.4299 171.538 62.5298
110.224 42.7494 124.175
155.535 180.843 185.271
172.948 154.186 127.143
149.511 65.2085 109.283
123.04 199.434 132.468
128.841 409.254 89.3328
116.246 406.769 89.2848
91.0531 264.803 146.291
127.394 147.805 267.01
164.177 51.4215 156.596
88.2132 153.08 54.3506
145.781 109.684 130.943
140.247 238.836 243.321
169.734 135.474 90.5485
157.571 46.55 195.184
162.843 369.932 112.446
150.849 124.524 127.106
139.367 33.1414 170.883
127.546 243.707 88.9246
157.757 114.305 283.092
145.545 198.403 179.86
139.785 203.9 173.871
152.269 315.162 105.062
153.2 333.926 102.92
159.567 231.812 150.967
160.646 115.083 276.837
147.729 151.695 293.961
171.132 205.935 211.676
96.543 247.105 119.137
131.062 227.775 262.544
172.532 327.722 110.334
138.651 240.998 203.456
158.697 62.079 121.625
146.005 84.6923 248.517
139.528 136.019 292.317
132.565 165.66 79.7312
151.612 388.073 51.9296
144.298 198.628 172.853
154.534 124.896 286.11
146.004 69.8777 99.9264
157.217 100.61 276.345
141.77 396.139 65.2456
124.049 387.878 80.1097
171.531 181.383 240.501
104.617 260.559 162.297
134.142 235.582 116.547
151.499 236.439 123.848
132.355 316.491 73.4335
134.125 353.139 73.2843
154.3 94.2825 233.634
118.059 274.695 31.2071
133.662 177.275 296.594
153.657 234.965 149.91
144.584 273.631 46.0496
165.941 90.2268 108.014
142.079 200.65 153.935
160.639 216.042 112.553
140.338 155.678 244.402
117.331 309.18 100.915
156.18 173.778 189.932
122.592 50.2158 105.925
154.465 215.438 106.228
148.486 78.7897 198.097
132.141 155.307 260.78
118.8 193.636 85.6785
63.1267 264.03 180.443
170.192 84.5208 124.47
137.806 191.96 286.511
81.1919 95.5391 62.7242
174.091 295.359 79.125
140.295 167.885 236.897
166.346 290.587 108.278
146.491 335.272 31.6205
172.436 176.943 147.037
114.782 62.0391 127.487
47.0976 171.069 56.0278
160.69 150.756 163.734
132.687 37.5769 187.637
162.175 357.626 114.771
81.512 311.017 125.554
174.42 112.872 222.453
124.926 208.876 270.952
106.94 158.667 71.9746
116.01 107.229 60.1328
152.566 358.965 103.992
125.781 245.198 135.783
165.714 119.318 267.833
131.56 304.547 37.6884
152.858 161.177 198.694
123.054 215.372 273.68
75.3659 110.903 63.7111
87.9749 242.111 204.262
117.636 162.706 291.112
119.715 209.708 94.0072
122.873 346.519 104.926
155.814 214.547 249.702
172.939 382.591 62.8326
48.8633 214.182 68.373
61.0629 271.226 156.84
154.567 87.0739 207.986
173.993 113.489 188.371
110.307 202.309 83.7515
140.182 101.22 122.114
173.88 110.731 252.256
115.414 218.573 179.338
161.014 96.7447 187.526
152.788 172.175 205.812
64.7434 279.061 123.054
124.191 217.23 180.783
109.743 306.473 87.209
149.69 225.882 114.454
176.294 375.221 67.4353
159.723 200.174 104.893
161.829 192.182 99.3109
115.246 294.524 77.9103
119.979 57.1619 154.797
122.31 249.014 104.682
71.3321 350.288 133.885
172.469 299.419 51.6621
139.596 185.804 146.631
146.168 361.539 102.149
170.422 63.695 223.44
164.167 81.2055 259.677
135.215 241.53 187.671
166.551 393.496 87.694
80.5928 207.723 71.4683
128.26 161.778 257.606
42.6158 185.095 62.4517
143.756 391.13 62.277
94.7452 122.622 95.3593
139.949 325.72 39.0491
172.142 144.469 145.954
156.85 66.6047 116.323
174.563 310.447 60.4839
148.635 138.41 128.305
81.9734 184.453 62.5167
133.881 191.519 139.377
157.832 122.501 148.651
133.039 308.738 45.2349
157.514 189.618 260.608
121.492 81.2329 122.104
127.172 210.15 203.889
149.762 235.617 165.535
149.488 208.4 257.24
172.245 98.68 124.375
147.054 75.3079 191.451
161.94 390.589 104.967
112.42 52.0529 137.905
164.937 229.816 137.224
141.361 100.039 131.629
125.647 71.8976 164.617
83.5916 122.636 46.4493
169.041 201.956 237.547
91.4734 273.076 182.225
174.151 87.7772 138.85
64.2253 173.116 51.0577
148.828 265.505 55.1734
163.838 57.7091 155.159
107.078 296.639 84.6121
121.955 251.375 190.01
169.623 374.68 41.6996
147.623 194.783 201.91
140.512 330.899 97.3594
158.807 116.14 175.925
172.193 91.6857 156.118
170.677 127.799 91.1318
139.48 98.716 77.479
133.619 128.53 270.037
156.451 38.6954 191.04
157.139 109.361 185.573
99.8433 260.669 149.836
97.7168 274.311 118.254
143.203 70.5637 214.544
154.533 122.33 209.733
172.501 103.096 165.475
131.137 186.978 292.919
146.187 179.001 87.8218
99.7442 178.016 69.9002
139.761 406.747 97.0968
159 168.966 90.5424
119.798 292.956 101.26
104.298 399.449 92.7872
129.088 197.797 92.2918
167.731 304.776 111.882
148.09 35.5237 161.629
83.6343 303.085 121.142
143.707 185.31 88.1733
171.597 210.5 126.206
148.927 314.794 24.1976
45.9317 303.951 122.694
154.977 224.159 225.497
159.853 307.839 38.235
122.567 244.917 248.265
156.851 85.3102 269.585
127.515 203.231 278.646
160.944 138.198 158.918
126.723 338.834 84.3685
139.857 240.718 195.753
132.522 161.746 299.791
102.846 118.248 96.3181
172.788 350.743 116.041
137.959 148.11 299.214
149.46 88.646 187.576
97.5025 279.393 71.6704
141.599 146.733 240.844
69.9883 141.996 45.9194
157.922 180.034 270.029
139.086 172.277 122.288
144.69 319.229 25.7198
138.712 200.849 210.823
77.1743 152.458 52.5312
103.588 250.006 123.889
113.751 276.124 39.928
173.241 132.014 104.553
118.511 250.585 159.787
171.828 82.1973 161.992
138.882 71.497 92.2801
138.614 389.178 107.498
113.59 283.563 49.4551
88.6586 276.931 73.4183
148.24 406.755 77.1097
80.8783 270.558 148.848
161.659 225.747 185.14
172.267 147.514 120.558
122.745 198.892 90.6385
140.582 202.856 204.613
117.232 142.424 66.0329
168.041 166.704 95.7704
102.961 246.346 249.156
150.437 104.059 283.511
149.016 167.18 215.097
171.251 163.258 258.196
86.7998 91.3792 65.3576
112.501 208.685 278.512
169.943 200.447 231.183
88.9967 251.95 57.7008
153.81 101.496 235.98
117.828 207.625 131.873
173.589 326.592 64.9691
110.923 279.222 61.9242
155.628 185.567 198.259
111.012 369.886 114.687
172.411 108.792 198.887
159.67 74.8331 258.991
146.578 66.6766 238.308
139.525 385.521 67.4526
150.697 181.206 206.785
175.512 124.652 214.471
126.569 241.94 124.198
122.492 154.558 290.751
123.474 223.451 102.097
128.643 137.517 284.101
106.097 254.768 138.849
168.497 53.4515 176.743
155.119 51.9121 225.391
141.317 83.762 165.114
113.621 119.905 98.762
163.234 340.304 30.2306
64.6209 324.66 135.237
125.297 112.953 109.436
139.072 117.611 288.848
176.184 382.508 71.7163
144.435 76.0858 232.547
111.747 228.852 264.268
113.064 170.737 98.6756
147.859 168.491 83.6188
150.913 188.313 91.6551
124.313 330.036 83.9018
77.3788 228.945 84.5941
88.2024 262.729 65.7144
153.888 54.2091 139.593
166.911 223.688 169.799
123.301 74.0887 76.7036
142.354 194.352 277.185
164.034 83.8112 109.076
161.518 379.854 110.69
163.315 210.928 222.699
151.902 292.722 27.8228
159.229 398.116 88.3085
135.93 393.51 70.8038
141.177 129.052 262.908
157.183 123.981 137.226
114.72 252.139 151.464
125.96 299.714 46.9236
147.992 105.456 80.3492
122.042 241.119 70.2102
109.957 207.744 92.5536
172.593 180.78 178.937
76.331 332.546 132.691
162.235 309.9 30.5991
138.42 235.965 235.416
168.255 208.77 215.736
173.263 167.066 137.761
134.81 379.63 104.863
146.545 255.259 60.5642
103.058 224.61 211.663
174.008 117.079 167.47
95.8725 149.41 54.649
155.668 233.896 170.207
94.6882 62.5448 98.4421
70.2936 255.528 185.092
116.582 72.3886 75.959
121.211 159.943 100.39
108.792 141.79 93.8328
130.253 360.98 102.264
140.94 365.516 64.93
110.468 288.628 70.7333
175.46 348.954 106.842
131.949 271.22 103.99
167.975 75.0978 124.859
62.9733 218.606 115.831
119.376 67.2407 141.554
103.573 150.239 60.7654
118.55 124.294 103.232
113.718 153.439 69.6157
93.4738 253.169 127.483
97.0162 158.23 59.7477
165.081 221.876 180.574
157.373 124.073 178.946
114.488 41.4037 138.116
174.908 359.143 40.9982
136.967 41.2039 128.278
127.005 380.762 81.8586
169.404 390.259 80.6358
130.399 153.957 76.1355
122.45 365.863 105.521
128.108 158.877 103.585
110.315 81.7803 72.098
90.8758 242.354 113.184
161.797 183.851 264.986
130.967 303.975 95.7804
149.641 129.707 237.736
129.505 212.367 197.169
138.595 40.8822 203.2
169.511 193.607 118.382
117.036 191.464 250.41
123.75 254.758 211.583
136.137 330.693 78.6151
168.196 55.3745 166.133
79.452 219.292 117.591
68.0259 284.921 127.725
124.607 170.328 85.8126
81.0423 107.203 52.879
134.624 332.716 68.8166
132.73 96.7421 118.505
135.084 106.942 118.233
146.329 261.722 60.6314
67.2716 265.438 73.8011
168.532 120.558 208.643
110.594 215.947 241.031
107.743 44.583 114.791
140.667 189.57 228.14
131.382 389.477 74.8245
129.738 53.0688 191.85
144.841 381.889 105.971
116.163 244.081 251.836
151.387 170.65 223.536
89.314 336.067 125.779
89.3079 293.033 119.738
135.734 34.3854 147.716
85.1869 103.564 59.48
112.687 314.16 90.2332
118.407 220.022 143.015
125.828 41.2119 164.521
45.8698 177.032 67.2514
102.743 180.466 76.8586
139.421 358.355 100.857
123.192 39.1907 121.385
153.985 161.508 152.537
123.163 216.351 206.489
158.472 112.098 161.166
128.588 75.8494 160.128
74.7185 258.135 215.06
98.5336 251.929 242.631
81.7973 245.707 202.971
140.775 277.297 27.8292
156.747 100.556 181.057
116.346 217.876 212.966
94.4342 329.177 102.063
103.625 60.6595 83.7503
93.8095 266.717 120.522
108.552 223.075 205.796
96.0655 284.154 116.933
142.516 164.588 124.582
141.762 183.725 140.932
129.317 57.2405 180.161
174.927 202.703 127.227
130.127 46.2763 185.181
151.444 107.268 142.145
131.665 342.813 97.3598
95.856 382.366 121.472
112.342 214.766 94.5091
158.645 143.19 81.4387
139.494 242.151 137.222
121.503 246.617 152.595
164.906 124.431 86.0386
159.115 368.476 36.7488
137.737 55.3615 106.429
142.375 248.411 91.4573
150.3 163.92 229.266
172.781 194.083 140.897
155.667 176.66 156.595
90.1053 111.938 49.0945
135.607 244.818 73.4771
117.057 257.01 38.7952
129.818 190.891 281.135
120.036 298.709 62.3233
158.611 119.242 158.722
110.019 177.835 288.514
146.416 147.979 122.705
143.887 271.696 103.122
68.7836 126.227 70.557
112.256 175.834 273.926
88.625 192.526 68.4171
78.1183 146.442 47.9964
134.161 74.1518 85.4563
131.686 130.649 110.353
168.634 299.621 44.1981
144.288 371.971 63.1015
88.2945 243.325 173.022
98.8814 223.561 96.3486
154.224 39.2902 166.799
174.446 309.809 97.7774
156.832 106.435 191.706
157.856 104.06 225.192
130.138 329.121 73.1899
45.0817 198.634 61.3114
108.008 281.257 69.6714
116.316 213.977 137.816
169.746 181.661 202.348
157.614 159.306 182.688
103.769 171.38 71.8087
63.7594 125.08 57.5358
138.909 35.219 140.979
135.486 206.202 159.679
134.678 336.92 100.264
137.214 221.441 255.066
111.832 193.271 288.793
172.353 169.763 108.426
105.999 138.59 58.9106
139.231 157.751 236.439
122.671 147.773 278.176
137.524 202.552 277.796
137.407 80.8748 159.66
83.1291 175.956 56.5675
141.856 44.1711 214.706
137.775 206.451 184.171
107.568 238.869 254.806
134.448 79.9815 166.225
70.4128 228.625 79.8808
78.2937 95.0282 76.7276
106.246 124.173 94.9837
88.6653 80.1773 74.9001
152.459 147.135 204.739
133.87 247.378 101.151
130.86 76.5798 147.028
144.627 103.4 261.624
119.435 356.434 106.74
85.5345 95.1945 96.3217
147.684 159.119 289.289
175.507 297.523 66.4688
96.962 263.782 61.9042
155.203 123.807 222.089
120.221 50.6693 97.9235
125.153 368.159 86.4839
134.094 211.01 179.241
121.049 247.987 143.685
109.482 199.943 120.145
151.648 188.384 204.964
100.896 216.007 94.7434
135.945 136.277 269.751
156.704 133.446 208.867
101.61 193.437 278.582
131.485 308.158 66.9632
97.1286 318.2 118.962
131.334 142.45 108.708
159.136 400.438 81.5177
129.634 306.391 51.8723
146.013 358.885 58.9303
66.5695 272.744 149.807
172.743 96.9446 148.873
137.081 296.824 28.4047
90.6511 270.925 68.0916
144.916 377.678 59.1006
168.814 184.2 254.595
79.9508 251.296 209.549
159.162 173.397 266.553
134.748 139.47 113.116
125.562 210.243 161.57
141.81 49.9548 123.255
85.6311 228.495 87.4861
158.454 136.674 146.9
69.6019 120.404 53.5284
106.647 256.8 150.782
175.568 359.876 105.883
124.525 175 258.911
140.973 64.8656 101.925
57.7481 220.42 71.0465
158.573 110.569 172.378
92.1422 212.365 82.737
131.993 238.561 240.219
125.36 72.3709 150.434
120.828 212.211 215.694
159.258 143.348 171.957
83.8931 322.334 128.072
122.9 64.5635 162.024
88.8805 318.189 125.559
111.722 197.809 248.069
173.787 203.575 195.822
112.618 216.942 273.994
133.666 243.814 151.712
153.1 41.8831 151.368
56.6385 213.875 69.8463
108.835 286.4 79.5454
127.125 33.6446 149.584
63.4896 239.547 144.974
141.724 163.257 80.9342
173.878 346.148 48.687
60.4448 228.651 77.0468
74.3317 102.999 82.0151
137.428 402.852 71.1858
94.2117 192.425 72.3604
141.382 408.859 87.5652
152.517 232.178 196.646
156.159 79.4829 107.237
157.018 173.366 181.326
82.4307 190.21 68.3311
167.863 224.906 159.302
157.654 135.048 182.298
138.104 182.542 291.921
123.293 190.039 247.344
100.411 234.572 172.058
119.698 197.768 282.818
37.0348 195.594 75.983
139.595 248.634 81.7499
138.363 130.781 106.697
172.334 205.299 136.082
149.958 271.374 48.4233
132.604 68.5277 178.379
110.403 194.569 88.2804
140.948 378.57 66.9645
108.596 328.148 111.948
114.829 186.902 258.382
98.2815 255.788 144.006
135.032 210.755 167.375
157.025 121.692 201.47
97.9966 135.052 52.1882
121.847 325.793 103.931
153.323 153.098 290.176
154.395 171.396 151.423
153.492 399.327 61.4997
75.4456 274.801 155.224
157.128 115.736 212.399
167.681 285.442 85.2469
123.658 142.281 286.745
119.959 331.65 87.5114
159.653 163.313 163.63
144.598 87.8096 168.953
103.019 287.576 111.988
67.1317 256.184 80.9397
145.479 191.666 216.109
157.383 222.958 238.749
168.46 189.134 211.517
147.293 341.232 45.494
125.983 375.731 107.176
132.254 48.9632 110.297
158.477 119.462 188.381
128.559 307.63 73.1436
58.8337 315.113 135.333
112.909 379.593 89.1492
129.744 108.545 67.8519
82.066 155.019 47.9648
123.704 227.897 260.826
160.885 396.446 97.1714
50.2555 313.406 129.708
53.4085 183.296 53.4433
59.0966 306.621 133.061
96.6766 87.4557 61.9931
155.096 289.597 106.077
148.35 110.214 261.622
151.394 117.352 289.651
79.2419 256.646 107.721
65.1684 275.029 172.29
132.962 31.6968 155.42
147.134 110.278 255.452
144.575 279.765 101.894
156.562 89.9567 100.39
101.797 227.528 147.572
101.923 238.724 86.7158
106.151 349.455 115.105
116.751 291.545 69.8289
125.32 166.599 296.121
143.499 201.454 264.068
67.6643 128.305 79.527
145.785 295.815 99.4951
65.9466 354.613 132.104
75.1591 201.365 65.8392
80.0984 230.796 138.651
146.981 236.987 194.51
105.899 264.482 193.888
156.87 108.626 146.138
137.155 85.5734 154.209
160.482 376.773 41.2071
128.988 251.456 52.3856
76.9914 262.101 67.4939
107.171 275.208 49.0744
174.365 124.922 193.646
112.38 254.944 233.67
112.459 90.6935 63.2304
133.487 69.5237 119.148
99.3904 107.608 51.6013
117.304 67.3168 116.502
146.527 404.359 69.3323
105.474 228.011 265.728
69.7945 200.057 61.9941
139.096 209.137 265.924
172.318 123.492 135.084
98.8806 158.954 67.3692
127.458 149.209 101.334
127.052 196.554 139.963
121.316 35.8811 131.509
154.927 163.724 80.1268
99.8605 172.921 91.2857
173.03 95.6701 200.396
114.8 49.3326 145.979
122.469 64.3204 154.432
168.192 66.3176 240.47
99.2869 198.293 104.556
130.754 137.561 293.036
84.4811 290.118 126.684
136.394 166.094 116.925
137.322 71.147 188.142
153 189.55 192.773
147.01 194.946 158.021
102.755 239.412 192.509
111.563 103.634 105.018
101.137 300.768 113.39
107.634 83.7372 108.284
173.182 152.787 134.145
128.621 122.045 67.2509
51.7738 157.938 61.1867
78.9087 276.508 75.2835
115.878 192.337 117.059
155.332 170.523 276.352
63.2278 343.199 131.725
123.097 338.501 106.539
149.749 173.993 89.9677
92.4482 242.261 83.2489
156.156 98.6495 229.273
62.7647 246.288 159.256
146.246 150.826 223.499
141.233 324.091 56.4151
89.366 245.802 246.166
144.176 143.84 118.46
123.748 75.9913 141.769
153.08 52.3608 128.062
71.5892 129.089 47.2878
172.211 210.421 178.436
142.751 322.347 48.7249
79.0592 268.757 69.7214
86.1026 249.327 235.206
38.6512 317.664 123.535
114.916 56.0693 149.164
117.061 319.349 105.329
92.8327 271.155 204.617
126.275 207.648 149.786
108.339 111.167 102.259
88.4226 89.7119 97.8305
131.426 206.225 95.5578
125.937 182.793 296.673
93.6373 342.958 121.433
126.607 51.2527 168.814
119.159 66.5239 81.8174
135.245 309.906 59.246
99.9034 99.1746 103.325
116.071 227.168 101.81
139.03 402.972 104.61
133.397 204.644 272.58
157.182 281.704 45.1986
140.182 134.308 114.598
50.5687 272.818 92.4773
54.1471 176.589 51.4392
127.771 349.569 79.1015
148.934 237.073 178.676
164.838 189.633 253.153
54.4119 269.435 140.728
155.034 69.6722 256.342
123.286 68.4437 135.343
98.3898 79.2717 67.449
92.1577 149.229 87.702
70.2232 225.828 125.436
120.837 58.1894 90.1961
144.954 76.9004 95.7913
106.051 333.967 97.2172
70.8637 222.794 75.8565
156.62 186.968 93.6707
164.344 17.6505 128.783
87.7124 237.114 211.274
139.45 219.353 266.484
102.813 354.381 117.256
134.154 181.835 92.3229
58.0923 263.185 86.4685
141.6 230.335 257.161
99.8414 268.041 218.081
138.269 153.906 253.616
166.436 161.715 267.293
158.346 113.314 194.663
159.669 298.73 112.496
126.302 245.28 60.9751
155.539 331.27 26.2005
64.6194 231.614 83.3851
87.5246 244.314 213.462
76.7507 125.988 88.4807
127.385 210.359 211.155
146.563 309.062 99.4862
60.6901 271.359 142.723
125.882 221.041 268.614
144.243 248.008 75.228
139.465 182.916 285.227
108.222 366.085 96.1035
129.378 285.373 100.664
118.305 220.056 157.597
100.125 234.19 209.199
93.381 269.032 159.539
158.117 128.325 208.755
136.928 48.171 116.051
146.491 182.492 155.998
105.649 191.222 262.216
134.503 166.687 250.108
134.795 306.819 30.9843
157.632 109.883 179.146
141.497 342.54 100.303
143.22 211.932 254.841
107.205 258.628 115.385
117.891 65.0824 148.483
98.0692 241.436 62.2905
68.1495 152.608 48.7142
115.899 159.624 73.3486
98.1754 66.2719 80.8381
86.3645 121.047 92.6181
54.7666 148.588 60.1238
121.761 123.855 63.6492
132.025 80.4627 152.963
118.07 205.259 285.243
96.1312 100.21 54.1982
99.2779 105.154 97.6932
107.771 151.443 93.5248
121.222 283.54 103.293
124.068 404.446 81.1498
163.368 156.384 164.59
93.3753 204.853 79.1584
93.7572 290.974 84.5832
113.381 163.585 285.72
132.772 33.6223 165.85
135.506 257.688 47.9377
109.03 254.176 160.598
97.6626 206.283 270.567
130.062 170.791 299.736
146.823 74.6835 224.459
123.174 408.267 100.93
111.392 50.9806 121.931
135.789 379.995 76.6209
111.812 248.885 109.299
74.1428 233.999 142.682
174.321 188.635 203.94
107.112 46.9519 101.948
175.986 302.131 71.8055
66.5832 232.964 131.93
48.4127 288.712 118.957
161.907 152.009 242.759
66.6866 216.239 77.4737
155.945 143.496 186.868
144.682 199.212 271.922
151.733 142.052 285.375
113.85 235.674 256.023
150.142 234.745 187.136
82.3635 338.671 128.754
76.2523 163.28 55.6695
98.6662 269.851 57.7546
165.653 179.135 264.615
119.089 242.212 83.5903
78.3446 274.363 194.098
155.456 111.848 151.735
127.393 51.2225 187.494
89.4107 74.2019 84.1695
137.828 196.751 282.325
76.0498 344.772 132.456
168.846 178.139 258.907
105.153 262.547 186.381
155.496 230.312 178.516
171.247 102.382 252.544
126.395 263.768 33.9632
147.94 231.371 124.403
88.2718 106.643 50.4882
81.876 268.787 123.311
86.5203 279.144 124.604
129.757 45.039 114.529
127.251 404.374 107.816
110.684 258.904 176.976
125.404 216.09 199.841
117.322 73.3201 126.688
53.9671 297.591 130.312
67.2407 307.286 135.65
126.781 131.097 108.134
123.721 247.785 236.674
99.9189 136.18 91.6915
112.511 246.484 49.062
157.435 118.155 181.881
95.4277 266.861 225.281
55.3774 345.014 132.265
46.816 181.966 56.4017
141.222 110.361 74.552
73.7022 169.278 49.8184
171.333 347.111 34.2076
105.916 239.993 65.3306
165.62 211.895 231.588
140.271 137.884 257.267
166.529 312.821 116.585
129.778 135.044 273.467
68.6152 340.221 135.139
149.016 77.4669 264.331
141.583 298.983 23.9822
55.8203 267.646 170.259
166.79 9.35395 147.972
153.776 118.311 228.284
38.9102 191.354 66.5817
138.18 146.142 112.45
111.636 45.3262 131.527
89.555 273.246 122.163
106.31 243.661 103.886
74.642 183.997 60.8788
115.326 44.1761 106.036
120.696 215.754 153.517
132.987 233.589 248.726
96.6774 245.086 248.31
106.027 195.392 78.6372
109.122 195.984 254.117
127.491 211.65 175.856
120.852 382.035 87.724
77.5267 250.661 195.222
100.102 327.141 117.23
73.351 271.851 202.281
129.001 176.882 251.28
135.608 180.565 131.959
159.773 135.742 81.4986
99.0851 241.78 94.2302
96.4479 237.467 178.947
69.3097 262.33 129.333
110.624 175.314 281.982
69.7852 187.505 89.87
139.424 157.401 77.9897
131.962 34.6054 136.456
83.9271 188.186 92.5202
100.892 244.858 52.7765
124.054 220.697 167.75
126.134 69.8485 156.312
127.052 141.647 271.783
103.665 389.948 119.17
77.5174 255.102 223.34
78.1563 284.723 125.577
134.935 249.121 91.3545
134.316 249.549 59.3717
97.5236 226.258 137.494
85.8273 229.071 129.072
113.884 175.388 265.722
151.513 136.233 218.942
170.407 118.699 152.638
109.86 285.647 63.0684
92.1707 305.98 116.086
116.121 200.08 242.477
71.5907 232.924 88.3589
102.572 258.305 235.563
138.404 301.403 95.7724
141.99 129.836 294.018
155.352 389.46 108.366
103.347 89.193 101.276
105.041 378.224 92.8308
158.997 111.177 222.552
118.84 372.123 90.7368
131.582 170.17 255.326
109.376 220.11 218.572
148.863 134.282 243.712
59.9208 142.614 61.7368
115.496 402.014 84.1812
122.545 187.175 119.636
78.5124 95.0053 88.4893
111.533 241.752 98.8081
172.136 353.286 32.4432
131.782 57.5243 102.148
93.3338 258.002 237.435
88.4854 69.8115 90.6945
115.914 340.266 107.745
114.912 249.477 243.342
110.758 183.398 78.1033
101.618 213.704 119.877
70.2068 115.173 66.138
155.31 268.877 105.204
102.4 159.718 90.8452
60.9387 133.555 62.037
127.065 125.232 108.121
151.15 223.266 244.428
157.58 175.678 175.814
134.298 284.058 23.6606
55.7768 282.487 113.581
135.017 202.734 216.294
134.241 203.228 153.048
144.948 183.027 277.373
168.215 156.705 264.159
77.1915 130.825 84.993
52.9519 326.26 132.875
91.291 105.998 98.9775
79.9058 273.333 205.957
165.378 341.13 117.311
105.279 201.819 277.869
76.3573 192.657 61.6661
88.1794 263.84 230.446
137.744 407.685 77.3344
105.241 231.206 197.91
105.712 79.1738 67.2244
121.736 77.7082 115.764
164.608 332.29 115.657
157.516 128.374 182.823
103.715 60.3928 113.493
112.268 189.62 104.505
82.4632 372.963 126.359
138.45 355.038 67.4328
105.773 220.839 268.053
85.6934 222.287 120.404
170.461 182.413 187.785
100.251 236.084 156.456
156.497 353.716 31.2244
143.854 323.614 96.6506
100.689 200.56 78.292
109.035 380.751 115.187
46.2811 205.257 63.1809
105.321 349.673 101.072
125.238 162.057 77.4249
135.781 64.8312 201.144
84.3298 388.161 116.918
94.2068 394.103 96.5049
118.619 83.5298 114.196
111.309 241.074 71.913
175.151 119.875 203.398
78.8662 290.137 83.8658
154.888 3.30083 128.015
109.934 242.658 57.21
102.087 210.617 275.124
104.99 313.876 110.376
40.783 209.488 69.9851
118.216 110.232 106.013
106.593 406.558 95.5338
83.9203 359.605 126.2
171.558 117.334 162.215
111.431 360.922 112.299
119.065 116.57 106.149
116.716 326.486 90.1249
106.883 391.222 89.7584
120.839 195.528 244.241
106.011 204.593 112.2
153.341 62.3641 249.487
77.6781 325.867 131.403
90.3774 286.122 120.991
107.119 259.559 39.2918
96.3063 385.765 93.1061
88.076 257.426 130.524
110.999 61.8633 113.682
82.1115 252.105 62.5268
111.57 234.095 106.399
94.8391 143.176 90.4201
38.8232 200.553 83.4799
33.5688 209.856 82.4091
103.977 335.424 113.988
160.464 124.919 159.193
174.787 156.648 138.083
113.877 387.381 87.176
115.984 184.236 293.092
105.834 71.0973 109.481
135.898 164.832 243.55
115.833 265.264 33.3904
102.718 231.718 190.372
98.9484 278.043 65.6199
154.053 211.809 259.008
112.345 234.204 232.585
100.068 244.235 101.348
116.574 408.568 111.4
119.855 181.344 260.199
125.351 313.617 84.5255
75.993 250.516 94.876
108.016 251.304 245.849
67.2281 274.142 184.984
49.5755 340.792 128.989
90.6146 259.034 58.8406
121.615 214.298 173.642
96.9513 280.561 80.7566
43.9423 261.447 131.73
88.0074 202.492 104.532
108.882 238.141 79.5897
132.717 312.94 96.0462
164.64 359.749 31.5187
61.0817 334.236 137.96
95.7996 371.689 123.554
104.089 203.057 248.011
86.0764 321.739 101.531
106.279 279.319 54.3937
130.809 271.499 29.3188
170.677 173.582 188.496
70.03 110.334 81.4596
53.0703 261.645 168.138
78.9534 113.794 90.328
84.1389 232.831 92.6329
133.009 176.869 85.0941
84.4698 268.873 218.176
91.8251 367.096 123.223
82.7129 366.787 123.204
61.7039 143.515 72.4362
80.3419 258.051 129.634
115.581 164.876 274.939
95.717 230.973 147.966
92.8887 232.265 215.962
98.5799 230.115 257.447
118.457 149.899 286.987
103.184 302.387 90.2007
135.996 174.797 234.628
142.689 308.471 29.6966
94.813 297.815 116.195
110.546 355.569 97.241
119.048 251.391 237.795
111.865 297.625 104.864
137.283 288.629 21.7806
96.6133 230.523 99.92
100.047 310.804 114.608
90.9523 282.318 78.5051
102.774 201.314 258.767
140.9 220.359 258.64
160.927 125.346 250.328
173.643 384.732 56.8181
80.3876 241.977 156.453
117.486 267.527 110.635
88.0287 258.795 117.616
146.323 305.331 21.1502
169.258 192.824 190.459
123.815 53.1557 175.428
89.7595 73.0305 96.9205
163.539 161.137 167.078
137.688 248.882 65.0532
102.496 291.89 83.6245
92.5953 233.328 106.755
110.959 390.748 115.781
102.61 266.217 116.17
103.379 250.834 111.341
154.901 119.219 234.559
127.339 156.754 294.142
145.023 131.909 250.895
78.2008 101.164 89.2095
102.569 288.578 76.6355
84.2751 245.108 95.1426
171.041 318.765 38.7325
111.776 78.5188 113.022
84.542 240.628 150.854
118.742 145.852 96.3541
95.296 205.046 106.645
76.8749 363.17 128.356
55.9799 334.786 133.367
113.919 167.135 279.752
107.534 406.841 104.664
160.737 14.4704 133.108
153.065 306.234 31.2473
134.142 195.144 233.244
80.5888 251.687 100.908
87.2229 377.783 124.439
110.25 169.97 72.0914
67.8304 163.18 51.65
73.857 175.337 54.6812
99.5152 339.211 118.225
148.528 88.1436 272.477
88.7031 358.208 124.232
170.037 307.098 44.9829
137.68 64.429 210.143
50.4489 261.5 157.796
92.2282 64.0091 86.6951
81.0247 240.881 215.952
138.95 255.515 104.721
94.7058 399.698 102.671
101.221 147.793 87.7724
58.3647 353.153 131.693
140.297 90.5445 152.992
83.7031 332.081 125.565
42.993 327.593 126.47
82.1903 243.101 76.2383
107.672 195.859 107.054
95.0914 330.448 116.878
111.111 70.6986 115.418
145.552 259.667 104.356
159.726 222.158 204.143
57.0733 164.762 52.9369
86.6533 263.052 223.066
81.3671 244.395 67.8239
90.6766 241.73 66.1668
137.84 276.338 101.498
51.9643 165.412 66.0973
99.8264 217.751 270.399
64.0502 134.412 73.5497
65.0723 288.414 81.6875
108.464 320.209 110.105
121.049 155.338 279.359
74.7413 271.094 146.841
173.021 148.496 207.384
68.8032 249.367 167.739
138.415 182.47 239.496
123.619 76.5651 130.286
78.0672 248.857 169.972
103.448 259.942 227.876
68.7983 269.276 139.408
124.854 377.503 87.7688
107.301 199.23 284.348
148.574 249.34 78.6422
81.2947 200.243 67.6248
163.919 318.051 37.4378
69.5643 333.759 135.659
122.557 323.535 89.1997
95.6145 271.524 62.7319
138.628 73.3895 119.833
61.8406 260.004 81.6078
109.463 204.914 243.801
108.123 187.638 275.094
124.622 374.512 84.8075
107.248 56.8307 119.903
77.3758 160.869 49.232
74.6453 248.329 88.067
173.892 321.471 58.0577
62.1453 256.46 174.693
90.3172 326.201 124.644
74.5796 275.96 125.367
74.5991 373.238 126.737
117.846 254.349 194.448
83.2758 75.9316 84.7233
138.325 346.217 73.1511
83.1705 304.598 96.5725
81.1596 106.305 91.991
65.2073 282.315 77.1041
102.391 326.702 98.355
105.092 189.076 284.501
106.595 52.645 95.4029
95.0502 146.665 59.9735
108.747 250.472 44.0921
70.4771 259.672 208.727
162.035 213.633 170.938
79.2142 383.082 123.02
158.056 49.6532 141.827
143 231.28 118.35
82.7381 245.272 191.549
99.2394 59.1924 90.1806
122.434 156.104 272.324
136.631 195.131 153.277
112.369 213.846 223.494
96.7271 87.2313 100.858
64.5043 160.359 46.6026
56.9429 173.258 79.1306
87.7332 163.977 85.8516
52.5463 227.539 121.322
120.322 381.521 109.443
85.348 291.589 89.9602
147.441 335.541 97.7377
98.6162 310.537 94.822
149.084 403.015 99.0923
108.77 326.902 94.1559
57.4999 146.588 53.951
119.184 168.176 269.093
145.663 158.915 220.19
89.497 171.114 86.33
77.0384 263.312 220.369
168.416 314.4 50.0025
131.027 257.348 107.033
172.407 362.183 54.4994
94.4538 221.831 259.415
51.7818 289.963 124.524
57.1634 234.597 85.5072
118.562 207.209 263.183
120.697 45.462 163.154
84.1451 149.15 87.0661
160.172 146.313 159.817
118.406 388.218 113.705
78.903 232.101 91.1123
120.654 395.947 81.1117
96.1205 238.759 75.0947
55.0465 269.536 155.953
96.0007 95.7225 99.3376
148.996 80.8953 253.757
93.9708 250.168 108.34
153.918 91.8678 197.006
136.916 84.5531 108.64
69.4848 276.806 73.4797
96.7994 294.994 91.7794
69.3161 294.775 85.3686
85.6538 239.611 242.416
92.6752 247.175 102.062
60.1478 150.336 71.4613
132.949 192.03 239.763
153.265 397.896 102.173
122.185 250.665 230.795
96.0418 157.701 88.7521
130.058 89.1272 122.392
66.2924 370.481 125.471
87.0112 250.51 122.34
139.501 192.246 236.485
113.498 182.642 268.241
59.8165 160.798 70.0916
172.776 123.35 200.44
73.141 257.939 100.382
62.0825 362.857 128.809
62.26 273.597 75.4484
113.245 235.072 239.291
114.244 408.654 99.4713
99.3052 207.872 252.201
66.951 259.317 151.652
141.761 396.194 108.96
94.7391 113.628 94.6862
97.7618 71.8467 102.841
134.9 344.576 68.2919
153.622 338.965 27.9503
129.133 190.46 133.489
39.166 222.244 79.289
58.2712 159.104 49.2597
73.4767 351.756 127.329
63.3869 257.047 92.9577
111.967 256.046 182.507
85.8049 156.851 84.8029
97.289 169.533 65.1794
74.0629 169.409 82.0401
116.003 65.2611 101.301
52.8184 251.225 158.483
133.684 185.355 127.982
59.4742 287.735 128.417
164.417 332.358 30.5025
68.8639 265.411 115.02
84.2193 392.125 104.116
132.889 66.1034 127.493
38.0857 199.651 67.6113
59.0074 254.042 162.467
119.029 395.04 112.491
102.765 285.47 71.9853
110.98 303.781 105.343
93.7613 342.222 103.555
104.087 399.535 115.231
68.5842 361.139 125.576
47.1288 265.293 128.158
114.225 40.8052 115.685
146.522 391.769 108.03
171.196 87.2469 239.428
98.1452 261.577 159.904
100.685 208.837 243.155
69.9711 260.686 107.618
166.046 119.513 232.784
40.1297 296.616 113.902
82.5309 251.08 184.057
60.6937 271.012 113.902
59.2763 267.718 78.6625
95.723 317.589 100.483
75.2283 256.294 126.345
161.351 138.843 272.77
99.9442 202.612 264.292
101.1 49.2886 102.521
86.5041 236.296 101.741
119.272 221.491 243.272
97.2733 163.335 87.9869
134.709 397.398 109.004
88.7157 81.1141 96.9534
86.139 253.728 110.683
42.5971 184.943 73.7603
65.5322 163.82 77.6394
59.2701 168.808 72.7516
171.488 10.6678 151.448
101.364 224.634 217.636
77.7065 161.609 81.2328
42.4804 312.529 117.477
103.704 375.121 119.755
39.9942 320.009 115.316
140.083 81.5781 114.027
48.7803 171.948 71.6683
66.2871 376.189 119.753
153.087 93.9569 181.996
114.563 261.245 208.601
87.3183 111.358 77.6195
153.031 332.214 114.211
52.3593 227.195 76.251
103.359 217.039 225.788
59.6569 254.263 169.388
91.1121 243.275 96.3965
105.657 300.883 107.988
98.4171 225.178 222.106
44.2312 225.522 76.7871
48.1264 267.567 137.784
