ply
format ascii 1.0
comment Created by Open3D
element vertex 1296
property double x
property double y
property double z
end_header
96.99 73.6277 172.625
115.832 57.5649 113.886
118.254 106.807 172.511
114.354 138.181 157.382
101.592 188.378 209.241
113.931 125.381 108.269
35.3526 262.116 136.218
113.756 176.982 124.66
118.084 111.869 120.751
117.978 81.2627 121.769
93.5705 44.2999 87.2818
112.024 73.1538 98.406
98.9233 132.267 40.0554
110.603 30.4604 134.964
116.015 45.2587 181.922
117.696 77.662 158.367
76.1914 226.069 164.075
92.9566 102.95 71.9634
117.099 63.6956 137.981
118.714 96.5507 180.332
70.7979 240.198 162.442
42.897 255.781 173.137
98.7891 176.289 180.561
60.7166 211.22 52.5043
109.59 168.562 171.359
91.8161 210.578 109.311
92.8837 50.368 172.707
101.322 121.692 70.9851
95.4801 40.1461 95.2728
102.785 98.6378 183.011
117.838 77.6921 107.71
96.909 174.794 152.857
44.0838 259.504 125.417
116.829 97.6018 199.506
111.41 35.1008 126.113
100.839 62.8333 80.6313
72.1744 228.408 204.522
106.611 142.45 89.2722
118.871 64.6272 120.873
62.1707 169.692 215.199
100.132 186.163 80.073
120.385 91.037 107.037
119.9 109.63 145.012
112.98 133.607 232.974
68.1054 76.5892 69.3632
114.386 160.188 154.974
113.718 45.4921 191.267
95.1574 182.561 169.105
73.7376 228.291 75.4066
113.467 37.6599 179.845
60.2594 106.405 51.1696
116.881 106.268 103.736
87.5588 218.438 102.66
100.933 113.531 195.274
118.531 73.7428 165.469
111.299 116.016 103.318
58.6759 97.0283 62.2686
100.039 28.4703 164.745
112.684 140.549 195.393
65.7963 98.1796 43.8561
114.739 35.9952 139.313
118.075 107.376 227.666
55.178 164.36 43.9626
49.7423 249.532 85.3921
113.507 51.1736 200.872
43.1414 238.336 69.3136
109.785 158.449 182.07
119.779 74.545 188.956
106.341 194.715 80.4008
66.8026 173.205 240.905
70.7163 194.412 119.259
115.712 41.7009 161.485
94.9543 184.628 235.891
105.497 114.922 91.3283
93.8173 146.412 53.497
121.507 60.397 197.849
20.8355 247.562 128.578
104.17 26.5489 128.364
84.8508 191.273 53.8519
100.302 190.377 218.559
115.663 120.669 129.513
58.1687 97.7942 51.7023
117.667 101.766 193.855
88.4214 162.387 48.6767
81.9138 55.4584 68.688
98.5973 70.8052 87.431
101.622 172.664 131.257
118.68 102.823 148.547
63.9227 222.495 67.3684
87.6411 189.436 77.247
110.974 139.228 187.911
108.583 126.291 85.889
109.833 167.781 221.506
42.4836 258.802 145.579
44.9614 241.853 200.018
111.75 161.182 214.778
117.064 114.61 229.131
77.0418 157.888 36.7632
70.0287 201.361 139.433
55.476 205.205 165.924
119.75 90.0823 115.238
103.012 143.067 60.7013
115.534 124.211 233.915
72.1097 207.307 149.602
96.1179 134.212 184.797
118.174 92.5972 146.597
87.5071 203.24 71.5391
63.7617 212.853 104.006
80.4838 139.777 31.3668
115.835 142.111 227.385
66.5186 158.747 228.818
109.947 181.415 168.248
82.2784 218.115 194.454
100.92 27.4221 155.829
94.7107 185.947 151.176
111.191 168.776 99.1827
118.021 61.3953 164.45
61.4623 199.023 41.4684
76.3735 168.736 38.5038
82.5536 224.745 100.196
109.923 131.031 92.7891
77.9828 78.9802 60.7082
43.4717 251.672 181.692
116.37 124.534 215.82
115.945 165.527 150.993
111.979 83.6128 93.1744
101.041 106.913 205.184
101.793 181.108 230.76
65.4151 161.152 210.042
118.515 116.374 141.402
117.12 89.8726 200.92
102.454 137.19 45.7303
98.2016 50.7661 163.312
56.7385 121.867 42.8168
109.751 148.856 185.651
80.1316 201.439 101.917
74.7428 177.363 245.62
100.689 205.046 76.3998
113.023 176.196 161.048
112.859 144.094 173.629
94.5007 137.676 46.0756
111.898 192.398 96.0924
118.647 92.398 123.043
116.77 106.413 218.256
112.434 180.658 143.966
97.0315 57.9382 94.5575
113.522 28.6398 146.516
75.8037 200.334 56.0705
102.159 38.1912 100.761
105.317 145.596 75.4129
116.932 129.533 181.209
37.2573 230.767 64.692
103.896 31.3198 173.334
115.882 77.1643 218.386
107.201 165.938 182.87
79.6298 161.784 241.502
119.75 106.942 136.405
94.5909 112.072 215.259
85.31 139.38 39.095
117.45 98.4759 187.128
119.004 74.8188 175.327
98.1906 94.9021 215.756
97.8513 128.664 236.447
82.907 209.29 152.809
100.408 64.5139 189.565
63.1463 183.93 35.9805
103.438 151.532 66.2984
98.5217 67.8875 180.677
32.8575 247.124 181.387
70.5423 217.933 85.8652
108.091 178.168 78.0558
91.3978 204.825 205.813
68.1796 207.631 55.9174
120.228 52.95 176.642
74.3228 190.959 49.3231
113.421 156.068 132.592
85.3261 127.123 221.107
100.992 25.0776 136.832
97.6208 129.988 70.8311
117.553 118.801 149.553
70.5136 39.3196 103.033
103.769 116.289 185.187
97.8614 123.585 46.3274
43.714 190.359 55.3264
114.426 90.0766 93.5151
119.633 94.1024 130.336
88.9589 125.643 151.556
111.363 133.18 78.9245
63.0763 169.333 224.92
76.859 193.139 145.332
100.598 83.5197 86.4164
77.8986 198.7 153.193
87.3832 151.62 185.841
65.9266 247.492 155.553
52.4346 149.836 45.4246
118.091 63.9165 206.801
95.771 217.2 158.353
94.874 73.2901 73.5297
105.68 168.294 230.66
107.591 176.719 179.56
44.5977 255.678 162.487
85.2292 218.363 115.023
86.1221 223.952 138.352
101.61 170.552 66.9533
104.858 50.7082 99.9592
120.355 101.58 158.319
45.2195 253.019 105.585
95.7121 138.199 240.83
100.678 102.348 161.315
84.2369 140.253 156.585
119.847 97.9171 139.832
30.8197 229.268 74.3001
117.848 122.564 156.486
88.8331 172.128 91.8751
115.749 143.948 117.389
98.5735 146.241 70.1759
48.2622 210.351 197.465
75.4691 223.224 213.407
63.1157 127.285 40.3748
118.96 74.0458 143.173
84.8377 155.64 173.183
61.6725 248.439 135.648
110.223 158.16 204.564
72.3349 231.693 191.48
55.0691 111.418 51.67
100.939 191.209 197.823
86.3277 148.284 164.967
66.9164 200.518 127.49
110.797 27.5391 156.865
118.03 54.3155 168.973
58.4233 117.219 73.3278
116.186 80.8451 141.254
44.8205 215.707 199.999
120.291 84.0098 148.325
110 127.949 123.082
107.368 196.921 87.7645
62.5959 164.913 40.4921
112.785 117.895 219.989
63.661 162.476 219.12
86.6423 154.519 42.487
92.0455 222.547 150.491
117.632 34.517 146.911
104.491 124.886 57.5208
114.45 41.9202 131.554
78.4884 219.376 206.878
114.564 123.984 141.646
51.3247 253.353 100.429
105.201 64.6523 214.335
60.2818 184.288 229.961
118.34 83.2098 176.739
105.372 48.0289 198.447
62.7637 170.609 233.264
97.3183 98.5788 84.4855
91.3484 125.028 235.699
82.3551 162.032 40.3419
97.9467 99.9347 227.525
116.987 67.9325 145.25
82.8912 135.112 151.214
60.0178 240.948 202.738
121.216 104.084 110.725
118.302 104.668 182.314
95.9937 74.2255 162.795
72.9095 142.001 29.4165
105.338 176.27 191.15
118.163 106.948 189.303
74.2691 228.528 156.284
69.2685 204.107 101.761
88.9326 169.197 51.5241
97.0799 194.362 210.188
104.035 129.371 50.082
80.7462 224.979 109.969
119.59 76.021 115.115
52.2056 245.105 190.865
67.2623 241.793 178.952
95.8365 115.768 65.522
111.171 106.532 96.032
96.902 108.909 227.283
98.0916 126.657 191.839
94.5732 59.7515 81.0884
41.9304 204.953 68.8638
81.6419 104.461 40.2803
44.4827 231.589 63.9306
115.527 68.3947 216.149
108.592 160.085 107.384
80.9381 164.656 189.538
104.975 131.516 62.8711
117.284 64.8642 153.716
108.13 162.577 71.7424
78.9337 181.435 53.2411
58.7341 235.304 211.923
103.915 180.857 167.683
78.8306 176.909 178.943
102.174 168.825 95.3396
44.7622 197.393 45.2579
108.231 28.3729 165.442
43.684 248.417 190.637
118.247 86.465 158.528
87.4651 147.156 39.7001
102.978 69.8981 202.587
40.454 201.823 122.08
96.3007 26.4906 145.32
118.758 78.4334 209.549
95.2019 62.7744 171.462
115.274 126.421 164.58
120.395 57.7003 131.954
86.0737 137.372 227.163
113.557 135.327 176.065
104.459 164.305 237.305
101.49 196.743 105.878
93.9593 200.087 188.768
86.542 180.321 65.7011
115.576 130.23 155.66
85.3162 205.268 208.936
116.329 95.7534 215.435
120.918 91.5099 169.402
117.296 89.6092 139.037
72.0088 198.627 48.552
66.6294 214.452 139.63
74.2436 108.786 40.1664
62.9717 246.405 184.106
90.9144 170.505 130.198
84.9206 28.5756 107.775
53.9105 213.317 49.1706
105.397 175.597 156.607
74.9296 151.462 96.7065
62.2192 191.874 37.1113
56.6376 234.935 73.0233
54.3805 254.092 143.92
106.974 146.622 101.638
49.9959 202.697 40.3156
84.0727 158.354 187.805
118.866 112.321 212.758
77.568 232.169 171.049
93.0666 202.678 114.194
111.763 64.242 213.502
51.4663 217.754 225.152
81.4525 164.147 169.897
112.647 31.5432 169.876
65.3289 205.879 86.7463
83.4669 226.865 125.805
50.336 238.053 73.519
106.977 25.6996 148.787
110.313 137.919 144.58
114.895 33.6871 163.524
107.74 77.0793 150.551
65.8521 233.34 120.011
90.0251 156.183 245.93
111.461 149.058 81.7209
100.617 158.948 64.4655
118.926 71.0058 181.868
71.2792 222.883 223.489
85.9988 220.953 167.578
56.0695 202.01 215.127
116.885 50.0717 134.85
69.8207 207.207 130.764
115.468 120.423 205.722
66.583 231.728 103.239
32.8864 260.56 123.037
73.0755 192.76 78.5512
57.2698 254.076 167.228
105.416 199.477 94.79
84.9527 212.31 219.143
36.5935 207.56 61.7258
43.961 222.596 55.6893
80.4317 232.943 112.912
118.156 71.3709 210.02
109.384 167.311 207.503
97.3029 203.51 66.563
60.2191 154.403 36.4651
66.7751 214.881 59.2439
110.319 128.403 238.914
95.6782 46.9554 181.199
102.759 100.472 200.235
117.543 43.9343 152.702
117.6 92.6066 207.976
58.4007 127.096 72.5367
92.8109 209.255 165.51
109.219 136.754 118.351
89.6886 145.646 174.204
63.634 213.519 94.4544
90.6074 139.813 41.2918
73.2378 102.251 39.4694
119.668 51.8321 184.763
109.495 151.921 230.294
63.2322 224.541 133.211
88.2806 196.873 233.216
67.7784 220.185 115.181
98.6404 37.275 178.302
90.3932 167.528 98.9291
90.6275 33.9625 162.549
117.3 52.9714 150.424
106.25 163.479 147.692
83.2897 210.835 176.869
120.443 112.677 163.788
64.2183 205.539 113.839
88.4704 129.794 198.6
38.1512 221.972 61.1295
117.172 96.23 224.962
89.8296 193.783 60.5475
88.1958 198.836 212.12
101.339 119.018 237.408
92.0096 202.58 197.57
85.4389 35.6268 152.065
118.149 66.0553 109.689
66.9487 175.851 34.3235
94.1467 27.5733 123.686
117.734 43.8188 172.241
48.4752 226.565 57.1992
117.959 59.3559 126.178
59.5258 108.404 63.7636
68.2572 138.326 43.3603
100.446 191.398 69.2416
77.2736 220.879 173.583
97.8429 29.9048 129.631
24.796 256.126 120.233
47.801 237.516 210.969
70.3776 64.0813 71.3018
108.991 191.594 122.362
50.0771 256.677 167.4
87.7613 207.608 198.034
66.179 235.132 205.268
106.738 177.515 216.801
40.1725 207.954 53.5539
95.7842 172.37 64.2785
73.8131 194.389 130.896
69.2369 238.48 188.48
35.4594 253.571 92.7061
116.979 59.9824 192.246
91.7388 136.203 162.814
53.9826 251.387 138.311
92.7221 68.2511 188.511
76.3187 186.63 245.15
94.7306 35.9521 154.023
114.542 170.104 110.366
118.037 114.892 182.891
96.8787 184.932 65.5787
98.1567 114.074 232.946
92.4188 158.051 60.3046
50.0817 219.491 50.7842
37.2632 239.387 196.703
68.9677 240.645 139.887
95.8416 139.368 37.2217
77.7437 40.7252 141.698
78.0231 97.0582 48.6246
93.5093 155.576 51.8378
100.274 102.49 88.8549
102.456 90.9524 174.969
111.98 163.449 225.996
114.276 140.033 208.743
37.7797 232.454 198.34
68.8257 65.8273 81.7806
63.9906 247.953 176.646
63.6015 242.798 190.873
56.1587 191.072 143.165
51.2352 175.288 43.9924
35.8962 234.059 190.096
99.8302 53.8687 170.78
119.64 89.1008 188.54
113.246 151.044 221.099
35.2518 242.682 188.653
106.194 45.6336 113.335
74.9383 217.092 105.537
55.3978 242.891 93.1138
63.6056 205.612 236.342
62.5928 213.111 234.648
78.0167 37.6985 126.018
60.2212 247.946 128.592
111.936 169.241 144.457
104.647 147.617 242.749
106.852 78.5363 90.8672
95.2576 28.5918 151.939
39.9511 234.503 205.906
88.7992 120.869 223.897
64.0738 230.869 74.9735
114.438 133.329 145.133
115.005 96.3493 167.331
92.8193 140.178 176.186
84.284 80.9549 143.825
88.8538 190.231 235.752
117.377 155.983 97.742
82.324 132.068 212.703
94.6312 33.4741 101.814
81.3506 148.758 229.206
81.5024 76.2202 210.086
82.7676 174.374 56.4331
29.3677 257.843 114.374
106.098 174.197 211.483
106.059 70.4112 91.1647
117.978 133.121 60.7707
43.0507 230.432 212.434
46.8303 217.011 190.714
115.66 184.674 101.003
116.963 132.707 163.772
103.215 57.4398 207.129
48.1102 260.525 153.941
45.3201 256.997 114.003
79.4897 215.712 212.174
98.1337 164.371 131.749
85.8096 122.05 144.238
85.8005 214.289 134.424
87.2249 207.492 224.903
29.8079 259.352 130
111.415 144.292 237.601
75.0502 221.911 89.4236
24.9861 252.859 109.206
86.3796 91.687 133.511
87.1044 166.295 108.587
120.144 78.0412 131.455
117.039 119.716 188.48
96.4905 146.853 243.215
78.3117 29.6331 119.154
73.7965 217.751 153.625
100.686 160.03 244.299
95.6487 192.085 82.0807
63.7609 188.409 239.364
111.131 49.8102 116.618
77.6237 232.376 96.7427
91.0232 202.997 172.07
113.608 133.883 223.988
73.4503 146.508 230.786
52.5471 157.603 51.7851
97.6397 163.602 119.276
90.6291 100.328 150.316
105.547 137.934 79.1278
75.8781 185.251 172.634
57.2283 209.253 181.639
60.4798 105.862 71.4234
89.9726 28.0575 141.226
56.2408 180.32 34.7405
101.71 44.8892 93.0986
59.7405 188.079 213.53
85.9508 199.485 59.7673
87.9963 211.067 126.73
35.7629 252.852 175.508
108.581 137.958 240.579
87.1138 164.146 177.125
59.4583 228.099 69.8779
111.746 129.681 185.618
118.326 109.02 127.19
78.8446 147.794 239.088
80.647 230.166 132.645
109.954 59.0066 102.155
96.6379 38.065 168.303
52.2714 250.651 185.601
88.4635 134.555 234.145
119.322 58.0902 180.976
63.4058 109.991 42.9515
64.9923 195.062 176.788
112.458 180.303 153.012
40.6896 199.095 98.7139
93.1692 117.069 209.03
103.744 78.2278 144.975
89.8735 65.1869 156.336
54.4962 251.931 127.71
115.88 146.927 159.898
117.722 83.7735 205.644
81.746 170.436 181.124
64.9762 249.994 165.365
94.1721 174.802 241.44
108.609 164.905 161.947
86.4203 137.41 197.155
75.5949 186.135 77.5046
70.6033 235.149 197.573
59.0051 183.008 220.339
106.883 192.522 73.1555
91.8705 119.47 147.06
46.6877 225.662 218.828
114.106 126.354 227.796
67.1435 235.381 130.745
76.9248 190.832 95.2631
117.301 48.8195 144.276
115.634 85.8652 102.426
92.3696 42.8971 170.195
66.9661 213.528 132.029
103.847 31.3233 118.881
87.0484 211.077 203.202
71.699 233.528 113.34
116.283 98.7987 97.6646
66.5832 192.553 185.591
71.2284 182.75 43.8998
94.0975 191.909 190.173
117.598 184.981 112.421
118.596 87.1137 212.461
114.644 55.5562 188.534
65.8649 172.287 202.27
118.188 50.011 192.84
112.048 150.33 155.568
66.3077 224.656 121.462
93.1705 192.282 175.05
98.3162 80.6523 160.979
93.7831 106.036 59.1444
108.357 171.606 128.297
100.395 109.901 81.5562
114.077 138.708 167.679
97.3551 163.235 59.4845
101.204 192.502 188.808
108.056 152.391 147.683
79.2927 140.214 228.214
94.2367 29.4303 114.734
67.8865 222.443 130.267
92.3133 123.456 62.3665
112.558 128.952 171.72
67.7956 244.975 167.841
114.224 125.762 191.402
89.9809 196.865 161.532
75.7368 203.005 238.923
34.786 216.182 62.3061
27.2559 250.647 101.448
118.151 184.538 135.443
116.979 80.2587 184.643
110.891 132.058 201.671
115.111 120.721 182.201
61.9441 241.098 90.0396
85.0148 66.0646 67.3091
76.0653 190.512 135.968
48.7558 209.723 225.131
44.9245 190.657 44.8028
108.384 172.245 89.5573
116.243 34.473 155.697
22.9949 230.852 118.696
71.7709 195.962 242.47
88.7768 207.383 216.873
68.0061 180.787 200.59
32.5248 255.471 161.623
103.651 181.084 206.003
72.8961 132.982 34.9255
61.2112 249.382 142.571
107.513 108.643 126.716
87.5083 181.641 237.756
118.674 118.665 223.078
63.4643 245.61 148.273
97.708 104.985 211.905
95.0139 119.213 227.674
90.8145 35.6659 146.383
36.908 257.501 115.554
66.2126 241.721 120.305
54.5602 187.331 35.7081
88.6674 214.061 181.781
109.057 187.73 77.5586
118.37 80.3394 168.656
57.4751 198.681 232.773
88.8858 39.7116 94.8402
109.346 193.384 114.258
86.3289 103.113 134.886
99.567 83.0347 191.994
39.1902 226.185 201.107
112.645 57.022 208.649
72.4543 172.294 196.115
45.4893 254.449 95.6552
118.259 59.8006 146.305
75.1381 234.819 158.265
71.3926 232.007 145.801
69.6951 223.619 107.024
58.4954 225.352 60.2381
49.0785 192.623 36.5389
82.5134 193.754 242.026
85.445 169.734 61.1969
61.8928 241.718 141.525
80.4633 181.247 73.8748
57.5198 221.316 230.375
108.094 157.588 233.466
94.2976 176.855 73.9049
74.828 223.384 149.621
56.358 196.015 37.0099
117.922 67.1498 169.383
94.1746 124.396 200.069
86.5556 177.753 138.79
97.3766 186.321 227.895
105.077 163.702 128.105
113.07 189.793 86.9432
88.1463 182.869 58.0732
79.3889 60.9535 73.4478
103.383 167.062 169.641
73.9289 34.3347 116.293
30.8551 245.422 95.4203
117.434 48.1744 167.247
116.919 127.835 147.49
117.971 50.3536 158.017
115.952 57.9964 155.5
39.9613 198.278 57.1341
68.8028 241.366 103.55
114.55 132.565 195.683
114.257 86.076 188.68
106.479 152.103 74.8188
118.558 78.5658 200.661
46.915 186.037 50.4797
91.6635 176.743 55.565
42.4703 247.678 82.5487
91.0351 129.195 55.651
76.9469 149.812 35.3347
47.6617 184.966 42.6468
102.152 184.688 198.563
92.0058 185.081 163.337
61.4275 252.892 160.315
97.0032 195.529 199.736
82.0567 173.954 95.2099
114.499 102.146 208.714
86.4824 76.5218 149.4
110.228 153.258 165.415
69.4204 210.67 235.71
57.2812 204.298 44.8403
99.377 84.0153 201.241
46.0518 215.278 221.821
44.3223 218.574 214.91
116.541 104.739 202.288
50.0422 242.806 78.471
89.7913 56.4284 161.031
57.09 194.163 215.995
64.4575 180.666 145.737
55.2523 226.036 224.627
64.4184 213.846 75.3353
84.4411 205.893 171.122
63.2242 223.957 224.464
25.4603 252.72 126.737
49.7454 247.707 93.8393
99.7748 198.157 118.243
84.1467 31.9718 115.689
52.4114 254.942 174.642
69.6628 132.06 26.9907
85.326 181.865 147.576
74.21 228.006 196.755
70.0699 241.114 113.415
42.0235 222.202 194.274
108.484 124.985 159.249
53.8357 205.222 196.706
73.536 97.3226 44.7909
90.3126 31.8158 107.132
27.9673 251.915 94.1087
119.986 86.3214 165.195
103.133 84.8166 225.31
101.691 185.144 191.254
32.9044 247.884 85.7108
70.2286 241.348 152.874
80.4522 172.09 47.9315
56.8055 254.028 150.981
115.574 123.648 176.426
71.6927 181.247 193.796
25.6371 254.073 147.603
113.327 140.543 180.773
91.6976 119.55 40.5786
101.705 53.1767 81.9677
69.9525 119.655 31.9322
73.0998 235.276 181.226
84.2286 211.249 168.331
55.0153 220.704 56.0737
75.9192 184.678 182.247
118.657 69.7964 202.608
51.9322 204.316 221.291
42.8674 203.542 48.3558
114.94 146.33 150.475
59.0251 249.672 173.082
29.0025 237.057 87.4484
118.087 79.155 150.897
96.9098 196.028 74.2653
58.4115 238.97 82.2766
75.9517 54.963 112.449
67.9732 238.481 145.97
65.1134 239.075 197.345
62.24 188.719 205.298
25.2265 236.017 125.276
96.6026 158.033 102.883
101.272 127.434 242.13
114.05 84.5175 225.074
56.6643 206.877 188.536
93.5649 202.967 120.66
116.333 86.3763 217.595
110.872 92.2675 227.324
114.744 157.596 144.761
102.09 160.249 91.8716
101.116 33.0068 112.206
58.6616 179.14 216.112
111.956 145.037 126.738
92.012 82.6463 157.834
104.489 60.0876 124.169
60.044 217.413 57.4998
71.2776 216.993 96.681
101.688 82.0054 216.457
99.2185 170.722 80.802
92.9979 24.7028 131.564
108.237 41.935 190.664
118.512 122.302 169.121
90.1493 112.638 68.9895
89.7842 209.608 190.196
102.346 92.022 167.239
117.485 93.6848 192.365
52.9994 257.789 133.25
59.3387 248.983 102.701
84.3017 190.491 154.122
77.3686 171.916 189.207
81.5116 161.476 182.558
113.498 145.841 231.072
90.1237 199.343 226.772
88.5927 49.3385 159.056
113.901 160.721 164.894
53.9309 240.493 207
42.8484 223.266 211.057
51.605 143.496 62.4628
75.3994 236.396 149.781
70.2289 46.5213 126.933
34.609 221.461 72.5645
58.4976 244.241 193.429
97.6764 65.3479 201.835
62.0954 107.477 77.4932
83.9751 186.221 240.697
54.0733 132.463 49.0302
65.7655 199.352 167.01
116.303 121.316 196.486
115.477 87.3995 173.278
117.669 41.4378 142.731
103.296 110.988 233.542
90.5596 174.295 83.9312
72.5705 214.076 226.071
86.6714 129.968 206.205
103.394 165.281 82.7039
91.4154 105.239 140.669
46.0515 189.576 63.7438
97.4579 30.2664 109.342
76.8127 211.192 232.385
90.5835 120.245 213.237
61.49 171.189 134.278
81.4661 136.774 218.477
47.1855 179.721 49.7503
64.2031 201.636 52.6941
23.6843 244.038 109.582
95.3676 151.511 60.1823
116.855 131.751 127.434
117.183 173.922 97.3229
53.1933 227.643 62.0043
42.0893 220.8 204.671
37.574 254.617 167.487
54.0713 162.565 64.5742
103.974 169.006 194.293
36.0761 244.805 79.7937
116.341 137.592 217.494
78.9004 146.11 218.803
116.478 55.523 162.304
104.423 148.514 88.4918
97.3655 151.787 206.004
101.896 166.539 178.549
52.6041 153.268 57.529
97.5864 129.942 165.309
119.884 74.1252 195.601
47.6681 199.662 141.094
74.7239 52.508 77.0158
84.4608 48.842 78.6584
92.4897 196.396 197.134
64.8507 238 125.072
118 84.163 196.007
52.9612 199.421 202.18
80.9232 220.167 75.2421
103.453 177.385 234.899
65.8193 231.739 85.6557
60.037 192.025 149.305
73.3956 37.3315 131.486
80.1497 31.7295 108.754
112.265 109.647 175.771
114.718 145.304 108.125
53.5722 258.558 160.658
74.1768 177.51 189.578
74.9229 89.2747 49.3692
84.8744 148.056 192.569
116.404 176.371 91.168
104.167 26.3524 142.996
55.0373 251.802 105.323
27.387 234.351 111.303
40.0669 217.71 53.1841
82.1983 211.187 229.707
99.2403 181.248 69.7183
27.2868 247.928 166.253
66.9933 218.71 223.752
76.9194 117.892 120.471
64.6003 113.341 36.896
71.8151 155.244 219.231
100.328 139.178 73.1842
76.1284 141.597 211.893
39.7336 243.268 73.7988
52.2194 252.776 113.709
49.2922 212.474 206.404
19.4491 237.923 134.053
115.261 152.264 114.998
28.6568 259.905 140.934
70.9536 194.662 171.307
93.513 67.8386 163.172
110.999 151.279 200.629
66.8676 195.664 45.0353
118.167 69.716 156.598
96.3632 172.479 142.337
49.6985 179.544 39.7736
84.3763 159.774 245.268
110.23 158.693 175.505
68.5697 238.071 93.6939
50.8424 202.804 153.683
110.761 139.013 98.323
40.6452 260.395 152.947
104.874 132.693 82.2565
78.523 197.323 62.5598
59.3839 201.44 188.782
92.231 188.976 169.01
61.213 202.384 175.058
56.5885 118.16 52.0007
106.772 168.806 152.733
105.672 163.966 119.363
69.5127 158.511 33.0862
112.252 151.962 138.392
65.5726 167.99 206.63
117.32 89.2057 180.824
94.0756 163.022 243.79
77.486 166.038 78.6147
55.1016 129.591 61.1022
93.9661 197.327 215.862
104.163 181.442 220.496
51.2729 211.085 188.479
74.7886 165.504 117.225
87.8937 151.386 136.968
109.89 123.052 236.204
102.385 72.8707 104.28
66.166 215.072 66.79
73.1393 159.571 242.935
94.0158 199.34 208.728
56.903 231.576 219.841
35.5414 257.393 102.55
106.155 173.716 203.296
75.6806 233.797 106.013
62.3679 170.944 34.7783
84.9168 143.855 196.478
75.1591 174.642 43.657
119.691 68.9048 127.657
96.1367 61.9377 163.073
59.8452 247.674 112.979
88.5497 199.271 221.029
119.008 62.1789 175.03
83.8895 217.147 159.158
58.2984 252.681 182.427
86.1032 111.608 42.1292
78.3602 66.6573 104.038
97.621 50.3216 131.562
80.2273 213.261 222.076
102.127 182.469 185.769
66.1542 199.003 183.499
93.0303 144.592 93.3071
57.7978 193.932 207.959
71.9654 56.1457 130.952
90.0787 201.559 179.951
115.719 188.386 124.782
96.1373 107.774 157.559
81.589 153.967 197.11
73.6694 209.348 99.5076
83.807 212.295 188.819
84.6113 143.758 238.218
114.584 189.566 118.328
44.8211 212.951 48.0897
84.4166 135.313 202.178
25.152 247.854 139.503
78.1613 226.516 127.704
104.504 195.036 170.528
73.1359 147.99 217.342
47.3001 180.428 57.3764
117.664 113.43 205.152
39.0636 225.995 184.636
86.0019 59.1676 149.679
105.487 167.752 200.157
91.3661 93.7678 156.281
50.6016 232.13 217.115
93.2733 120.127 202.969
91.4589 53.5216 149.48
60.3949 202.21 181.696
72.7209 154.333 213.445
55.1835 207.428 230.725
88.9659 95.548 143.11
118.878 116.271 168.414
88.1287 87.5565 154.893
36.2168 259.775 110.58
81.0519 42.4225 149.396
73.2768 62.7605 111.594
59.2892 247.515 119.999
101.172 160.1 124.405
78.0034 219.77 184.537
68.5766 237.268 108.982
84.6882 204.168 229.875
63.2357 242.682 129.104
70.0383 202.279 94.3735
100.718 99.066 206.922
86.321 214.119 207.914
23.6925 246.342 120.577
116.373 108.494 196.526
102.872 53.6631 135.966
55.8082 171.473 127.696
52.5196 185.527 133.305
111.527 144.563 200.521
115.643 129.834 208.206
70.2884 156.469 207.012
87.9763 136.681 31.7133
94.019 193.637 227.791
67.4454 48.6733 114.55
81.0364 69.7547 65.1785
62.148 210.501 211.001
88.7208 32.9033 128.507
83.9089 191.441 67.9302
83.111 32.8451 134.695
30.6246 236.998 173.004
65.1715 198.044 196.091
75.1373 222.2 68.1725
66.324 241.86 97.9435
80.6271 193.289 163.576
87.3199 169.161 244.912
69.8475 56.6169 91.784
47.6475 193.117 133.95
76.3211 166.033 193.61
77.0033 67.0595 91.9226
81.7819 171.424 243.152
93.9841 160.673 145.299
88.0202 165.236 148.61
67.8978 233.979 138.401
109.278 154.608 189.653
89.84 51.2078 72.4966
97.7209 123.815 56.2193
104.87 120.626 77.2242
103.719 186.306 179.11
100.184 194.8 180.051
62.3786 228.265 217.35
115.41 125.185 201.171
87.6229 42.4765 148.266
73.366 183.628 188.715
112.955 118.312 173.379
101.087 54.7983 192.362
65.9758 232.297 214.908
93.7169 147.612 45.272
70.9173 227.046 215.865
88.9245 187.533 61.7981
116.703 137.237 110.943
62.7026 222.873 76.5964
117.059 155.39 138.848
53.2643 244.789 199.479
97.6147 54.5632 187.062
63.7163 243.815 113.689
59.6385 242.879 100.828
116.386 182.836 148.952
87.6686 156.039 179.893
51.4186 232.985 69.33
44.0592 203.721 83.9199
58.3797 174.267 225.505
107.172 89.0793 135.739
71.8663 169.333 71.9799
91.7803 40.0189 155.826
65.0826 83.8034 73.6579
113.089 114.718 162.301
103.696 142.088 68.8934
39.2653 214.894 69.9614
97.1131 164.821 125.998
24.7041 230.645 106.853
32.4667 220.725 142.339
41.6933 210.462 136.484
54.2714 197.664 208.856
117.649 127.021 60.5033
76.5575 135.203 137.342
72.2869 42.0107 118.102
48.5115 228.628 67.3611
21.746 229.902 133.259
41.9663 251.952 90.6482
70.6128 47.4298 95.0357
55.3992 241.843 85.4956
49.7712 203.708 205.43
72.8504 181.572 155.485
117.813 113.139 195.326
92.7951 181.857 159.441
81.6644 203.533 167.286
65.3091 189.777 198.828
25.2493 213.674 117.759
85.2124 51.2711 155.295
77.9028 116.377 35.3936
89.5674 222.099 86.0158
37.7966 227.965 192.694
80.1777 85.2556 138.012
51.2011 168.249 58.0767
52.2317 225.098 142.534
88.3526 125.249 208.082
69.2072 90.2756 75.9981
104.847 187.729 171.797
51.178 254.91 121.84
82.0958 39.0601 109.251
78.3938 111.068 34.9206
107.491 84.4093 144.068
87.7135 85.0239 149.494
85.2834 63.9358 147.913
73.0152 151.286 225.527
49.7103 201.661 212.555
89.7931 122.265 48.3458
70.6823 228.962 91.3414
96.3029 192.372 222.954
83.2392 202.807 176.047
32.295 216.915 95.3249
95.2958 50.7674 74.5776
107.358 177.679 87.9349
81.0712 201.775 235.583
94.964 131.532 61.8995
35.5123 216.423 87.1225
62.7864 196.762 88.9749
91.1611 138.514 190.884
91.7176 204.988 183.555
94.537 198.921 177.427
82.9417 29.8071 127.26
88.8967 110.156 143.504
67.3272 67.5315 90.4768
46.6641 211.031 213.403
90.9207 44.4098 158.133
114.752 115.387 192.673
52.4407 133.198 34.0884
59.5062 217.29 63.4926
113.724 140.23 134
105.736 77.0322 220.979
82.5185 51.2063 147.819
82.1053 100.37 55.1583
112.339 118.441 235.012
88.7613 143.487 185.977
54.8563 200.263 226.186
80.0145 134.271 206.95
64.0731 177.012 230.478
57.5682 197.875 194.245
75.9404 228.521 113.983
77.5519 149.53 201.931
107.883 168.141 190.845
46.8213 205.674 217.728
62.78 183.574 120.171
76.6591 178.856 149.562
84.8042 70.444 143.768
33.1785 211.488 99.5446
54.0573 197.818 147.729
45.8019 219.015 180.517
24.4576 241.047 132.692
81.9854 160.575 195.146
28.9836 232.739 95.8358
64.3724 126.022 29.1287
78.3759 35.4307 102.478
75.5934 48.2277 117.498
27.1794 240.267 99.9413
88.4441 94.7225 151.926
73.7457 230.248 84.6046
95.9238 64.7818 75.1306
81.7225 140.465 126.959
59.1239 194.568 201.763
69.0333 225.262 77.3211
62.6542 195.534 191.138
58.1409 193.733 226.613
37.6464 191.835 115.127
38.9273 211.454 77.1472
110.885 102.73 234.528
70.2651 165.824 76.7006
57.537 238.211 163.191
79.0089 72.6106 129.228
108.155 98.0222 144.596
84.887 89.0118 144.058
92.4917 68.0129 80.5841
23.5089 244.962 153.675
74.9641 57.6669 101.33
71.1854 83.3908 88.5813
106.961 142.288 123.766
70.1716 165.674 112.841
56.6927 198.108 97.2657
89.0834 149.789 149.705
69.4225 163.598 202.451
59.0088 202.118 198.165
27.9558 244.85 171.409
80.8541 111.719 128.858
90.2302 66.2295 71.8629
110.655 158.614 169.368
69.4215 39.7834 122.32
49.6998 214.354 183.327
71.5043 156.181 101.888
108.789 148.387 111.599
69.1517 233.232 79.9716
27.3015 225.03 108.842
113.235 111.419 149.478
108.136 160.067 192.178
118.596 62.1761 184.541
38.1635 260.518 125.534
74.2176 155.312 202.642
95.0133 133.754 171.282
63.9884 244.983 106.665
33.1427 206.679 104.016
84.8465 39.4073 99.4387
61.2759 235.101 80.5353
80.9134 221.411 198.447
87.417 161.416 132.953
61.4734 113.098 85.373
31.1225 238.722 77.8067
76.354 124.658 30.3594
33.3105 262.601 147.785
44.7099 196.168 70.7489
63.1266 93.6298 71.9046
68.6255 231.515 95.2679
78.656 58.5653 126.158
65.9689 179.637 207.916
76.9056 52.4934 148.514
86.5542 91.8642 148.699
114.57 50.8407 124.096
32.6262 207.143 120.282
59.6236 133.862 34.0245
74.8607 152.161 124.24
31.673 227.111 90.1848
65.6846 235.586 88.9898
76.4879 159.068 199.166
57.2214 168.632 38.4213
72.3399 91.7068 95.2294
77.3594 224.886 192.312
115.297 111.25 157.567
79.8022 52.0332 141.55
70.9483 186.103 178.786
111.021 136.425 102.819
81.8721 122.465 36.8534
66.6951 88.027 85.0314
61.5433 228.474 163.873
94.5528 55.1179 122.134
45.7657 239.931 158.352
91.715 169.505 153.369
79.731 164.274 134.56
96.5726 118.093 50.2722
61.9623 236.074 164.863
100.094 134.702 94.2016
50.9918 227.208 155.231
87.6295 135.916 44.1434
112.789 103.795 229.892
77.104 230.022 181.663
52.3312 212.313 171.6
70.9085 107.06 86.5648
65.3353 80.6741 84.8265
84.3227 216.36 178.459
20.5372 246.022 146.796
105.832 96.5752 91.3824
72.026 165.369 197.881
91.7172 183.36 68.8565
91.8161 147.983 97.7438
69.5135 61.5008 97.5773
98.5752 137.549 133.34
99.2907 109.376 166.275
85.2603 122.15 44.1623
74.4204 151.595 207.882
90.4448 32.3463 120.018
68.7711 84.413 54.3476
51.1166 172.676 48.7223
90.1023 156.879 156.605
109.818 77.9665 145.287
99.4523 53.9666 87.0659
39.5626 196.994 129.077
73.1262 141.865 141.212
71.7566 117.885 82.3625
84.4913 142.207 98.8888
67.1503 188.795 189.918
82.0808 116.124 106.175
53.2956 149.061 71.0834
81.5334 70.6193 136.942
98.8591 75.6561 150.244
83.0012 62.7675 135.39
89.9113 81.1233 108.624
116.86 142.606 128.092
77.0691 218.276 224.346
82.5354 92.0078 139.953
104.476 99.0502 230.276
58.6025 184.801 112.883
61.3283 179.366 110.282
102.412 65.7069 133.959
83.3624 138.184 132.466
92.9687 133.692 131.22
84.6135 103.503 104.824
88.2164 97.9841 116.839
96.425 167.657 70.1303
99.3746 150.18 163.415
97.354 140.484 153.519
80.6655 162.744 81.2883
76.8564 46.7258 132.586
121.103 86.2593 129.425
81.96 82.5064 131.613
38.9388 211.134 92.1648
101.932 58.0304 198.795
118.529 68.5622 196.599
81.2371 61.6383 141.739
84.9985 88.9929 126.889
82.0439 141.888 204.935
116.262 135.711 120.009
68.2688 193.746 162.334
38.3018 239.21 184.672
79.1819 55.2866 95.6896
22.2316 229.819 125.267
84.7957 46.9662 84.4679
101.241 134.279 155.853
31.2053 211.914 126.221
77.3991 171.805 143.268
28.9631 228.45 141.277
27.5745 234.528 102.751
59.8617 220.463 156.746
76.3678 57.9263 119.284
68.8948 80.9447 58.1881
75.4405 218.05 219.702
109.605 135.349 132.201
27.9388 224.363 118.173
96.4285 41.152 180.962
93.3752 80.2461 101.787
