ply
format ascii 1.0
comment Created by Open3D
element vertex 858
property double x
property double y
property double z
end_header
104.806 234.046 85.2315
106.325 243.079 82.3891
42.6358 151.394 90.5611
79.3218 180.583 99.0711
103.077 86.1873 69.4861
90.5709 236.025 173.91
79.2758 235.802 115.208
91.1202 150.025 162.477
51.0975 224.3 193.634
55.1778 104.533 163.726
93.535 34.2949 72.7296
104.583 293.143 184.157
100.697 291.798 119.811
106.481 304.632 146.86
107.265 312.358 114.504
70.558 258.962 125.034
51.5743 50.4557 114.367
101.187 115.339 133.46
106.126 153.099 86.7581
106.056 51.3643 85.7784
103.931 127.983 96.6127
90.2978 257.972 171.106
88.1319 179.639 105.4
81.6587 211.329 114.812
106.212 299.83 177.764
97.9649 154.643 145.727
37.5462 10.8263 104.671
90.5959 320.003 171.924
70.4587 261.178 82.1352
101.508 320.238 163.296
101.788 122.694 59.9902
43.9638 163.972 105.812
107.058 307.567 157.905
100.653 288.514 153.511
104.968 273.42 65.4497
95.0743 326.457 159.165
106.783 277.975 71.5735
107.2 287.185 81.8755
88.5288 215.354 177.421
104.145 282.508 171.873
98.4787 286.019 116.306
105.407 306.451 136.137
100.693 116.491 88.1171
83.9011 221.735 161.702
99.3851 287.185 66.1461
81.9199 196.099 149.847
106.308 52.7251 128.148
81.5277 210.747 181.869
94.291 178.055 88.5451
90.7195 47.9789 54.4224
89.2004 181.47 95.5763
89.7586 221.202 138.601
101.816 224.179 93.4317
83.1801 181.386 86.2598
87.5887 297.706 66.7166
104.217 42.4458 105.529
100.702 54.7211 146.739
71.9246 205.032 187.663
109.003 268.42 75.7352
104.531 153.358 121.774
103.872 114.924 65.7502
105.448 73.933 151.776
72.6299 233.954 128.592
77.2141 166.796 61.1789
98.4605 263.215 193.779
105.658 83.5984 84.7976
52.8554 304.287 100.889
80.2575 77.3703 160.616
68.9814 270.231 65.8838
106.694 279.75 85.2524
104.048 72.3525 68.6682
84.8884 205.047 158.816
63.7918 176.801 84.8974
82.2561 223.096 110.598
63.5695 81.3443 119.837
104.15 139.918 103.211
104.969 294.196 74.7708
79.2396 225.041 120.494
92.961 266.489 165.96
91.5413 332.584 142.462
98.3477 38.576 132.055
76.8766 72.1266 39.2346
85.9408 170.873 67.5334
76.664 257.686 100.389
84.6296 231.021 84.1097
90.5236 23.4687 105.655
55.0632 167.596 90.8097
107.802 65.5582 85.8279
79.2482 198.512 172.249
99.0479 145.058 153.837
66.0546 76.6486 37.6515
104.502 122.261 78.9307
53.8997 239.225 202.291
86.8036 216.053 168.636
81.324 332.809 146.211
98.9614 168.508 124.859
93.9987 235.053 189.657
97.4224 32.3482 100.409
89.6582 303.835 189.655
99.3761 164.182 70.502
66.9853 324.098 110.884
70.8834 172.208 71.242
90.8108 27.734 120.016
102.902 105.477 141.197
42.2101 210.14 169.093
60.1507 96.7274 175.326
88.7302 175.655 112.966
102.173 90.1934 147.306
75.7232 249.008 121.461
50.3332 213.712 186.476
106.215 161.215 111.813
81.7549 167.043 145.29
99.3737 132.82 55.4215
97.1908 254.793 189.854
82.7366 218.902 145.948
106.449 52.669 104.743
84.2515 228.295 92.2126
47.6089 158.039 73.9084
64.6894 144.128 172.168
80.7334 239.446 86.0271
52.5045 115.373 149.838
95.9967 44.5724 141.887
51.6095 127.933 126.656
95.4349 359.706 112.207
77.5583 151.178 167.687
104.269 77.8906 117.836
102.443 127.052 131.68
46.9771 127.967 72.7601
106.027 318.583 122.973
98.301 273.711 163.527
72.037 266.476 103.277
87.2574 211.653 97.7379
103.197 271.598 183.46
105.502 300.293 82.769
104.785 152.116 99.9082
43.3087 153.952 115.348
44.6135 161.581 93.5731
74.0324 327.994 155.909
102.315 38.3384 112.885
98.0543 262.16 181.152
48.8148 257.26 201.868
92.6581 241.907 201.59
52.6592 111.155 39.941
57.7689 84.5986 149.884
79.4355 274.51 57.4217
79.3848 314.071 83.8212
106.414 300.035 117.639
82.6385 242.107 101.97
95.8629 246.136 195.807
104.711 271.857 91.3992
84.6083 226.891 101.351
103.259 83.1946 163.102
61.8677 169.279 138.109
106.323 142.514 131.751
103.53 95.8202 164.783
87.1869 333.09 135.609
104.081 250.634 90.5968
98.1236 292.23 128.529
59.5137 163.02 67.5916
92.5544 132.969 48.1465
102.918 296.227 144.163
106.135 292.022 168.443
103.935 151.407 107.111
87.9147 219.816 187.055
106.323 313.337 93.4882
71.0812 251.305 131.66
58.8325 102.234 144.633
77.8021 218.664 122.778
104.737 126.068 68.8137
85.3661 258.309 162.586
87.1577 243.348 134.935
56.5025 63.4386 125.291
75.2919 182.973 89.8677
93.647 163.519 147.285
94.2344 151.117 57.0595
38.7579 306.715 141.706
39.8669 227.673 187.297
107.18 135.337 143.302
106.961 129.94 150.937
86.7112 240.538 165.551
101.483 56.847 68.0364
104.856 110.785 161.091
68.3558 165.952 61.3529
71.6914 265.722 118.345
96.234 176.884 111.365
94.527 158.884 62.0933
43.6796 243.198 156.361
67.7452 225.981 134.344
102.83 154.136 131.803
65.6428 218.37 136.679
89.8553 324.912 165.371
98.4697 265.124 94.1164
45.6071 209.249 177.702
71.1627 22.8658 105.384
102.073 102.583 150.927
87.7267 230.104 169.622
87.0208 209.847 142.491
99.3466 116.464 50.1997
68.1928 318.901 100.912
79.9036 70.282 172.514
108.471 304.67 111.472
44.5595 293.181 180.674
101.14 155.529 66.2658
74.9535 332.08 140.407
47.9823 202.434 168.11
99.3862 164.571 133.149
93.3558 56.1484 157.443
102.387 105.506 65.4842
100.192 286.236 103.365
107.671 51.1871 93.4118
93.8926 285.812 130.997
84.6316 233.229 76.9481
79.5285 184.098 113.532
107.811 54.8195 116.984
93.342 106.689 119.523
83.7482 213.849 106.69
86.3178 51.5735 159.113
103.652 286.392 188.88
68.0211 207.262 133.555
62.8429 84.778 136.861
74.5825 256.586 65.2683
99.274 103.007 175.939
93.1802 169.175 68.6515
97.4454 237.015 108.87
100.739 134.252 123.05
51.6774 154.761 65.4313
93.5963 128.247 172.691
61.5846 160.196 58.932
59.6507 154.494 165.009
105.992 283.224 94.7994
108.355 64.6085 108.252
54.9971 41.7444 128.073
75.1092 296.323 65.8699
102.37 81.9633 128.54
100.554 359.442 101.545
46.2619 135.523 88.9963
105.643 258.287 85.7863
82.2178 213.557 190.19
106.052 142.59 71.4907
92.2949 85.008 175.3
58.3962 56.9832 149.125
48.8199 205.99 158.249
19.8698 9.94304 106.78
97.012 109.902 124.533
44.3641 114.877 49.1765
90.4394 223.721 175.943
70.5874 215.084 131.101
57.9141 209.921 188.644
76.5272 262.446 209.509
76.8882 246.104 78.9802
94.3707 116.6 177.681
84.5223 76.0368 174.455
46.9485 165.131 121.822
79.9324 178.107 77.1831
50.2279 249.259 202.174
90.7689 245.914 170.014
49.0463 161.564 130.513
85.0188 246.849 161.831
101.234 134.742 160.047
79.6149 172.439 70.9507
105.523 141.563 92.3187
61.4085 112.001 134.948
49.0643 163.193 86.182
70.5817 199.57 180.165
102.793 132.746 65.1557
52.7017 267.04 202.527
46.2263 132.717 153.694
83.6132 213.239 157.026
37.9907 220.571 179.715
43.3103 309.75 129.935
100.997 280.492 159.098
93.653 143.349 52.8969
67.588 119.85 33.9337
73.8561 181.964 123.368
96.8125 126.184 46.5433
100.753 85.3121 118.425
84.109 208.556 149.858
100.74 98.1959 87.1611
92.0223 67.068 49.9794
68.9201 270.958 88.8153
92.7066 43.896 67.5972
104.413 111.281 152.586
88.3449 117.962 38.5056
94.5208 34.0053 86.9744
26.5651 269.639 172.353
74.5104 321.438 167.875
50.8649 98.8417 39.4892
100.386 294.976 113.148
105.26 141.848 149.429
42.7908 142.183 132.224
106.797 61.8273 131.593
79.2531 326.269 101.232
103.91 69.1289 75.0981
84.6531 209.262 166.118
99.3844 169.234 110.456
89.2548 311.384 82.8435
81.0613 327.1 162.879
107.47 293.238 87.9522
79.7329 323.413 93.1963
98.3978 267.535 175.554
50.8852 115.257 169.928
59.8223 70.1362 160.025
96.3737 246.526 186.723
79.6823 356.709 125.516
104.028 284.696 162.008
58.5177 51.4834 46.6508
93.1241 66.7281 166.734
89.0494 254.179 111.243
60.1584 43.5691 59.8457
102.422 167.97 95.6963
87.5182 85.8902 40.9672
106.094 134.539 73.213
99.8813 273.353 191.093
103.026 306.853 180.228
70.4727 262.425 91.3746
77.5327 193.716 166.686
92.7632 243.518 177.961
47.8709 236.197 198.322
55.1161 158.871 147.958
103.906 323.996 111.168
69.7982 316.412 91.562
99.7103 299.908 73.8851
57.3585 133.592 44.4851
94.6216 237.599 180.786
107.052 315.042 153.948
98.8129 89.8195 173.183
105.484 164.464 116.85
63.9435 247.916 139.221
90.1657 172.714 134.642
49.3026 65.5964 48.1949
45.2185 150.589 125.962
93.5496 264.867 102.263
67.079 300.401 71.5165
102.374 116.073 70.9529
94.3092 165.073 170.82
57.4842 195.901 164.499
57.1202 88.2295 35.4812
83.068 171.25 136.892
96.1968 97.1932 125.443
34.2697 302.77 150.923
94.1555 325.549 98.2799
87.9785 77.7142 41.9986
100.961 229.3 108.703
50.0407 123.602 173.064
28.6318 252.32 179.869
88.6454 217.873 89.4366
99.9373 138.354 60.5604
93.1373 255.263 101.387
44.7017 137.196 144.532
101.859 71.9145 160.482
62.2748 171.241 73.9665
102.377 264.906 62.2359
86.8391 316.028 88.9588
108.21 133.91 84.8609
57.2288 126.648 113.761
79.1877 115.729 34.3657
99.6813 171.729 81.4759
52.9803 35.9228 119.58
103.505 371.284 107.043
43.5844 307.313 120.109
100.818 166.987 103.206
78.4467 241.885 142.987
101.246 62.4463 153.664
45.1637 145.76 143.061
69.0965 142.945 46.5896
105.276 118.403 145.234
86.007 247.46 206.174
87.1948 177.584 127.987
68.2822 308.268 83.7198
80.0293 250.734 152.376
81.0192 243.588 68.356
108.425 254.237 77.5855
57.2904 310.757 96.2827
100.006 292.326 193.05
70.7229 160.753 57.4561
80.2187 245.994 92.1745
93.3806 330.935 117.842
95.9317 208.034 99.7474
71.9032 196.065 171.49
95.6392 64.1956 55.3154
71.3393 191.514 163.573
99.2933 278.079 96.0564
85.1594 234.243 162.465
55.7953 104.525 174.142
104.475 305.511 168.231
53.1238 64.004 105.129
28.069 247.082 174.045
42.3613 311.544 149.421
75.0533 40.3943 153.188
90.7935 270.072 157.215
100.496 291.577 141.551
77.6444 204.683 123.922
68.5701 252.127 210.797
90.3965 58.2279 53.6885
101.053 327.893 135.212
83.3126 225.429 144.84
50.6972 291.071 103.238
96.3298 99.7667 130.637
98.925 113.898 44.5842
96.4149 277.005 103.166
47.1115 110.275 65.2845
86.3891 328.185 103.194
108.359 140.127 82.5913
53.6723 116.31 177.789
97.0122 174.931 102.771
92.6459 81.2946 46.5571
56.9191 242.051 146.022
52.1359 152.706 158.62
63.9355 163.149 150.221
99.8792 144.811 57.8828
63.4965 276.697 73.8063
73.3806 201.926 130.814
59.4654 88.7084 142.664
90.9501 233.917 198.266
45.3973 106.94 42.7501
102.304 111.819 171.829
45.0136 136.687 134.054
87.932 350.852 94.8728
66.5149 275.16 105.584
51.646 122.296 43.3098
91.5811 257.253 205.092
74.7487 164.67 150.151
84.2664 197.915 116.521
75.9549 124.016 36.1552
104.991 251.936 69.0698
55.4665 313.118 106.364
105.113 163.721 82.8218
94.0096 320.671 88.7004
86.6408 235.735 69.6774
76.4868 242.199 208.14
76.119 110.054 184.116
35.3072 288.128 170.076
63.2973 232.615 204.999
63.8085 208.108 191.883
84.5928 139.981 170.275
65.2789 100.661 34.5955
94.8793 351.7 94.4154
72.0894 328.668 123.738
103.792 320.448 99.8929
75.4415 166.897 137.651
84.4437 331.817 126.811
36.8495 216.498 166.489
63.4589 270.316 127.36
66.3363 170.792 129.193
45.2586 263.831 194.742
88.4987 372.82 121.984
57.6526 66.9842 141.557
61.9661 113.367 34.334
79.87 243.645 155.501
99.4741 235.867 96.2846
79.653 264.588 139.738
46.6502 127.47 147.574
72.3089 195.019 137.01
76.1571 289.605 60.6549
55.1337 121.875 135.461
95.7608 75.8672 168.875
60.4275 318.383 109.963
56.7819 178.34 105.162
104.371 279.699 178.988
101.883 328.042 120.266
101.891 309.156 85.7854
84.3943 273.337 130.374
36.8861 302.033 161.509
47.6278 57.5902 49.245
69.7436 236.491 207.073
90.0855 122.238 47.218
69.8216 262.287 72.619
92.3964 258.152 57.3767
81.658 99.2397 183.013
97.0889 246.727 61.1004
43.2779 213.03 158.461
43.483 95.1122 47.9664
89.4319 330.539 152.195
60.9754 227.59 142.003
98.2303 104.079 93.6102
42.1586 254.742 200.069
72.044 312.61 178.749
73.9236 77.4232 177.191
50.0098 98.395 79.1243
93.3869 231.984 68.6686
105.924 64.638 94.81
90.3026 268.398 204.095
26.7466 261.279 168.823
66.8234 259.841 210.025
95.7341 328.307 107.128
59.2592 37.8748 137.952
87.6875 146.296 50.7332
52.2655 129.176 94.7161
103.113 257.467 62.5228
84.8191 146.465 166.905
54.6486 174.273 87.1215
95.5111 270.52 101.812
92.1908 98.1705 179.578
82.6495 316.11 174.008
48.2021 301.882 109.455
98.173 311.962 179.147
51.7121 140.562 51.9779
37.0126 247.9 191.881
74.6782 45.8687 55.6295
103.77 154.563 72.6511
94.4244 173.813 124.207
50.9446 317.662 147.131
103.275 82.8252 100.271
53.1746 134.372 175.143
71.8142 363.573 93.6502
39.1214 241.871 198.037
88.4912 283.512 58.7072
63.8108 191.805 165.283
76.1143 127.935 182.15
78.3055 203.165 182.908
88.7974 362.675 114.101
79.2036 237.237 151.422
70.6474 171.923 137.527
103.932 278.599 187.632
82.9573 308.806 77.6021
91.5013 270.297 56.5542
44.7614 139.292 116.294
91.4197 163.322 137.336
106.953 269.475 84.7003
94.7196 169.899 76.2516
79.1314 283.818 203.142
84.9259 272.862 205.457
52.2199 123.912 165.585
74.2816 223.601 127.295
43.5965 305.285 160.592
52.4181 305.33 175.369
56.7347 258.146 146.249
86.9953 322.945 91.8998
80.897 265.775 125.556
48.5199 47.6195 63.6672
56.6971 316.88 162.553
96.1114 276.62 153.157
30.9037 290.262 151.425
103.483 234.619 75.7321
100.537 213.597 105.204
96.0904 241.526 112.327
59.06 200.603 153.64
85.6217 133.193 48.0284
47.2268 129.304 161.69
77.3315 65.9003 42.3261
79.1467 54.4087 163.302
80.5838 226.701 152.857
68.6386 225.464 203.044
48.9221 116.945 161.794
72.7769 291.123 198.195
90.655 273.385 110.123
87.7887 176.478 76.3327
76.9828 345.895 93.1763
97.7027 45.6462 74.8314
85.4188 42.1225 150.732
66.6472 178.777 104.599
48.3927 129.22 138.969
79.3686 173.474 125.675
107.274 314.329 145.651
62.6884 25.5444 108.92
87.967 223.081 194.244
56.752 63.4186 134.502
45.9595 136.679 71.0705
58.7114 83.8263 102.517
69.4787 180.367 94.5437
84.256 108.765 175.096
64.7976 160.112 156.454
55.06 200.269 176.855
85.5568 349.592 124.781
57.4153 91.9278 153.071
65.1406 218.554 198.37
47.6846 256.674 154.02
48.584 105.328 71.7834
68.7196 286.394 62.8815
57.645 52.9845 159.343
91.4607 279.661 145.096
66.3328 190.777 153.031
58.6032 109.446 141.02
63.3911 90.7568 104.736
102.51 313.99 169.882
55.3947 51.1092 133.141
93.4397 297.135 194.525
103.642 60.1527 75.5264
35.1159 235.516 161.677
78.9746 87.3555 181.364
78.6855 109.054 174.794
71.9799 182.44 100.185
65.5801 195.339 174.37
70.3351 180.236 115.989
75.2132 370.813 124.812
88.8766 178.217 119.928
62.6294 310.922 173.502
75.3918 58.8838 167.802
58.6785 120.407 96.6806
85.3826 330.24 112.732
61.8292 153.644 154.565
54.4297 66.2087 113.946
82.5685 251.576 59.028
39.8119 284.195 138.571
56.0561 319.922 155.001
90.1133 304.241 72.1507
44.3237 242.843 202.298
58.716 69.0352 119.981
76.079 372.218 114.977
69.4044 58.9007 44.9123
84.5511 270.342 120.09
87.1456 245.342 60.2711
65.8126 125.811 36.9041
97.1004 271.854 59.4554
43.0438 289.231 123.839
65.9681 327.277 141.106
98.7385 270.886 170.584
79.997 218.494 196.834
74.4969 331.741 132.345
92.4372 229.954 185.122
60.7417 324.056 148.386
58.3699 162.096 141.528
74.2597 252.332 84.8288
66.5271 356.135 120.551
105.106 304.535 120.209
54.7906 33.4493 108.688
99.3741 279.307 197.624
65.882 327.103 131.688
95.1415 330.74 129.29
83.8011 256.894 208.31
73.6109 29.6629 138.851
27.9364 262.313 177.71
100.626 320.227 93.3649
83.668 345.982 92.2467
104.676 122.937 163.131
64.1178 260.338 137.183
102.551 308.033 127.018
90.527 375.823 103.223
81.3818 97.1327 36.4271
82.9022 298.434 195.41
78.8055 260.459 60.4498
80.7379 50.1182 48.1543
46.7759 269.257 145.152
62.2033 296.072 73.1774
107.226 318.152 106.044
83.522 31.5806 85.8189
68.9048 116.847 184.034
85.8651 232.347 139.385
61.8301 74.4607 168.044
97.5968 158.097 171.27
60.8826 263.424 208.76
67.9142 326.968 149.507
70.3785 279.354 203.281
67.9925 94.845 33.3849
62.5417 56.0069 41.1064
102.553 124.091 155.254
85.2293 311.571 182.791
76.4145 151.503 49.7254
46.7118 140.196 150.15
67.5123 370.999 101.238
54.214 148.817 164.097
39.7129 252.953 157.204
66.3347 88.3643 114.837
57.6674 166.463 128.762
34.8325 282.759 144.449
78.1785 50.9275 53.5995
43.4974 64.8438 53.7467
80.1094 330.596 122.586
56.0095 319.23 121.207
41.1499 277.976 186.666
101.939 157.164 139.463
82.2163 266.185 145.437
64.2629 90.0253 181.279
31.6579 236.862 180.854
37.4039 293.144 131.542
31.4306 228.967 167.691
45.8566 121.905 156.683
57.1251 96.9275 84.1908
62.9006 200.856 182.965
54.4879 140.461 171.029
55.3372 112.332 85.3931
63.0538 60.3328 163.036
64.4599 304.115 183.261
64.6559 275.83 93.9106
56.4026 38.812 66.2639
50.7078 142.546 156.984
50.4009 313.649 118.204
83.0035 131.794 41.6084
97.2445 214.327 91.5139
56.1396 151.404 147.439
44.7122 314.507 138.78
44.7547 230.965 155.672
50.5476 259.022 147.892
43.5349 142.718 101.518
85.3369 131.349 178.224
52.945 49.5212 124.96
60.2961 113.984 182.46
84.74 228.415 200.957
105.197 317.95 136.804
58.0458 127.588 179.093
76.45 250.255 71.5601
103.579 47.5116 91.5437
55.7401 52.5907 54.2233
73.841 325.647 105.532
58.9934 177.759 117.634
83.2066 236.577 203.567
34.4337 260.007 185.311
86.9237 121.393 179.732
82.5644 370.96 92.3125
66.691 363.031 104.783
65.2562 36.6531 66.7922
73.3677 150.629 163.726
79.0455 43.3312 61.8783
81.2812 140.893 46.2608
54.0898 287.468 92.0146
83.6963 228.498 161.184
91.678 380.477 107.948
94.4506 308.873 77.4208
48.8464 288.484 113.119
75.7132 230.049 203.617
43.879 101.256 50.8886
54.7817 320.433 138.711
99.5719 171.114 116.983
98.8382 99.64 51.9487
101.19 102.779 73.7966
35.0636 252.632 194.792
101.558 223.987 81.3611
52.2625 317.015 75.7537
65.0351 325.291 120.945
38.3448 265.456 153.617
53.664 297.237 185.702
54.5451 46.0423 57.2007
95.0425 239.712 64.459
51.4729 249.806 150.808
100.587 231.17 71.2851
50.7814 39.6354 77.9975
99.1814 250.429 95.4666
94.5237 287.387 196.566
33.4037 291.341 159.621
54.2282 274.374 132.81
50.9801 147.838 54.507
74.7719 330.998 147.792
57.3753 34.4007 80.3059
61.5567 280.302 83.1318
61.9062 134.022 178.402
61.4104 209.436 143.306
74.7181 52.1964 169.27
61.1183 280.95 98.9215
106.691 304.644 92.6349
79.2568 310.551 187.951
101.778 168.849 88.9285
50.0757 150.337 148.655
68.1359 377.636 104.861
75.2227 49.3715 47.386
37.1742 222.668 159.363
70.9448 26.2789 130.34
103.181 145.771 64.083
80.907 244.983 136.067
97.3664 308.939 186.456
45.7877 300.828 171.574
97.2771 71.0769 147.551
39.3463 282.583 180.594
48.6341 127.186 46.7839
81.6365 33.2792 76.2235
63.0021 312.202 89.3982
82.5216 162.455 151.663
51.6983 319.034 130.753
70.5678 136.695 179.76
82.1846 175.869 131.708
109.457 135.434 115.65
77.1481 134.511 42.117
38.0876 262.967 193.468
101.062 97.7852 61.0448
34.8803 271.463 152.376
34.8551 292.161 141.739
59.8224 219.638 196.071
57.9322 175.69 126.117
62.4445 72.3314 40.1726
71.9642 211.891 195.661
90.2911 285.633 202.185
68.251 99.4154 183.678
62.3443 181.735 113.151
34.1577 246.774 163.278
56.0031 266.661 139.77
29.379 239.019 167.87
90.6121 224.509 77.5299
99.9319 98.8159 140.452
73.3445 68.903 172.667
69.73 50.0295 163.548
105.304 149.354 80.7926
97.6162 313.926 84.152
66.2014 234.102 139.123
32.0991 259.648 160.993
61.3588 63.637 43.163
92.3863 200.7 106.786
78.5785 258.732 144.224
76.0838 253.565 117.053
50.7209 170.596 117.588
52.807 33.8334 102.409
47.7394 170.265 95.8335
75.7041 188.907 140.747
82.3802 153.105 52.9256
40.5831 299.231 168.243
72.1189 175.081 81.9056
65.6215 21.4811 118.001
50.8158 142.092 166.312
71.4426 67.8219 40.0752
68.8306 28.2598 87.9056
85.599 163.236 62.4472
42.8568 98.0207 59.3723
62.3044 241.113 140.807
55.1939 215.402 148.86
57.3016 295.919 80.7807
91.9745 220.007 82.0492
63.2454 32.3078 79.8789
59.2687 279.727 116.688
94.9873 151.98 152.69
94.5527 72.7194 122.072
67.8599 286.488 200.888
105.79 212.934 129.485
71.4247 22.9727 123.976
94.9929 278.746 59.3359
31.9276 14.942 92.5301
102.307 323.168 147.814
37.8553 271.136 187.298
51.4909 92.6106 81.631
54.3059 172.793 100.7
100.768 8.56564 84.532
49.4304 172.98 108.75
81.7252 175.44 114.964
104.382 222.337 126.604
75.6627 147.428 172.345
72.5871 179.395 79.5697
42.8785 46.2908 67.4183
50.2568 312.609 159.97
59.67 23.9389 119.215
105.639 232.916 127.888
46.6459 72.656 48.0317
85.1855 40.9503 61.6515
106.516 68.858 186.019
65.4209 25.133 125.838
82.7337 190.919 129.052
86.908 156.073 58.9448
96.3893 58.693 60.7701
100.112 49.0522 141.673
62.3702 224.651 199.955
84.1299 366.024 113.543
98.3394 219.109 125.723
84.3054 357.163 99.1618
109.15 218.794 124.89
101.509 100.56 80.6809
79.7026 366.47 116.954
68.6589 294.531 194.477
110.759 104.155 45.3806
66.738 53.9619 79.8064
95.523 71.7456 127.523
62.3542 179.721 100.323
69.3468 64.1036 175.596
34.9214 19.6114 111.273
105.614 45.623 87.4143
55.5432 198.196 158.477
99.7886 92.4731 58.4109
101.625 294.029 97.8773
107.363 56.5805 108.322
109.37 227.342 127.117
107.183 253.711 125.288
100.398 214.318 130.856
102.662 215.517 125.645
