ply
format ascii 1.0
comment Created by Open3D
element vertex 820
property double x
property double y
property double z
end_header
101.031 112.479 282.434
113.554 95.1337 197.482
111.942 90.2189 185.39
106.63 105.227 134.845
115.363 151.167 208.522
108.566 144.437 179.017
63.3449 175.714 132.114
88.8118 90.3856 226.178
112.444 84.1746 246.577
104.586 184.048 184.837
111.975 72.7847 257.851
89.1636 43.3097 153.225
112.671 68.4822 250.746
113.459 101.067 209.88
110.637 133.476 203.889
114.528 188.009 226.38
111.552 113.076 181.379
100.233 152.784 215.727
101.403 198.316 233.972
104.081 51.3896 249.665
93.3951 49.4886 260.118
111.166 247.512 61.1154
113.327 170.351 253.768
99.7352 44.3541 242.851
112.877 111.061 216.598
111.317 88.1289 234.263
114.435 158.432 235.415
112.17 120.995 216.025
109.527 131.061 168.814
87.2123 210.984 189.648
77.758 186.436 200.055
93.8581 208.258 181.163
99.7076 165.803 152.33
101.409 36.3068 181.134
97.5248 154.613 183.883
76.7672 254.422 92.5835
111.365 60.7973 229.545
71.4153 90.429 267.151
115.642 166.382 240.192
81.2271 134.745 255.834
104.817 174.267 177.427
107.762 70.886 267.551
108.933 193.826 235.595
101.688 186.178 174.074
105.752 144.646 162.34
114.717 169.423 226.375
95.824 134.322 189.923
102.858 40.5905 222.783
106.386 204.049 197.198
108.201 154.881 176.884
101.919 146.294 276.565
97.993 144.309 213.554
106.355 153.35 161.287
67.0681 165.899 131.017
99.3827 126.269 221.619
98.5247 164.014 219.757
88.5228 82.0284 223.724
90.9017 202.778 159.484
98.3313 32.7356 216.76
70.6767 118.725 111.025
75.9266 133.99 269.801
98.0998 161.681 191.344
114.724 89.2156 207.966
83.8834 96.7059 152.311
95.0509 29.6621 194.805
74.777 149.84 267.374
102.791 177.166 167.575
105.743 76.4287 141.458
115.182 132.98 217.714
113.98 64.103 212.055
72.1504 70.9373 175.754
98.4793 191.405 168.717
106.876 220.656 57.4275
108.236 136.948 148.221
115.141 174.401 237.741
116.278 144.941 225.053
71.8651 39.9766 209.266
99.2256 191.571 244.778
77.0066 162.448 264.629
104.272 46.2012 184.664
72.3811 55.9352 214.356
109.638 108.382 149.136
97.2123 153.374 197.848
98.0835 95.3527 211.904
107.785 161.438 182.643
73.8243 188.175 137.852
91.3928 29.4129 213.878
102.918 104.608 153.046
107.466 129.734 137.701
90.7984 188.421 149.489
75.9824 134.021 111.064
82.1699 153.178 253.179
73.3338 154.701 117.143
95.7056 172.323 190.439
76.5005 125.492 113.761
110.841 59.2441 251.608
102.573 45.631 176.152
108.066 205.14 214.617
81.1437 71.7865 208.503
96.0715 192.685 159.625
79.4923 69.8562 218.624
94.8686 131.384 171.62
113.783 179.761 245.444
88.2294 169.517 271.498
89.9295 86.3723 209.261
99.8961 138.649 230.6
92.3174 196.177 239.357
84.1385 121.675 112.509
111.497 104.562 186.133
100.742 37.4336 195.92
100.334 54.3083 260.573
109.153 92.5695 135.132
97.8718 109.078 204.068
99.9703 66.0371 272.13
111.569 88.4801 146.095
79.8056 212.083 186.206
108.655 148.268 207.907
68.2053 230.287 60.6616
109.186 100.924 276.107
115.257 175.631 223.681
78.438 211.064 201.793
103.518 41.0766 202.578
111.837 197.288 218.778
86.4868 90.519 159.07
111.856 133.006 225.374
78.9733 176.633 129.132
94.7926 100.005 122.015
112.252 96.0468 242.948
92.2628 97.2796 162.384
89.5274 85.1765 192.657
104.243 197.011 187.014
77.541 205.427 157.631
103.365 87.946 275.927
84.9044 98.031 114.128
99.6424 212.104 197.981
112.907 103.309 199.352
97.2606 43.5506 253.477
81.8692 95.7605 279.31
85.1716 266.925 81.9402
96.6517 199.884 170.262
99.1256 218.679 94.0248
110.01 122.891 177.464
84.8306 44.1803 249.365
92.1603 208.723 211.425
70.3578 87.7608 115.51
84.7194 206.442 69.5827
45.5006 242.713 103.531
108.06 193.047 196.255
101.765 140.723 131.739
110.912 194.051 208.658
78.6224 154.79 275.715
62.1859 91.5864 121.908
106.4 163.431 170.976
97.1288 143.483 174.135
71.5223 210.313 181.739
83.3947 129.649 118.832
107.29 67.839 143.157
102.757 184.964 254.159
66.1461 45.5705 218.661
94.6277 36.7304 236.008
74.0628 81.9497 252.233
95.5369 186.486 255.329
57.1683 135.786 121.237
80.0658 184.852 173.261
98.4283 120.056 197.959
76.5204 229.659 104.316
79.827 114.587 110.472
93.9462 66.664 132.849
86.9851 115.523 113.724
95.7925 130.197 232.625
98.8352 101.371 191.288
67.2221 201.757 168.888
64.94 195.71 152.207
82.0639 118.693 281.877
110.99 155.612 218.524
106.762 70.7196 156.916
93.5745 171.452 144.782
101.076 73.7928 135.29
78.4391 81.5805 117.966
109.487 70.7342 231.073
111.932 80.6291 226.675
106.903 181.004 192.846
70.1675 192.928 210.625
94.8835 164.297 138.482
99.0665 202.652 183.198
66.5671 145.947 119.762
85.0224 56.8774 262.902
97.2147 135.08 181.12
113.111 57.2644 221.03
112.56 187.667 239.443
108.494 126.644 145.364
107.089 124.438 270.093
113.55 150.061 230.924
79.5359 141.823 152.885
107.013 83.5771 141.539
82.6567 76.3415 193.426
85.0911 172.04 238.65
58.4784 132.275 130.97
105.475 263.14 64.4686
84.6303 204.948 159.385
112.78 73.385 203.848
70.4904 49.3253 195.799
112.046 87.4276 268.312
78.559 35.9204 215.177
108.545 110.926 269.985
97.7831 105.973 287.353
97.9431 157.541 208.153
92.5147 176.197 203.034
111.048 98.0597 175.344
112.756 78.7721 240.12
60.4239 166.256 145.015
75.79 121.421 265.887
81.7991 133.426 152.417
70.8057 191.482 222.393
95.7745 88.469 133.502
83.4241 199.424 150.687
85.7796 165.66 242.185
94.9099 55.819 139.637
86.4345 134.675 113.567
51.429 220.922 82.477
83.7382 99.7158 237.866
71.1872 200.876 151.859
99.2494 145.961 231.692
80.6771 77.2706 222.097
76.8235 193.706 178.854
49.5942 232.176 102.311
97.284 210.217 217.921
89.2053 180.729 145.089
65.976 199.945 161.688
77.1485 122.658 255.743
112.35 124.488 238.622
68.0387 151.1 150.753
89.6946 31.1362 183.189
102.366 91.2625 137.938
103.813 164.907 163.106
110.717 64.5669 184.697
74.6136 46.1954 220.229
84.6216 215.038 105.559
111.281 119.285 251.245
74.0058 100.762 271.34
98.8142 98.2331 285.156
77.0197 68.1054 245.042
86.2044 192.777 146.076
83.8578 155.931 159.689
109.319 60.755 259.73
99.1261 134.148 210.053
100.844 158.014 222.624
103.449 114.416 125.344
93.0983 27.3773 203.521
65.0066 103.309 139.629
85.9505 182.516 261.994
88.5737 162.515 130.457
112.648 185.112 208.033
100.632 61.4487 145.692
80.9777 177.974 229.397
80.0948 193.685 141.918
90.058 120.644 119.184
94.8542 58.9966 268.566
91.1607 133.179 160.971
81.1449 128.632 260.228
92.3549 69.8155 276.257
108.933 59.2191 164.975
108.52 135.437 186.449
85.3326 206.061 220.037
92.053 91.7504 120.529
67.2891 137.029 147
104.165 245.139 80.6446
106.119 55.5029 186.282
108.716 102.337 167.448
76.4159 173.395 248.338
90.5029 76.4909 124.634
113.751 74.9466 246.757
113.504 69.3025 237.855
82.0168 181.243 206.664
83.9423 87.7892 278.666
109.702 49.4428 169.674
106.262 122.11 131.001
85.8412 84.4534 232.703
108.539 66.736 215.828
110.438 88.2289 197.669
91.4314 106.4 118.299
62.598 66.0464 135.292
60.6237 250.671 100.695
86.5028 181.501 138.669
86.7045 77.5255 277.194
86.9542 36.9959 170.234
61.9286 48.2096 155.99
88.6969 171.531 230.204
105.478 208.262 206.767
97.6395 122.185 284.698
85.3313 208.686 211.006
64.0734 156.852 126.088
68.6113 220.779 105.258
106.505 187.827 247.025
112.552 117.956 224.286
61.2701 183.84 141.287
96.4143 169.247 200.487
93.6474 161.99 236.666
111.949 47.4159 217.203
82.1458 149.976 117.258
78.143 182.326 222.23
111.462 82.1801 263.13
94.125 263.798 74.1308
81.1014 107.366 114.588
80.7175 155.829 262.282
81.1129 172.007 164.323
113.227 171.898 207.322
98.9916 30.8877 226.904
111.055 80.8601 255.59
90.3955 177.182 188.462
112.317 87.9382 215.261
89.3365 110.664 230.924
76.2437 57.005 227.695
64.9549 162.31 152.01
112.682 124.011 153.147
89.6439 31.8247 175.888
96.1708 185.776 154.839
59.2231 99.8358 124.338
66.4361 60.0371 218.388
105.685 112.768 159.185
106.841 143.388 153.63
62.2833 54.379 177.563
101.135 134.802 128.229
112.447 79.6856 196.05
80.0775 64.3292 199.498
58.5534 105.227 130.189
85.6069 189.47 253.129
74.7269 73.754 237.601
113.563 107.354 225.972
93.0362 116.683 284.752
110.301 84.5608 204.872
72.0758 181.226 163.001
101.879 133.802 223.337
93.9535 50.2133 148.275
80.364 175.242 266.311
76.495 206.309 192.391
59.4184 165.099 130.178
77.8438 77.4082 272.439
77.6124 207.372 209.279
92.1752 213.053 198.054
72.9044 33.8867 167.663
69.7192 207.301 173.924
82.5872 78.7559 240.135
83.2932 199.051 238.847
97.7511 238.239 93.9868
87.1431 148.204 156.962
84.5468 250.961 86.2213
77.2561 27.0781 214.864
82.3106 164.012 163.263
66.6281 55.0055 187.722
109.638 75.7647 163.994
79.2041 32.1138 168.249
77.2254 193.708 240.892
83.196 159.758 123.645
93.3445 171.395 221.664
71.6295 185.01 228.883
60.2671 160.393 135.939
105.941 164.922 263.51
64.1399 185.175 151.727
91.8317 233.943 91.6707
70.0687 203.548 201.547
86.1706 210.508 201.896
114.338 115.527 161.242
109.861 54.7036 210.743
94.1568 152.307 138.107
107.251 82.821 270.505
73.1566 48.5518 246.359
98.3555 180.796 158.112
74.5004 240.051 98.6162
105.068 236.865 53.6058
63.1863 44.098 167.636
76.4385 187.134 211.659
111.705 97.3301 232.923
80.3539 205.134 77.5187
97.6303 120.699 175.523
95.0637 143.29 195.543
103.292 75.2504 151.232
70.379 189.837 236.113
98.4287 207.421 188.837
76.4126 198.765 90.9266
101.505 90.302 126.793
88.6225 154.268 128.308
103.126 157.443 272.773
60.6408 177.016 145.645
73.6628 101.502 112.061
108.61 148.369 189.039
96.4704 110.266 220.775
83.3934 67.7001 272.842
113.682 113.966 168.622
65.8291 48.7965 206.047
67.5434 50.8194 238.548
105.21 148.148 144.476
86.8973 85.2737 119.7
87.2757 80.6721 211.955
87.2187 210.357 180.275
83.9699 108.982 149.388
103.055 41.0937 236.125
92.9401 201.391 86.4428
75.3293 264.376 65.7126
74.9521 184.105 251.148
97.1233 250.145 87.8854
74.3261 57.0677 206.258
110.297 239.465 72.397
112.651 139.166 237.644
97.5851 127.293 196.483
76.3807 94.1068 244.652
90.9818 104.498 157.444
59.3841 244.921 57.467
66.5901 169.506 153.701
65.167 191.525 159.608
70.7887 210.959 68.896
90.533 37.3087 158.726
72.847 80.9896 260.129
75.633 43.8725 157.774
60.2387 96.038 132.296
82.5071 209.342 166.277
87.7352 132.651 124.581
105.086 152.502 152.017
93.7492 94.1953 184.406
89.7874 108.025 287.503
91.6534 223.778 71.5838
68.7403 41.6896 192.85
72.8739 188.579 161.535
72.7522 184.99 242.569
73.0106 67.1684 220.392
75.4297 203.175 222.417
78.7432 126.426 273.563
86.3042 32.7599 187.501
92.2378 104.019 235.503
59.7325 240.029 105.635
97.0092 105.4 215.479
57.9255 156.488 141.503
84.8294 135.02 281.184
112.327 95.0827 271.683
71.792 98.4529 258.661
87.5625 26.9418 223.164
60.2694 170.219 137.883
89.1804 176.122 180.213
77.8901 195.376 83.4799
85.9272 270.205 66.592
109.456 117.19 147.514
68.7667 135.337 114.997
76.255 71.2962 225.92
74.507 196.276 231.303
62.2195 136.841 140.74
86.2942 61.4288 132.948
89.0246 135.452 154.694
98.0272 215.792 101.154
77.9009 58.5922 247.822
62.9472 115.004 132.481
67.3297 118.824 143.999
81.8911 78.8707 179.415
81.8246 161.017 249.308
111.553 58.0277 241.296
85.723 47.911 144.686
107.222 141.212 202.313
68.129 129.461 147.642
94.5884 111.262 166.272
81.8836 39.0124 156.775
108.53 119.702 164.742
73.2142 123.842 148.68
43.5992 209.625 88.3281
96.4688 37.9438 168.703
82.5357 147.262 282.045
79.9928 123.379 148.991
66.4058 273.654 69.625
86.3542 230.363 89.405
96.8348 160.969 229.414
77.7836 144.454 274.677
93.5192 112.621 175.122
89.0813 208.767 172.381
110.71 56.4201 205.265
106.048 36.7999 216.509
98.2065 99.8553 204.509
115.577 140.283 230.458
75.288 115.185 147.64
103.627 203.135 223.373
71.7663 142.028 151.233
71.686 88.1222 148.128
66.6105 187.585 138.559
110.722 82.8324 160.633
112.724 150.05 196.281
109.819 103.276 158.439
107.955 227.923 85.1469
71.3599 37.0311 217.739
70.337 174.332 126.071
61.9072 85.238 137.266
63.4913 127.688 139.188
86.1468 175.872 220.62
99.7469 119.502 215.245
111.308 122.935 192.559
97.3281 265.855 52.3467
60.5982 149.559 145.926
78.2765 32.1091 200.178
94.6299 34.455 225.386
72.2595 89.7194 255.866
34.3059 234.121 104.785
92.0909 88.9334 285.367
114.124 66.7631 171.153
44.5325 223.365 107.441
89.9314 99.1305 286.703
73.9587 103.503 253.915
84.589 178.678 213.128
90.4114 148.141 122.4
77.125 147.408 257.72
101.347 100.837 140.808
70.6542 29.3111 200.073
90.1701 128.252 283.874
93.2449 159.754 273.511
69.0732 205.846 75.8671
67.7888 32.1273 182.675
113.825 62.3545 175.765
100.092 226.658 77.1727
82.2794 182.143 192.451
92.2407 205.142 218.598
74.5115 233.373 89.9169
109.737 72.1973 191.32
70.984 202.249 209.402
75.9676 170.57 255.425
78.4298 26.6722 196.563
94.2482 104.706 163.04
65.0843 126.478 114.07
96.8716 137.486 240.868
73.6521 228.828 72.4485
66.6674 178.431 154.314
92.1496 131.715 244.993
54.9129 146.314 128.112
80.7028 127.953 280.814
67.0695 38.7078 169.413
75.9011 219.082 105.729
90.0824 154.629 243.527
112.013 64.9787 223.491
88.4612 228.099 102.369
102.524 35.8761 232.348
76.4697 48.5808 147.769
80.0031 75.4311 173.395
109.211 89.9183 175.801
81.9084 29.6157 206.38
94.0231 99.1393 229.846
73.3133 160.843 157.794
85.6583 32.5609 216.317
63.3979 143.003 147.888
78.815 110.683 273.327
74.2982 260.224 85.8346
63.7235 142.724 114.161
79.1224 29.9947 174.17
104.989 158.771 153.652
94.4729 117.797 226.582
103.083 102.055 124.792
62.3285 124.419 126.406
98.2669 177.865 266.87
42.5989 253.27 102.434
72.695 196.582 171.155
78.4301 176.083 238.453
61.0319 59.7996 158.123
73.85 110.396 111.13
95.194 158.852 170.564
78.3791 38.5334 226.559
91.5479 139.566 244.801
82.25 162.944 256.069
94.2786 80.5776 126.823
62.4325 74.9043 137.765
55.3183 218.602 100.209
76.523 141.595 263.614
74.3511 64.1163 190.602
72.6593 64.2834 227.603
66.9529 42.8247 155.879
97.7149 253.329 81.8747
67.9894 72.388 153.84
111.646 112.742 195.395
75.5442 76.0857 164.442
75.4866 82.0125 238.159
109.27 109.616 166.267
100.954 127.04 130.119
53.0586 257.877 99.2841
37.0869 249.461 95.7091
77.4613 72.8813 199.482
64.6229 41.2386 175.07
98.449 124.482 227.471
92.5985 174.23 212.032
97.9467 113.565 186.399
89.9714 146.005 245.859
71.9522 199.171 216.403
85.1562 84.0483 175.669
78.5492 192.071 248.833
94.0625 110.941 122.652
100.414 155.641 141.62
68.099 78.1983 122.664
97.6992 157.08 135.669
54.531 211.279 94.7561
91.8193 144.937 128.554
71.3019 55.724 251.425
92.0129 205.719 166.74
93.3834 99.8583 221.374
109.583 115.711 153.681
82.7171 105.37 281.117
75.1046 78.335 173.781
76.4241 197.454 148.435
110.203 73.47 175.216
78.5249 88.5565 251.855
56.0361 139.66 132.023
73.9766 194.508 185.655
100.116 226.515 44.6896
111.672 99.6206 152.594
94.8444 36.4395 246.222
60.8261 114.115 118.147
90.3466 41.8667 242.509
92.0283 125.538 244.091
89.2166 125.521 158.024
106.664 245.882 73.7165
98.4131 123.196 210.159
80.2441 183.172 133.524
55.7675 154.097 130.525
113.323 147.692 256.755
98.1474 46.0564 156.177
67.2769 271.029 85.1941
71.0108 63.8945 246.232
64.7286 62.8006 192.247
74.7257 167.273 122.475
74.214 66.7458 184.121
97.5967 34.3332 204.002
75.4353 111.525 256.478
103.545 178.542 256.385
98.9782 264.51 65.9963
94.3305 94.6517 216.997
90.553 143.935 281.128
71.0408 207.148 162.489
104.053 91.8885 281.269
87.8206 41.2689 253.463
99.5842 108.552 123.188
72.2254 64.8124 126.723
82.9764 70.4891 267.336
112.687 141.58 251.596
72.0735 157.88 124.885
68.3404 260.82 61.0934
81.1499 48.238 145.061
77.2566 29.3381 224.946
82.4032 164.654 273.208
86.5676 88.5911 166.199
32.6907 244.513 103.728
79.0178 107.897 266.2
106.309 176.025 260.034
104.837 53.5464 156.326
69.7094 51.7908 140.326
81.4969 78.742 229.992
97.821 168.374 268.553
113.202 92.5083 261.129
57.9262 226.416 110.665
56.7175 121.593 124.247
74.0357 244.581 71.5238
109.693 92.9217 167.488
54.4533 274.628 78.4499
85.1323 156.306 278.669
66.3795 100.577 113.961
57.1177 251.959 71.0423
77.3728 67.3139 131.779
50.3996 250.778 93.6015
112.387 121.517 201.838
78.803 88.404 116.653
111.576 116.41 262.951
92.2887 123.763 163.908
84.5696 186.315 184.769
82.5857 54.8894 138.926
65.1639 61.6339 181.238
97.1936 218.521 60.3803
76.1852 190.779 189.964
91.7295 201.799 97.9113
72.7933 73.027 252.33
78.0056 269.531 80.0884
108.22 78.4183 185.816
59.3612 228.086 91.8797
86.1271 82.1695 200.012
105.213 138.187 138.572
97.7118 85.9532 124.814
85.5359 23.3609 199.657
109.763 61.6361 204.72
93.9217 136.817 119.281
72.2427 93.9853 144.662
93.9063 120.56 169.141
57.7992 149.333 121.264
78.5287 265.739 54.1863
94.3595 153.545 237.857
79.1931 117.494 271.411
106.477 59.2938 173.254
78.2287 181.769 258.702
72.3342 74.1405 185.791
62.361 216.041 76.144
89.2822 88.4082 175.469
61.5184 111.245 138.206
85.5028 32.5968 239.897
69.5315 199.235 180.772
108.024 88.2301 163.571
112.069 73.9082 151.689
102.685 242.283 45.304
96.3606 144.04 204.97
98.5639 144.645 137.208
68.6462 71.766 127.815
85.1986 217.162 52.7055
74.1816 173.985 160.318
71.4454 52.6022 226.592
114.165 194.475 191.405
103.307 61.683 262.721
94.8623 126.191 239.147
105.414 236.322 83.6039
80.7998 51.3908 252.506
78.6934 162.183 126.361
92.5783 136.187 125.55
88.8 138.093 250.119
77.5815 234.229 79.8917
99.0128 165.046 207.892
91.4785 215.003 57.1182
54.5909 149.35 139.507
111.145 106.32 259.522
99.9992 113.373 119.528
61.6496 256.301 63.8477
86.2637 123.862 151.638
82.1991 250.436 77.252
72.3411 112.997 264.446
80.6156 141.195 255.22
60.1065 203.182 76.2772
82.6811 211.695 83.481
91.6601 166.086 168.905
58.6714 258.941 86.4932
88.3531 94.968 172.255
87.3383 105.921 114.763
68.7974 113.064 117.072
63.0099 209.865 91.6417
78.526 46.1525 243.048
66.2569 38.2385 199.033
61.3192 65.3278 151.402
113.643 83.5072 186.057
73.4833 35.1483 160.254
86.7829 130.689 251.818
74.0066 55.6051 242.904
80.1331 84.3088 170.923
108.925 143.905 263.853
109.643 133.98 262.075
74.4076 76.0178 257.624
81.8171 217.93 68.6778
74.0985 68.1983 234.47
86.9787 178.249 200.415
94.272 149.815 163.961
75.6784 29.8204 186.167
74.981 56.2478 141.128
74.2228 75.9973 246.51
50.4695 250.364 103.411
54.8385 164.304 134.369
80.9479 63.0685 128.265
61.8524 120.057 139.388
90.0244 249.126 93.6281
110.184 84.1279 171.398
94.6892 99.8529 174.139
109.633 176.738 198.338
72.2195 41.7844 241.016
86.1392 221.65 59.153
96.041 238.538 77.3366
100.759 117.893 220.807
82.8092 32.6857 231.178
35.4476 243.309 89.2942
111.86 97.531 250.655
70.0011 72.4799 245.849
89.6208 79.0891 195.967
82.7309 258.679 49.3706
73.2406 75.7382 265.581
70.4463 169.564 159.855
83.6661 176.964 169.1
71.8025 208.341 105.392
42.4777 261.732 93.7846
69.2339 197.12 189.5
86.252 126.785 249.106
83.3258 115.559 263.744
93.3722 138.024 281.735
61.9046 215.586 108.419
66.5649 244.168 82.056
78.2437 17.9502 235.923
47.4415 268.087 85.8084
85.3024 232.033 81.2173
75.4283 68.4318 269.103
78.3187 234.831 71.3572
72.7176 236.717 73.8042
56.9975 260.596 61.6978
70.9345 32.9254 221.977
86.6748 259.655 83.439
51.5313 228.887 72.0536
83.0605 233.871 72.6671
61.5221 129.763 119.676
85.2307 243.798 44.954
59.6812 143.747 136.87
91.4266 110.529 249.338
64.9077 73.9365 148.494
46.8685 211.576 97.1157
39.4897 258.635 77.0312
46.5298 217.928 100.726
105.966 134.837 271.841
39.259 227.61 108.15
72.4469 100.191 144.597
61.7637 77.5055 125.94
57.4951 140.842 141.477
82.3802 84.1474 164.627
96.8944 224.536 63.5556
106.426 165.796 234.866
81.0039 89.9703 266.093
107.355 116.329 138.77
75.486 106.199 259.688
58.5995 203.568 44.7397
111.665 170.365 201.388
81.1354 40.6268 238.527
72.5122 245.128 80.5667
109.646 120.911 258.489
107.023 125.978 263.665
82.806 82.4177 191.102
60.4109 68.6807 145.084
79.5284 224.759 71.5964
62.351 87.7679 128.51
77.2082 66.7768 258.017
71.8217 79.74 153.068
79.3972 247.976 47.9239
80.2512 84.6588 266.926
99.4427 154.515 152.248
87.8821 101.941 250.318
