ply
format ascii 1.0
comment Created by Open3D
element vertex 2021
property double x
property double y
property double z
end_header
171.209 108.19 235.736
173.919 180.325 110.75
171.45 88.0293 162.073
192.149 180.555 80.3464
157.514 64.9877 290.264
191.909 232.99 110.82
188.431 254.396 107.872
187.956 51.6803 166.655
160.48 240.345 63.2874
191.255 234.882 217.317
185.296 237.86 266.186
164.514 203.099 93.5454
183.494 141.643 296.406
166.676 196.93 197.893
167.728 181.441 92.7146
180.21 39.1904 146.101
183.673 272.401 194.914
143.363 189.945 288.735
196.513 153.112 93.8664
163.871 187.919 204.505
190.25 185.5 288.547
181.701 191.619 258.259
189.22 148.258 279.625
189.995 95.7292 266.307
196.622 117.551 120.16
164.982 58.3829 195.897
189.395 195.562 144.647
183.478 171.594 249.155
187.011 57.9313 244.02
180.631 300.291 178.306
171.268 114.107 230.997
173.177 223.22 152.208
186.227 267.151 258.803
186.094 276.653 221.521
173.566 257.836 91.7671
174.41 48.6048 259.452
190.185 245.859 104.315
170.099 123.808 123.372
152.258 231.559 258.937
153.715 128.957 81.4141
192.084 128.668 238.684
188.002 130.765 273.144
132.706 278.594 200.086
192.237 92.1635 159.241
179.036 246.801 92.339
161.734 62.0062 144.594
163.65 65.0131 214.145
198.212 118.081 100.583
183.264 154.841 61.9048
161.104 175.528 248.164
165.947 218.693 229.815
162.167 225.955 299.166
168.868 213.943 297.018
141.638 230.21 94.7369
180.579 35.5436 204.767
110.703 132.657 313.579
188.603 242.34 170.875
169.259 123.922 58.6367
150.269 162.661 294.04
159.731 245.673 217.311
169.123 218.056 158.199
162.193 231.501 59.6979
185.453 285.019 216.849
132.554 84.6084 292.191
170.579 108.948 212.657
188.355 122.466 234.142
167.579 214.4 108.078
117.853 157.007 340.216
146.721 72.6802 297.857
173.161 240.62 185.203
196.662 148.205 125.805
171.292 91.3968 138.696
162.119 49.9847 154.529
186.08 42.7664 224.62
128.744 308.395 152.244
189.094 132.205 248.464
134.173 79.4127 298.266
189.016 165.431 70.5988
178.258 269.599 266.383
139.658 309.836 243.402
181.851 239.019 87.0715
143.568 63.9807 270.21
190.412 57.4609 203.465
193.004 150.963 270.998
196.064 136.645 111.741
145.451 185.755 47.792
166.716 145.416 216.529
198.437 140.542 145.14
194.027 151.54 184.505
188.243 66.081 243.138
195.982 148.228 170.324
165.588 138.362 230.33
192.724 201.161 120.939
160.615 42.1556 180.237
134.918 172.534 340.117
108.237 172.757 335.668
180.366 36.4074 223.526
196.469 171.125 140.068
193.571 127.218 263.703
182.947 187.222 64.242
194.857 107.989 193.749
143.338 276.711 289.995
188.627 270.036 217.053
161.91 88.1526 253.621
165.878 309.557 187.795
191.863 195.468 89.3882
168.164 78.5645 223.035
193.386 75.3516 174.475
149.748 268.259 290.272
164.109 163.71 225.365
164.789 164.361 235.631
179.295 54.7496 254.603
153.428 108.506 76.5663
193.457 69.2072 217.328
190.496 249.79 214.453
169.607 294.325 155.143
128.05 148.512 295.96
189.747 119.588 257.283
182.756 235.259 255.203
174.914 234.205 173.607
188.75 172.615 99.3824
196.057 130.556 165.328
181.646 161.446 267.113
171.838 198.536 136.142
189.497 246.25 158.756
148.976 130.453 326.709
163.09 269.358 281.979
169.995 128.193 110.999
168.026 247.369 187.583
172.093 303.48 177.53
173.772 166.641 308.978
188.388 265.227 234.819
169.095 235.397 200.112
192.578 126.949 227.943
169.341 118.377 214.175
159.31 204.389 49.8632
132.729 310.004 240.314
164.365 235.222 215.772
194.504 148.662 80.2398
168.588 219.064 302.935
164.941 109.547 63.8311
161.217 257.147 75.9088
187.298 195.986 196.885
194.149 99.1674 189.353
175.921 95.9425 286.791
179.78 128.22 295.82
196.836 116.696 167.289
172.1 87.1752 78.9457
162.526 69.0219 102.619
141.472 75.3849 303.455
144.569 99.9258 324.299
161.964 306.344 231.531
176.448 296.964 242.846
126.67 141.071 339.348
160.992 265.128 85.6649
118.935 202.083 300.9
193.654 178.786 107.853
176.866 133.471 301.444
188.198 104.105 90.7983
168.532 95.7587 120.582
136.684 313.313 201.747
163.998 247.774 206.748
129.175 238.54 54.7277
140.964 73.2552 272.875
166.648 184.661 138.458
162.362 63.5606 176.244
167.607 120.297 133.311
139.991 181.937 339.583
162.685 237.834 299.415
173.229 228.821 176.118
169.285 308.291 206.928
194.1 187.988 130.178
154.146 46.0625 235.636
101.554 189.999 324.591
168.954 61.3065 106.542
193.6 239.283 211.408
163.217 191.71 221.9
169.12 159.163 310.766
137.142 244.658 302.403
131.803 280.163 76.0715
148.682 271.37 84.6884
159.717 211.508 313.969
193.51 223.864 116.462
161.395 81.3537 88.3902
159.484 49.0164 203.395
186.957 133.827 283.39
113.459 282.6 86.8054
152.81 249.66 138.65
157.562 152.733 83.4308
160.641 131.733 86.5886
184.836 108.768 283.627
171.866 96.4573 132.343
192.523 98.2522 204.963
104.189 165.959 328.529
166.826 304.27 167.26
164.73 194.182 91.7468
189.303 123.991 247.765
166.903 247.389 160.063
164.647 249.737 75.4571
170.482 111.057 162.566
161.831 174.984 240.106
159.672 168.421 47.7809
145.634 62.9423 283.872
158.245 228.916 306.524
136.799 294.681 107.919
144.534 248.804 62.654
166.288 46.8611 258.753
158.744 209.811 95.2181
193.286 213.88 128.866
167.897 215.816 63.6596
167.266 83.1441 140.887
162.433 241.873 188.602
182.237 290.86 156.84
137.744 204.483 50.1375
177.395 191.968 301.163
167.109 217.288 182.681
166.303 206.698 235.251
195.009 161.998 169.851
138.89 275.499 181.22
172.688 145.504 54.3165
165.748 150.086 225.072
169.481 258.61 283.327
155.747 260.806 188.036
197.159 146.26 98.8468
180.371 77.4033 89.6966
96.3786 295.919 114.975
167.821 32.139 201.941
180.918 248.798 278.353
165.154 206.809 212.737
158.157 120.181 322.339
120.788 109.665 311.019
184.971 252.32 138.434
115.405 311.708 134.837
146.539 93.9171 319.089
175.062 85.736 212.019
190.436 250.16 190.371
115.554 213.328 332.35
185.418 104.544 81.8984
160.266 58.8199 209.539
161.81 218.345 103.914
169.241 110.362 154.282
188.764 117.672 78.3361
196.008 110.759 117.87
197.267 147.799 149.761
165.217 232.694 208.927
184.819 184.601 74.5288
181.742 287.95 204.453
166.367 197.591 206.062
190.363 170.827 79.5616
186.464 46.4461 230.935
186.751 93.7325 272.717
167.089 204.09 161.026
142.881 254.449 117.304
119.565 310.678 127.289
164.539 53.8629 271.02
170.971 93.5151 167.592
192.613 63.2587 190.678
164.225 177.121 255.09
174.993 99.5062 72.5195
193.005 158.058 275.802
164.29 33.9577 221.726
168.488 237.608 155.735
185.127 94.3815 83.9814
152.576 54.5334 235.897
130.053 164.978 341.977
163.743 160.062 259.101
190.768 106.012 107.758
160.49 50.1493 164.232
180.97 274.886 137.943
160.972 58.1594 151.41
100.369 302.678 119.364
104.505 160.513 315.526
156.416 166.177 323.903
166.088 64.9852 221.579
180.963 278.514 150.693
163.269 189.364 190.41
160.425 136.807 319.463
153.361 195.283 86.1991
119.929 115.143 319.022
163.539 206.443 261.619
189.414 217.325 205.158
162.67 48.6311 187.812
164.112 236.168 180.872
173.663 209.931 133.654
144.596 213.002 48.7783
169.082 122.549 254.461
168.624 115.254 141.723
163.862 254.955 160.255
174.186 106.415 296.649
136.775 89.6591 281.843
191.84 223.631 218.038
156.66 300.194 145.121
198.042 140.046 132.632
156.936 304.347 258.74
160.054 253.215 289.522
191.387 67.1553 233.809
172.784 181.293 100.735
193.989 83.0878 182.783
167.042 238.102 165.905
194.061 76.253 213.776
174.34 91.7644 195.208
168.521 125.166 243.233
157.117 282.692 107.2
174.171 233.862 187.338
165.438 88.3377 245.354
165.08 291.111 136.622
197.806 133.2 118.345
195.515 136.307 100.59
195.389 118.698 130.845
150.772 288.616 116.7
177.032 44.3338 251.504
120.924 177.714 343.044
167.173 201.438 179.156
183.354 222.211 232.041
148.318 283.683 100.452
193.733 73.3584 148.661
194.826 70.8162 224.909
193.216 239.232 198.072
189.349 71.1743 250.984
135.966 284.828 91.91
111.606 143.997 329.202
163.625 57.8447 220.748
180.693 33.5207 195.856
139 225.904 88.0021
164.123 118.978 60.3189
192.115 110.116 100.402
172.841 198.442 115.029
117.627 313.458 142.574
192.555 79.8848 232.198
166.236 225.582 63.9039
185.994 196.328 82.9485
186.571 273.868 208.427
153.157 305.654 160.548
184.385 234.236 241.521
162.92 142.256 52.566
189.066 54.8673 231.144
142.243 301.516 264.968
173.899 292.659 253.47
196.72 112.608 178.555
163.563 64.0723 168.537
189.895 258.132 145.632
123.162 261.954 108.952
159.925 261.292 169.257
161.17 312.473 223.817
110.562 296.822 100.12
166.15 159.97 120.996
139.995 110.183 283.394
144.275 313.571 193.114
185.938 283.838 183.097
120.953 297.493 97.5906
170.64 298.861 241.181
165.459 97.0252 308.731
111.898 284.803 287.247
170.586 119.085 246.865
188.21 238.621 191.093
131.44 303.7 128.242
190.364 146.178 214.79
108.044 150.817 324.497
168.938 304.306 235.517
134.184 215.268 50.5606
132.918 277.621 182.823
178.26 286.724 247.465
105.424 276.673 109.184
168.765 83.9477 133.91
169.79 151.824 99.9846
158.395 179.783 282.702
170.395 191.751 97.4537
158.993 128.126 170.158
164.919 75.6839 144.685
197.428 147.285 133.654
161.613 63.2338 131.195
171.334 114.086 62.7799
190.931 180.124 177.18
188.485 83.3274 98.1779
154.662 140.533 319.371
192.735 156.912 189.87
172.697 242.2 153.311
186.173 230.171 87.9861
177.304 307.707 216.813
125.408 234.728 317.533
161.925 81.2387 245.52
194.166 78.1763 225.378
136.448 299.326 114.778
171.828 218.084 128.95
133.476 313.235 180.865
129.172 267.866 121.157
170.827 214.711 151.118
170.483 143.913 312.796
173.422 226.33 138.192
196.258 138.323 93.8525
169.527 87.8533 147.127
162.472 60.0093 281.075
163.758 36.3695 212.855
195.929 129.288 108.68
184.035 130.453 289.615
185.108 142.233 256.312
134.218 82.3088 284.89
127.883 226.551 75.8382
171.562 111.07 136.859
120.057 286.52 179.589
187.252 217.331 252.04
147.079 141.839 61.5517
150.595 123.52 324.784
177.988 100.556 295.552
188.609 75.0009 110.295
185.272 199.254 206.398
156.144 286.859 272.664
186.892 52.554 237.385
191.423 69.9051 139.988
160.566 239.521 219.539
173.531 210.94 122.027
142.724 226.904 52.7634
149.544 125.236 68.6161
147.265 134.347 66.8996
179.39 253.372 91.9843
168.266 250.232 199.107
132.874 268.681 295.699
160.78 38.6497 225.62
194.983 193.26 113.512
126.912 307.999 124.77
128.299 199.902 336.344
161.188 41.043 239.95
154.066 142.973 282.046
193.897 237.909 180.455
162.477 172.184 204.149
186.243 277.34 144.717
134.139 269.365 224.843
181.969 208.653 76.0924
186.301 224.69 239.568
160.069 104.397 69.521
143.336 235.401 264.501
151.462 286.567 109.089
144.393 70.155 265.052
111.951 281.958 136.762
183.506 72.1621 100.879
187.511 142.925 287.82
114.259 260.642 306.778
131.086 300.176 107.566
154.144 119.549 63.1874
196.945 151.773 139.495
107.814 157.118 331.275
170.585 101.266 240.795
195.853 127.561 183.102
121.209 302.75 106.793
120.53 236.493 60.9369
166.145 236.398 122.227
159.408 103 263.954
151.711 212.899 315.396
186.684 192.335 298.606
164.34 165.601 214.732
192.553 108.038 166.252
166.261 159.736 266.852
193.24 60.5035 216.407
195.219 157.472 100.768
171.108 281.976 140.279
170.77 212.013 114.698
167.672 95.8447 301.537
180.855 192.462 69.1627
164.833 205.798 56.7905
155.581 97.1275 83.3653
167.926 310.607 226.29
173.203 86.369 220.04
183.262 43.4892 206.884
180.397 161.794 61.8463
191.793 200.563 95.1439
193.479 70.7297 159.09
146.073 212.438 87.4538
170.908 103.752 151.667
170.324 109.637 120.336
134.767 306.635 137.891
164.535 117.354 171.186
166.979 283.591 116.798
137.215 88.3611 315.22
111.717 314.669 157.107
189.531 247.935 198.139
180.098 214.537 293.248
189.752 215.958 223.899
181.066 136.547 291.47
166.723 286.69 273.299
154.603 147.589 330.563
166.628 190.459 178.802
155.449 134.868 327.775
186.601 60.2054 252.011
170.633 121.403 229.153
165.831 153.936 232.077
135.368 229.453 284.967
191.18 193.011 96.835
192.295 71.6694 208.12
184.329 182.055 244.219
168.63 212.113 196.492
125.01 307.679 142.419
173.262 106.274 129.387
176.405 277.396 261.691
187.251 264.147 146.632
143.818 295.839 123.239
193.689 158.801 78.4775
191.236 153.51 199.861
131.619 242.608 94.6645
178.176 173.789 61.9103
124.747 256.869 254.13
169.702 225.232 124.347
168.399 40.0904 245.904
188.786 42.9838 209.677
194.263 160.995 94.1361
170.716 186.733 122.773
159.12 262.715 177.996
140.278 81.8646 310.528
163.599 223.104 112.265
197.643 141.38 105.821
113.3 151.517 334.365
165.456 65.4823 189.918
162.358 238.394 128.614
190.051 148.301 203.243
179.901 174.821 270.699
172.394 204.22 306.101
183.729 251.799 100.908
191.053 57.2319 224.54
195.313 137.035 233.493
166.045 191.166 152.312
164.775 151.124 266.432
157.811 47.914 215.315
174.549 301.923 183.668
194.454 174.989 131.672
152.802 249.079 65.4919
144.998 220.186 89.1716
167.358 229.364 137.039
168.472 254.512 82.6687
194.044 81.6012 218.081
159.391 101.798 311.447
170.884 45.364 136.859
146.698 63.8389 259.199
150.376 166.777 328.222
195.284 194.452 139.134
131.228 147.713 340.847
186.888 82.9589 262.586
183.535 271.12 246.449
131.398 216.837 70.6468
161.245 172.859 233.495
116.321 257.095 68.9203
165.633 234.407 67.6943
156.29 271.425 89.6172
105.825 302.71 110.483
129.282 221.971 326.83
161.288 90.2361 80.0699
135.866 196.179 55.8794
165.811 149.067 237.956
147.262 268.298 168.186
179.428 103.692 75.456
117.871 290.033 85.9649
132.336 309.981 160.316
155.88 105.741 89.1683
179.961 66.1695 102.944
193.325 89.6409 136.208
177.209 223.107 284.553
170.542 240.211 286.726
106.776 313.714 133.566
154.141 172.379 287.263
176.098 261.363 98.9099
168.258 188.056 131.808
184.409 123.017 283.629
156.182 249.051 121.976
126.156 230.524 61.0086
182.708 87.1737 81.573
141.55 230.277 270.282
171.844 76.8285 168.821
114.12 264.128 101.763
93.0426 292.119 183.33
150.803 268.185 180.922
118.862 244.951 79.7955
158.144 303.966 152.122
120.449 120.162 326.46
164.503 183.643 146.953
164.643 182.177 172.413
145.614 217.615 317.032
171.107 166.099 52.3925
127.838 302.786 118.283
198.006 152.782 109.795
129.707 264.227 67.6631
132.907 223.313 80.5198
171.112 269.392 274.603
162.623 140.336 127.975
190.703 235.457 98.2272
164.514 90.0959 115.878
187.721 286.878 200.427
191.247 223.004 138.14
161.687 182.178 192.704
188.336 280.073 171.888
184.5 179.267 299.105
190.088 78.6516 125.009
140.204 305.649 252.534
166.807 83.6036 239.843
173.928 29.2534 209.021
168.623 242.636 194.27
185.349 69.7115 108.562
154.484 199.738 322.612
145.777 76.5583 262.893
185.487 149.828 226.963
160.309 246.62 66.8148
153.627 117.314 318.227
151.123 309.197 228.715
166.356 153.101 214.447
179.376 188.72 227.336
184.696 235.033 210.12
165.988 197.681 165.982
155.807 189.014 287.724
195.236 162.594 86.8371
185.24 214.034 172.223
169.379 133.876 61.176
160.99 73.0233 293.714
133.86 143.396 295.733
164.76 180.448 268.329
170.743 138.219 55.516
154.251 102.224 79.4294
183.559 149.689 295.154
185.099 72.8953 261.183
154.209 84.2231 307.663
153.589 310.076 170.064
185.826 288.301 193.134
149.054 57.2817 253.221
124.98 108.616 319.446
156.013 46.2269 259.08
143.373 309.24 228.991
197.313 153.857 116.396
161.839 281.602 276.727
162.647 119.883 182.448
166.014 151.328 245.509
184.266 52.1183 194.9
164.533 171.476 90.4255
158.845 232.645 106.626
180.544 299.655 213.488
170.329 240.857 130.897
166.711 69.6606 176.594
189.034 64.5464 127.701
193.195 182.033 135.751
155.823 151.895 284.838
183.944 206.937 186.372
186.114 261.758 248.84
194.64 119.807 88.1512
160.251 307.684 239.973
191.098 216.443 90.9379
163.505 180.716 203.936
156.399 133.133 162.005
162.343 213.539 263.586
136.337 193.934 69.3559
194.751 76.0371 192.178
169.087 38.1888 152.594
140.068 270.986 294.467
188.645 47.8879 221.147
159.518 158.526 144.812
188.528 101.819 100.243
134.236 113.611 286.665
141.613 262.929 130.658
153.071 255.704 123.078
150.913 225.871 263.179
171.07 230.749 146.031
146.915 312.38 184.651
144.18 262.581 294.457
163.299 150.494 91.3103
186.066 256.016 241.272
194.839 177.516 93.9082
173.09 300.073 223.347
180.324 303.91 208.755
183.453 284.533 146.314
162.104 103.213 105.187
116.28 240.584 311.665
159.116 199.859 269.329
171.134 240.024 77.5013
167.917 32.7758 186.492
111.396 314.297 144.248
169.976 130.704 207.8
131.116 210.035 57.5229
166.556 157.696 93.9
190.819 72.6957 237.745
198.215 133.042 139.736
191.16 89.7685 93.7611
194.935 171.414 105.646
143.146 160.967 336.19
157.281 242.932 235.959
159.42 167.024 156.904
168.359 196.713 156.142
151.203 245.74 239.326
164.117 72.4355 168.828
149.07 289.921 275.952
190.129 80.6335 103.913
193.801 214.741 166.111
193.251 82.5635 238.861
181.029 203.46 293.756
131.257 91.8941 289.876
155.534 48.0956 228.283
135.576 267.065 120.154
166.165 193.808 55.3135
191.978 67.2712 150.718
89.2095 269.678 287.582
164.553 176.546 132.359
151.935 94.8459 268.875
168.045 200.371 59.1019
171.941 241.58 175.028
187.032 229.459 155.348
118.728 219.333 328.685
138.401 261.807 233.178
135.924 129.668 337.438
104.022 286.33 175.62
120.435 285.121 80.5104
182.891 284.868 238.28
170.902 83.0947 204.121
150.095 161.135 331.039
166.789 224.455 207.64
198.078 125.289 103.283
193.73 69.8429 193.497
158.153 311.855 215.842
195.583 98.7536 177.301
188.354 59.9981 186.707
192.285 229.027 183.038
172.984 101.625 204.34
162.64 184.238 164.986
104.158 190.944 333.234
134.668 158.402 341.019
186.067 205.439 160.788
162.119 54.5835 170.302
172.529 174.397 105.012
197.909 139.993 123.466
154.268 182.252 47.0134
157.968 193.134 46.7413
91.2308 259.743 298.605
170.889 191.554 143.772
187.541 94.5257 259.715
114.528 302.988 104.173
195.255 227.197 210.872
126.503 272.461 127.965
143.18 273.603 200.444
170.402 86.5278 190.849
142.399 247.557 107.972
122.282 187.249 341.323
136.022 120.951 289.027
174.545 84.9414 169.166
168.546 31.5721 213.903
165.651 197.562 257.059
184.326 225.633 212.219
147.689 260.239 218.507
127.903 285.434 287.636
174.42 233.178 74.8113
193.713 168.082 91.6635
102.979 169.586 316.811
190.701 54.0977 182.424
179.648 173.361 265.206
186.504 237.372 140.915
151.107 296.643 135.904
146.838 180.296 332.59
158.29 87.4114 94.0784
152.155 238.513 54.0979
177.598 46.3995 241.966
144.163 290.682 110.095
183.651 292.822 197.504
193.831 236.491 167.06
140.836 253.266 245.192
162.777 50.2151 143.052
160.505 74.9495 240.244
118.645 313.601 186.378
129.104 210.299 330.047
128.942 89.629 301.983
190.005 204.022 133.233
191.858 93.6544 110.667
105.912 279.289 94.2676
137.149 309.863 232.276
152.982 311.336 201.822
191.326 51.0412 192.644
194.812 104.445 139.912
165.919 157.02 251.665
167.593 218.72 215.331
167.517 218.169 205.751
144.205 250.74 297.009
163.576 186.893 48.9453
172.862 47.3641 126.916
193.292 78.62 145.023
155.878 259.633 203.258
150.49 192.527 45.6886
186.781 250.483 129.419
168.195 129.144 231.48
161.678 171.254 274.755
142.53 68.2333 290.823
138.053 280 80.7497
131.583 260.212 111.75
104.406 286.235 190.654
173.101 189.832 110.957
125.734 264.746 241.629
116.365 310.624 151.931
146.112 220.458 48.8738
160.654 45.6995 172.436
166.036 135.757 92.2023
157.822 90.8953 87.1623
153.194 278.583 100.893
184.258 69.0773 125.624
131.271 210.524 292.777
146.291 307.97 249.548
175.559 114.61 295.186
191.251 93.1039 209.68
160.308 253.137 193.617
157.89 248.185 200.881
137.048 315.234 223.305
162.142 185.166 88.1853
189.643 50.1419 203.858
182.579 200.104 232.78
160.404 55.1934 158.747
157.006 120.909 82.3486
165.153 164.468 90.0688
144.977 314.056 236.965
157.26 285.724 116.548
167.814 117.255 151.469
154.693 223.838 101.372
151.85 114.357 68.9606
127.871 158.479 301.854
159.49 134.9 281.107
133.97 206.071 332.757
167.924 74.4176 290.559
186.43 86.3576 267.949
130.339 292.292 280.242
174.242 219.531 68.6417
193.564 100.653 244.195
191.659 229.351 147.816
190.262 241.877 117.494
170.817 79.4585 159.631
142.42 301.044 140.386
161.149 129.477 276.433
184.647 38.442 164.715
188.417 84.9816 110.159
143.239 159.712 66.9793
118.842 207.422 334.926
155.391 241.716 301.722
186.611 282.154 209.875
119.138 268.571 301.91
112.554 134.903 324.66
123.553 281.366 164.956
135.606 110.633 327.6
160.006 175.662 86.9638
138.747 244.953 260.64
162.717 172.084 225.817
188.597 181.145 199.056
186.281 188.721 155.607
189.527 99.2271 254.974
143.681 106.989 325.648
168.859 276.412 110.765
195.853 162.184 108.477
147.646 81.7299 312.036
139.012 204.528 328.012
173.719 33.7209 160.586
167.852 64.0206 182.882
196.445 165.563 146.513
186.807 245.497 122.907
137.74 276.741 159.347
160.521 177.073 47.0682
140.453 316.631 214.817
120.459 272.944 119.526
135.358 139.063 339.327
191.032 156.118 264.49
124.309 233.218 76.6274
144.723 157.569 292.796
170.922 102.382 124.452
143.152 288.313 103.841
110.055 279.672 223.465
163.744 165.686 206.334
153.607 164.361 51.7607
166.837 133.338 246.13
164.337 257.871 183.131
183.974 167.253 293.943
170.612 116.025 302.075
118.494 133.562 333.691
188.562 88.7579 253.233
136.606 212.195 326.344
194.632 98.1311 106.178
154.684 242.561 123.079
170.618 89.6052 296.148
185.625 185.475 261.891
133.239 230.519 52.6225
133.559 226.105 319.009
147.938 146.479 286.976
145.935 202.642 322.11
176.666 141.948 262.77
173.937 29.8971 187.309
127.469 97.6463 308.792
148.162 224.877 95.7285
145.363 97.6492 274.062
179.735 40.6021 237.714
191.426 222.248 101.231
178.633 113.599 65.0467
168.481 54.2709 117.281
128.892 304.574 263.412
171.591 127.283 222.407
172.004 76.6596 84.9136
143.508 151.956 64.6173
166.339 292.934 264.073
124.275 280.001 76.168
102.712 309.566 131.298
128.729 256.277 104.423
139.324 221.175 49.1543
139.007 166.316 339.077
176.333 293.139 148.382
162.596 58.8749 121.248
163.318 211.105 100.798
121.822 268.843 115.693
159.711 52.78 196.406
125.762 102.744 314.666
165.96 72.4503 156.026
165.935 308.765 219.763
162.496 110.998 315.206
167.662 296.586 144.366
151.709 230.523 102.35
159.924 230.982 237.341
152.34 169.92 79.6585
99.9064 280.081 227.384
168.916 198.963 145.901
158.615 307.023 186.195
157.09 218.088 265.427
130.181 102.182 320.021
138.64 178.226 63.7746
150.576 70.6016 257.332
153.772 198.232 279.464
154.978 45.7148 243.677
196.309 168.142 133.099
161.894 256.904 200.066
121.865 181.494 299.474
161.739 184.332 241.602
145.464 267.792 151.305
149.428 188.29 79.7469
183.473 295.388 229.324
177.638 59.3234 107.552
183.42 90.9131 94.4628
127.911 286.336 85.5123
141.526 288.707 276.287
139.459 308.994 163.394
159.094 311.819 194.254
162.179 106.317 96.8191
163.067 229.93 230.948
167.623 119.465 311.117
125.53 273.906 69.6629
147.817 170.737 331.831
159.765 129.272 316.889
159.822 274.089 103.025
160.908 136.802 312.169
95.2197 271.573 253.648
143.89 158.349 58.3966
178.195 164.211 153.029
162.111 197.791 52.0413
192.338 94.0542 117.682
193.838 161.398 155.25
138.758 274.662 167.62
172.512 43.7721 243.472
184.901 205.85 179.876
186.97 151.488 70.1207
160.748 51.812 210.567
185.916 228.668 269.106
166.934 167.252 123.797
143.524 274.237 189.161
143.005 207.267 287.201
136.358 300.759 122.053
134.392 252.515 253.133
159.863 92.1374 309.601
127.013 281.339 185.651
172.058 109.596 242.937
132.934 120.718 333.73
147.788 113.556 321.124
120.122 147.36 339.108
139.098 191.275 49.4802
154.414 91.7461 263.282
188.873 268.577 196.752
146.793 228.416 266.94
95.3866 256.98 286.25
187.191 224.102 194.49
195.664 153.593 86.2964
134.736 130.889 290.218
157.611 145.985 53.9567
197.201 121.038 186.97
175.916 241.969 82.3443
185.574 158.411 281.307
196.651 116.89 112.856
193.139 111.782 154.682
188.507 114.514 169.242
155.643 191.078 280.637
166.439 305.639 180.618
97.8075 319.766 183.398
162.447 183.731 249.554
194.334 123.148 81.7447
166.881 128.535 250.314
167.72 132.198 238.195
147.861 301.75 260.429
107.064 182.877 335.766
162.079 54.3193 185.709
171.154 159.052 106.159
165.256 137.689 208.658
176.635 54.874 115.05
141.869 125.569 291.274
178.341 81.6433 83.3273
129.26 313.969 231.535
187.475 161.097 224.748
145.644 279.067 88.0177
156.449 137.623 83.3763
162.336 58.8341 180.725
157.331 71.0221 244.145
143.575 200.235 288.162
191.69 209.283 192.759
164.615 303.356 157.379
170.351 115.747 205.647
171.346 99.1489 232.666
142.503 267.901 206.067
146.421 239.133 103.6
169.743 230.427 157.793
123.763 259.646 63.6368
192.62 252.656 155.79
144.96 183.947 94.1704
167.455 217.302 189.656
190.854 172.152 187.448
147.619 247.586 245.598
117.05 229.719 320.651
127.042 305.086 135.569
198.764 60.5222 329.179
109.292 281.87 210.739
157.733 242.586 228.061
192.966 207.589 165.323
142.067 283.326 96.3468
165.427 191.249 240.846
195.564 176.848 86.4894
159.106 114.951 62.8639
144.756 90.4335 271.172
159.453 306.087 166.46
134.558 190.392 339.879
154.063 222.718 93.517
128.905 301.245 256.413
121.222 200.918 337.998
154.728 74.0689 251.476
176.461 98.1485 223.093
163.597 147.18 200.233
151.589 155.939 286.733
170.783 104.358 173.335
177.382 28.8101 192.259
118.919 299.79 274.635
113.427 141.26 311.013
185.304 252.714 245.375
123.406 273.53 225.137
126.791 250.612 100.357
168.649 114.053 256.058
154.856 237.184 112.536
103.53 254.636 310.776
188.927 163.523 205.983
143.291 181.903 56.0326
150.4 237.765 256.903
130.222 198.883 295.068
170.596 297.239 249.787
174.725 121.151 303.615
153.629 79.5326 257.678
158.246 97.688 100.045
129.76 136.282 293.478
173 99.3144 195.488
161.456 66.9233 110.37
131.969 93.3687 313.579
181.197 168.359 301.457
193.491 63.5384 227.773
116.625 265.049 69.1994
105.726 206.458 333.767
162.841 196.133 236.149
177.471 108.799 288.718
171.523 80.1683 188.352
156.026 258.182 143.718
147.475 142.395 72.3825
151.852 312.488 209.98
192.111 81.3032 167.686
125.687 193.28 338.363
132.086 273.67 210.594
166.553 119.981 199.469
164.098 242.192 201.547
132.022 235.632 273.924
169.251 92.7883 127.014
131.911 232.694 86.8091
119.525 241.456 67.365
167.089 204.861 101.135
125.664 244.83 60.2271
190.342 229.289 129.198
130.271 167.577 295.458
136.364 313.44 174.275
188.891 95.0422 96.5413
184.666 192.861 215.488
189.399 225.453 169.996
125.56 279.53 293.873
113.806 181.665 340.906
170.989 107.888 203.046
173.722 272.649 110.49
139.857 151.55 291.774
136.626 186.373 60.4919
192.103 147.631 73.4875
126.325 262.963 304.091
150.585 104.517 323.04
164.885 224.64 234.448
91.6526 304.391 148.779
165.733 231.04 221.455
136.937 233.51 273.614
168.64 133.342 105.158
168.542 140.064 108.88
158.826 301.109 158.356
179.117 182.652 303.673
187.545 274.738 151.236
190.483 190.355 179.646
137.509 95.8395 319.601
189.493 207.907 199.948
146.276 313.181 218.851
150.884 143.401 324.338
158.602 146.426 191.731
191.513 228.957 100.256
152.528 311.091 235.995
157.5 128.134 58.3238
188.968 248.538 234.285
165.361 214.65 236.198
134.435 315.514 193.485
190.339 99.8911 234.991
151.196 295.607 266.949
154.901 129.738 322.087
150.458 115.302 76.7148
197.703 124.492 120.652
175.684 265.617 269.397
159.572 184.43 276.469
147.588 157.615 75.4582
163.028 178.796 274.248
196.354 126.856 115.793
153.755 111.775 84.9485
181.929 226.935 284.582
121.728 311.646 158.091
171.021 73.3628 284.676
126.789 172.346 342.223
126.118 122.377 295.3
171.296 108.338 145.299
183.361 205.905 243.807
141.31 189.691 335.873
165.835 136.516 120.859
167.488 142.758 101.275
138.591 300.371 131.143
141.43 163.427 292.97
135.49 270.103 217.332
149.751 259.698 129.03
181.299 202.59 250.192
146.532 254.976 64.3613
177.409 185.74 64.7952
162.709 213.096 250.281
176.395 201.769 300.158
162.486 69.6919 225.87
155.965 271.246 286.208
137.463 214.2 286.175
136.074 104.738 323.433
151.343 49.8978 252.392
191.121 53.841 218.161
123.333 309.415 217.296
182.674 210.597 282.245
185.739 278.354 234.405
187.678 216.753 185.868
136.739 213.128 78.8662
152.57 222.846 308.587
115.911 246.831 71.9901
160.899 163.265 183.306
107.334 167.347 308.966
169.541 248.482 166.69
146.957 112.189 277.925
131.647 174.489 293.194
145.113 172.644 58.4347
129.498 296.908 100.697
183.338 266.152 152.394
134.983 154.418 294.101
169.437 110.789 197.994
118.098 285.63 164.385
139.881 248.678 252.682
141.259 119.802 285.422
159.99 220.359 249.497
137.037 259.909 65.3127
104.331 274.593 102.61
101.661 282.448 210.305
194.435 112.653 108.67
165.929 84.0318 81.4394
116.026 283.181 156.866
148.542 250.17 118.312
138.358 71.9456 295.967
119.142 273.816 76.6648
190.639 163.324 151.212
175.089 102.271 135.12
143.946 312.297 176.155
101.518 317.252 162.004
187.127 180.233 209.57
149.295 255.783 228.912
187.109 210.811 132.457
186.162 180.023 225.339
123.394 256.008 301.683
150.649 302.572 151.419
164.139 150.263 205.961
180.223 34.0472 183.713
170.844 103.051 141.075
161.912 73.6116 116.232
189.315 56.3291 176.48
123.15 263.102 249.01
149.33 126.901 282.386
194.143 111.491 265.074
163.39 180.221 261.193
154.84 155.905 326.55
153.976 109.512 272.141
168.877 86.8627 234.644
184.221 260.037 180.935
135.325 317.686 262.234
161.803 76.0384 123.998
160.214 71.5532 235.394
165.957 192.912 211.269
151.055 218.658 273.844
158.049 313.781 230.951
135.5 266.908 127.984
164.817 208.242 222.087
167.002 115.37 261.987
143.955 151.369 332.719
114.031 272.938 109.032
164.713 168.504 258.519
160.833 143.635 89.4413
120.549 268.238 239.786
122.06 164.97 343.143
150.271 118.702 279.266
160.643 235.453 226.833
193.642 86.7177 195.197
172.575 189.744 102.397
128.927 268.813 231.546
190.231 63.9615 201.697
144.81 197.865 47.1703
149.901 244.741 299.75
162.496 112.036 100.423
137.858 79.0143 281.316
168.083 125.754 201.295
136.217 256.993 246.539
165.745 121.109 263.548
123.137 151.869 299.463
128.312 217.538 60.4844
162.493 225.465 105.067
81.4782 295.581 208.62
144.461 282.22 283.856
172.977 111.932 176.586
143.222 266.109 222.669
165.323 134.741 271.149
188.446 225.703 108.962
170.475 81.4536 178.215
157.136 254.305 136.388
144.901 260.57 228.024
85.8284 292.063 200.385
164.925 104.048 260.147
192.871 173.647 168.5
148.986 309.81 174.022
106.611 272.532 90.4832
148.192 223.566 272.168
110.737 191.774 340.264
107.422 310.201 140.652
174.36 219.035 181.454
195.623 150.821 104.505
141.877 234.606 53.2309
170.797 98.8249 188.54
173.335 97.787 144.525
191.274 187.034 111.809
148.566 104.791 275.848
175.878 190.597 309.11
109.289 307.863 124.054
103.334 203.726 307.36
166.122 74.9187 134.661
163.601 208.257 246.136
184.525 209.728 168.392
113.102 251.831 309.464
168.095 233.964 150.068
140.367 132.674 287.836
167.219 76.8972 151.071
180.552 98.3716 81.5309
135.053 249.988 108.696
168.74 104.512 248.688
169.524 212.335 173.772
151.501 132.333 59.6193
140.01 122.322 334.627
155.508 88.8466 258.442
161.408 89.4668 105.534
119.317 273.264 230.447
117.245 117.517 312.081
153.731 179.874 287.165
163.734 146.389 261.58
169.262 147.583 106.114
192.897 129.318 81.4497
143.461 129.32 283.167
163.914 236.213 173.006
194.574 120.979 211.907
171.919 98.5859 159.745
124.633 237.234 83.7206
157.735 196.357 275.124
167.675 190.608 172.222
141.627 198.865 75.7617
143.048 241.826 254.509
153.596 255.399 215.556
166.789 187.112 310.167
153.161 150.7 78.0776
140.495 186.098 71.3686
166.689 200.684 172.442
188.097 190.407 163.058
186.989 171.711 297.472
172.928 301.154 164.645
151.302 259.432 136.244
132.321 261.581 242.396
162.28 239.971 150.373
143.871 256.587 234.072
155.666 220.227 259.16
179.483 266.237 113.958
170.553 120.433 115.351
187.606 195.138 237.419
146.25 144.867 335.498
128.207 114.033 291.092
197.525 127.805 134.93
183.791 247.476 227.847
166.761 225.25 200.754
161.637 192.679 230.308
180.853 41.7529 230.579
163.623 52.0987 133.851
174.331 187.293 116.938
173.035 143.124 305.057
113.63 240.151 283.378
174.372 35.7414 230.837
144.513 246.661 250.185
138.355 171.565 291.901
186.209 217.478 167.322
154.982 145.989 146.788
157.885 133.251 177.068
164.952 143.888 118.575
188.903 203.072 247.986
164.99 311.611 212.346
124.756 244.125 309.59
158.579 172.916 279.617
192.803 104.086 150.318
184.656 220.214 85.4801
186.112 212.745 162.193
125.578 236.257 276.417
153.094 98.6282 313.988
107.06 213.257 332.534
144.109 270.2 160.498
165.754 67.4993 162.586
169.131 160.987 100.291
176.353 305.102 231.702
147.237 239.096 305.845
138.246 248.756 55.6067
162.776 110.376 260.906
138.126 183.406 290.063
124.159 215.497 295.524
148.256 250.702 235.498
111.328 219.829 328.28
150.88 242.349 249.328
184.385 223.329 265.409
105.868 281.961 130.819
159.14 233.696 122.606
123.323 266.947 71.3232
170.752 105.086 165.771
152.546 304.126 248.208
171.297 77.8649 196.013
118.31 140.463 335.076
165.955 142.087 249.378
188.844 187.151 149.777
165.967 176.62 319.875
167.761 106.698 255.17
103.055 274.145 245.025
151.243 242.439 115.443
164.677 143.043 269.252
164.12 157.225 85.5716
164.357 213.858 201.524
173.968 95.2132 203.164
174.56 37.2372 148.758
189.755 203.846 221.693
177.628 282.478 142.505
163.446 239.144 139.35
162.108 58.1948 138.387
131.013 218.924 289.824
136.361 274.333 204.411
184.54 166.715 207.767
159.214 256.429 179.891
157.722 87.3364 100.566
166.893 73.8353 187.117
169.488 117.227 121.638
142.206 225.835 275.526
166.625 101.298 68.7952
107.548 199.605 336.564
192.863 87.8428 115.799
161.316 172.851 218.937
166.244 126.689 258.277
167.003 129.954 264.389
166.793 212.336 226.869
144.361 292.418 117.278
164.842 204.298 204.168
165.617 158.191 220.537
144.084 138.271 287.152
188.04 236.815 244.724
164.439 131.589 202.222
115.92 280.967 210.393
168.551 214.954 164.069
126.231 305.312 112.384
185.959 150.338 178.763
113.771 271.167 236.644
186.78 294.491 210.473
129.484 133.227 337.998
132.492 248.542 259.576
111.096 270.425 77.1086
151.896 263.132 168.879
168.438 124.97 103.872
171.626 65.4168 98.0042
170.966 94.3707 149.919
147.83 251.794 193.362
172.271 88.5286 201.697
184.793 228.346 206.182
167.065 208.631 168.226
185.768 177.573 257.205
138.3 256.268 60.6675
137.721 261.633 299.346
167.235 113.618 191.186
94.6656 300.523 129.647
155.788 211.346 271.462
165.211 183.294 184.528
155.509 117.669 88.3592
123.367 230.5 67.5789
166.52 68.3192 197.965
169.074 117.257 110.176
164.595 212.609 56.8292
92.8796 239.639 303.69
161.868 181.248 220.889
193.048 171.529 181.408
132.417 209.432 73.3859
152.041 251.259 229.413
193.877 209.889 135.106
167.869 141.059 237.248
144.866 252.973 240.492
148.812 161.38 53.1834
168.861 93.3212 155.822
146.92 178.889 50.1448
176.623 30.5449 178.533
112.643 273.381 228.251
164.31 173.129 52.1175
141.844 264.149 123.815
121.864 251.865 63.6863
164.803 199.94 212.155
193.894 76.8796 200.869
110.052 258.589 88.6728
103.714 220.072 326.678
157.177 248.906 208.809
144.903 311.641 207.977
163.585 208.726 255.402
191.278 128.374 75.104
126.436 122.317 332.736
134.492 285.749 285.254
113.204 257.573 257.716
173.241 249.127 282.793
124.286 104.208 305.411
155.718 178.345 82.4233
147.539 233.454 51.554
150.627 305.203 254.881
146.993 310.728 242.623
124.262 316.58 193.151
153.055 263.259 78.7301
165.555 54.4886 126.924
152.817 184.164 327.164
192.826 69.5213 175.445
135.426 235.333 93.5777
167.577 295.494 255.671
182.923 172.126 288.887
117.706 279.34 224.537
167.094 132.072 313.681
151.604 203.672 47.0163
175.034 283.439 264.082
168.969 76.4622 180.933
95.7437 233.317 316.383
121.927 281.123 217.967
152.018 262.226 161.37
157.488 62.5046 235.25
154.96 157.525 179.2
148.337 155.555 332.152
126.526 97.162 301.029
120.768 307.635 233.841
170.264 115.627 128.182
160.955 145.16 133.89
160.686 158.974 192.894
151.735 138.391 78.2768
143.577 317.216 206.827
150.931 154.298 52.156
157.638 59.8472 225.89
162.141 91.6382 110.612
171.393 133.717 309.455
171.09 283.449 268.974
163.957 188.208 252.226
168.203 100.163 111.369
132.933 312.548 167.501
153.741 140.065 56.0652
123.186 278.174 130.451
192.36 232.577 119.898
115.747 170.295 341.83
145.69 192.908 78.1017
172.884 217.125 174.277
147.008 270.244 195.882
120.153 210.39 298.185
162.227 153.05 271.531
148.426 147.624 55.9433
184.465 273.785 237.555
128.408 315.543 186.416
142.126 205.897 80.8447
134.071 298.331 268.706
151.937 260.147 210.468
133.415 306.748 253.778
159.136 159.726 322.33
194.15 149.712 154.945
114.082 203.816 337.116
196.856 132.819 89.3933
155.876 161.594 280.557
134.184 203.827 72.9616
164.235 121.278 97.7435
176.58 150.321 302.681
187.926 260.911 196.716
118.704 279.6 202.448
143.033 220.606 278.51
165.104 204.922 250.995
161.684 44.7622 247.942
129.882 315.533 200.571
125.411 230.884 284.009
106.285 316.063 147.407
148.779 177.157 289.372
157.158 79.4014 250.596
187.042 238.343 228.793
166.922 186.695 56.3004
166.388 116.621 159.757
171.197 156.653 112.029
162.039 44.0194 208.67
152.253 133.166 281.474
147.525 311.89 198.821
136.905 139.725 289.854
164.971 203.87 227.667
157.629 55.5782 217.727
132.971 204.416 63.8677
148.787 211.255 324.42
165.667 209.627 190.966
113.273 283.721 203.434
135.78 196.325 62.8019
101.197 196.251 315.598
112.892 171.414 302.632
165.403 188.348 259.092
155.689 238.851 59.4364
179.402 224.786 291.748
171.069 70.5948 191.86
142.869 176.506 70.2364
140.831 315.426 228.608
159.259 164.342 81.7433
138.551 259.041 239.106
190.999 152.197 231.422
190.815 73.8249 165.747
150.565 164.004 77.6433
165.854 153.958 259.948
117.814 193.196 340.766
178.058 289.275 152.141
165.828 37.8828 204.2
112.854 293.54 91.2004
93.719 294.848 142.844
167.46 204.664 184.334
105.179 280.48 217.917
130.598 256.969 61.3988
172.666 122.903 206.612
141.252 141.635 337.668
163.796 190.094 273.568
186.061 259.87 170.41
110.115 157.996 307.354
153.964 103.588 270.004
190.392 166.655 131.279
162.869 215.992 242.566
127.567 114.763 297.996
128.151 276.44 217.121
163.474 203.383 242.145
162.817 131.392 59.4847
165.898 139.503 242.869
159.239 171.539 179.636
165.872 135.803 254.381
171.335 196.78 272.659
106.154 242.886 291.334
104.152 159.625 323.567
189.224 46.8307 189.577
170.637 269.547 103.705
120.364 313.673 165.346
185.858 243.743 254.166
119.198 192.359 298.539
94.2582 219.323 312.744
154.943 277.872 284.146
193.794 138.278 84.063
117.991 148.8 305.049
159.169 236.788 117.02
136.216 191.046 290.213
158.343 294.853 137.882
189.785 179.916 276.585
154.909 237.324 238.223
178.378 170.926 228.336
150.509 280.48 93.9657
152.914 172.894 49.3102
142.563 267.039 214.632
153.937 246.583 231.522
161.183 229.573 243.159
129.41 279.833 156.093
158.831 216.938 95.2657
151.888 255.857 222.002
172.114 87.2387 184.447
102.694 199.085 330.012
141.843 168.051 66.9611
150.938 50.2707 245.433
162.003 60.4787 161.754
126.835 179.041 296.164
165.8 286.945 266.469
178.608 138.149 61.5438
156.828 148.696 323.323
147.05 152.914 289.208
113.741 126.587 304.087
129.317 280.502 174.291
184.998 190.412 184.94
170.357 290.586 146.323
128.042 102.729 292.155
195.751 113.771 143.028
189.936 224.308 186.854
153.928 236.555 249.939
130.137 277.451 164.92
166.365 128.355 97.7798
111.976 203.089 300.728
112.675 270.225 242.501
154.069 300.89 262.903
127.649 275.338 136.359
139.55 282.984 285.557
117.405 127.469 328.918
123.594 317.827 200.938
161.478 128.555 182.543
179.299 158.778 307.858
166.044 233.593 189.263
117.118 257.519 96.2377
165.576 121.641 162.702
156.707 146.476 184.899
171.153 249.054 110.826
95.6145 314.698 153.884
113.309 285.479 169.311
154.101 309.86 184.17
179.581 180.917 136.071
109.313 143.726 321.125
146.785 147.13 67.2437
172.398 198.358 108.54
117.95 175.782 300.347
152.208 145.631 71
103.414 284.146 100.715
122.635 166.348 301.104
194.092 142.837 178.112
133.959 276.784 150.368
160.688 145.122 318.658
123.434 314.807 172.426
172.978 226.048 130.518
150.607 245.179 189.831
168.299 112.065 247.408
120.155 278.759 175.434
124.576 141.112 296.323
129.018 270.969 221.49
191.621 136.978 74.4223
182.584 175.139 303.978
154.766 257.056 72.5975
154.759 309.201 177.988
191.826 213.564 218.398
100.96 284.229 202.212
112.96 251.618 78.0879
96.3166 303.126 136.919
162.864 200.18 262.722
139.588 260.726 117.668
152.773 125.653 277.321
160.644 118.822 92.8253
94.5561 226.45 311.47
175.241 90.6302 226.987
153.17 267.203 198.527
169.409 145.862 112.092
111.722 264.627 245.067
166.1 213.225 213.191
127.39 185.524 295.965
169.851 168.366 116.5
156.414 53.5772 225.757
188.009 244.473 221.283
171.266 310.327 215.076
97.3729 207.035 320.96
159.203 209.301 267.207
108.194 273.324 298.613
126.957 250.485 259.196
165.696 151.078 253.232
166.5 225.545 166.93
186.017 242.086 236.428
124.787 202.732 296.29
145.171 257.879 123.148
102.566 225.107 299.565
189.178 237.534 124.348
126.477 223.091 288.99
92.3902 251.624 295.869
172.046 297.656 160.224
158.29 206.772 318.354
183.763 174.739 235.351
124.84 171.898 296.783
170.272 106.233 189.891
99.6647 296.089 123.382
147.598 169.714 73.787
121.326 239.025 75.1185
104.738 313.516 123.925
138.655 312.965 188.371
163.757 69.033 148.513
105.415 233.286 320.884
102.795 311.648 155.032
144.977 103.37 281.376
188.5 132.455 236.354
139.472 219.26 318.655
113.173 137.491 305.702
118.674 283.095 290.593
98.7216 289.134 148.48
80.8507 287.594 247.841
149.104 132.274 74.1447
115.17 315.136 169.046
153.263 262.735 150.772
101.006 226.258 321.537
97.1005 286.079 131.675
101.617 257.772 277.136
161.703 186.465 230.945
131.455 291.635 94.7429
121.223 279.174 210.44
159.205 171.908 171.852
174.724 84.0353 194.887
156.924 154.928 188.429
156.669 225.077 254.505
129.277 265.348 299.139
157.218 145.042 84.2366
114.279 278.809 217.063
148.231 222.081 313.239
103.761 174.305 324.958
101.916 296.102 107.814
127.298 112.044 325.468
165.759 21.7637 25.2219
104.156 286.447 114.274
187.351 220.611 160.883
145.78 260.538 138.833
97.9281 237.218 296.203
98.1864 214.962 323.885
101.859 298.415 268.457
193.49 237.563 147.113
183.202 186.651 292.839
185.09 149.102 234.068
196.106 142.734 173.464
169.99 87.4244 178.167
158.522 134.977 148.124
164.995 163.77 251.689
162.452 188.456 266.901
162.82 312.995 199.134
161.297 179.357 215.766
147.026 208.633 282.526
131.988 276.923 193.523
163.067 236.018 202.601
120.421 281.916 190.532
166.043 145.946 95.7129
121.254 258.591 102.152
168.394 174.39 124.244
154.422 98.9723 263.497
101.042 307.279 139.583
122.576 290.046 284.633
168.145 117.196 186.05
170.389 205.759 150.811
137.951 301.487 258.621
177.251 257.747 275.7
160.559 201.926 235.867
119.807 237.483 288.37
126.277 280.033 195.003
175.978 101.422 229.399
161.838 118.951 270.342
185.236 173.625 209.415
165.428 216.162 221.404
126.448 105.216 298.506
169.113 202.213 190.32
162.991 123.174 155.449
163.853 64.225 154.51
110.207 304.384 116.024
162.579 182.978 235.963
125.069 192.897 297.07
162.068 253.723 206.702
95.53 215.254 316.272
160.962 173.876 322.001
159.811 168.436 147.861
138.526 247.914 308.576
129.053 315.238 208.26
119.584 145.045 299.497
165.85 76.4345 174.033
164.605 120.984 142.684
197.902 130.874 100.607
158.556 293.481 272.329
142.415 144.065 292.037
147.124 284.931 193.922
105.059 290.692 286.324
134.364 276.942 172.4
162.35 172.261 268.969
195.543 143.152 118.51
108.296 286.373 91.4321
103.841 278.49 288.71
96.4431 289.556 192.168
115.339 162.703 304.604
132.006 339.143 97.1422
101.305 177.63 318.406
137.945 218.637 82.6658
171.88 233.436 293.877
142.388 232.106 314.099
139.717 277.856 193.085
97.3552 290.776 155.751
110.89 246.566 316.742
107.389 243.974 278.985
158.279 235.235 245.166
159.799 131.693 137.596
144.906 298.593 133.439
109.531 270.164 98.4293
134.161 270.731 133.714
146.633 244.024 110.169
177.492 28.6347 200.524
166.904 137.671 264.845
164.391 169.842 264.999
158.218 254.284 211.313
118.219 279.178 150.751
124.987 315.241 179.935
170.782 93.0313 231.658
146.861 183.988 290.083
191.264 119.879 94.7786
115.838 277.064 125.313
122.954 315.696 211.506
118.295 127.157 319.874
149.209 137.81 284.257
180.189 283.052 158.066
126.178 300.232 267.699
124.357 110.557 302.959
115.579 283.017 194.976
137.752 238.891 265.27
94.1507 293.477 123.887
116.654 227.183 292.327
161.036 126.089 162.708
193.794 109.329 252.456
131.117 108.904 293.269
103.65 290.798 100.472
190.817 256.339 121.486
133.021 241.742 267.385
167.107 148.641 121.526
99.6593 305.489 126.486
156.887 249.406 221.734
157.379 121.036 275.149
101.071 319.186 208.279
123.921 212.731 332.534
166.74 305.431 244.113
138.17 103.245 284.802
165.811 140.002 258.702
116.295 279.596 181.716
96.9209 288.959 117.685
166.07 110.381 172.25
111.69 320.301 185.651
93.7628 279.03 236.462
109.537 276.314 117.579
179.029 160.82 157.548
170.677 102.031 274.666
123.279 276.661 287.222
134.132 304.567 143.435
155.099 252.577 130.16
166.932 136.149 98.635
99.2189 287.148 108.886
166.98 206.115 314.572
163.206 162.503 271.317
104.204 258.965 303.295
151.243 234.971 107.592
149.647 163.85 286.706
125.853 245.904 93.0837
160.774 146.365 281.561
156.359 240.287 243.963
162.858 178.788 209.953
178.929 106.893 282.672
185.424 200.569 287.434
170.564 104.489 116.199
165.526 124.363 174.246
171.402 96.4226 182.858
195.536 93.9427 181.281
110.014 314.072 229.304
123.465 126.811 332.381
194.417 216.679 158.539
191.762 117.626 249.109
116.495 316.558 178.335
158.612 138.235 187.458
97.8048 249.013 309.421
159.415 236.841 232.136
185.535 216.276 81.0083
97.7341 229.605 304.147
142.371 115.82 325.968
107.42 266.14 250.252
129.97 312.907 221.878
153.454 309.964 241.22
180.545 138.936 123.5
119.708 246.059 89.0001
168.142 73.6571 162.524
114.67 211.27 300.108
197.654 67.5499 324.209
154.036 219.619 269.02
76.929 270.993 266.634
125.027 279.445 149.691
104.828 274.138 238.401
192.771 60.7542 332.631
192.034 187.255 101.175
127.738 311.404 248.959
138.526 220.588 282.514
130.557 182.072 339.392
144.401 172.452 290.625
181.55 263.204 124.058
95.9367 293.068 133.318
160.91 139.369 277.15
141.221 167.424 60.0523
140.575 177.457 290.594
180.334 239.061 261.031
185.2 158.527 168.769
144.729 272.762 182.782
162.074 176.172 186.207
166.2 154.295 159.889
180.021 190.838 212.534
82.6882 279.417 261.913
163.796 76.1551 129.544
166.114 151.842 127.532
115.428 261.872 251.775
121.366 136.724 299.009
162.657 299.978 245.202
104.706 195.954 310.39
88.0447 286.045 222.067
97.8078 282.128 219.589
132.914 265.069 233.89
106.323 318.675 182.931
125.896 297.128 273.839
101.779 264.422 253.767
91.7851 296.094 158.473
161.288 144.303 273.562
117.385 241.239 274.183
120.063 279.906 137.937
111.171 280.652 125.682
118.638 252.092 83.9515
117.555 247.236 269.046
130.441 191.355 293.298
80.155 291.277 241.267
121.799 161.661 305.806
107.686 283.187 200.699
91.8797 290.692 168.655
135.456 294.896 275.662
123.092 313.927 227.261
141.547 267.505 138.631
102.23 180.24 327.32
153.793 262.755 195.224
103.137 274.924 232.196
89.9559 295.138 175.083
100.506 285.289 141.317
178.551 286.371 252.972
187.793 170.072 265.139
171.363 288.332 137.785
164.556 254.996 189.607
123.692 268.108 232.448
112.151 217.093 300.66
111.903 318.823 193.474
124.419 275.33 213.14
169.732 298.16 231.142
167.725 132.545 218.167
187.367 110.039 242.985
146.088 248.724 304.77
190.428 68.8317 327.689
189.349 184.863 205.423
160.586 133.456 192.929
123.738 281.192 202.388
118.552 318.993 194.599
135.002 272.592 140.468
103.204 320.718 190.676
161.176 163.966 275.672
164.71 139.781 197.51
101.05 286.893 167.737
108.173 252.78 274.064
130.896 259.485 249.26
132.072 183.436 291.676
102.678 284.551 123.064
166.133 123.236 190.665
154.582 139.493 176.13
165.005 174.742 167.511
99.124 198.321 322.23
184.252 154.541 231.581
181.096 196.986 199.498
163.345 194.034 264.675
88.7771 280.665 243.288
175.266 207.918 301.111
92.9495 251.323 303.448
137.902 255.295 113.219
120.075 253.852 88.5462
158.188 128.72 152.934
84.4196 293.84 250.78
112.081 296.281 279.848
111.657 199.163 306.77
125.324 314.425 238.601
170.265 111.894 182.258
167.448 154.129 115.952
151.351 256.791 148.26
112.758 150.819 308.253
108.857 319.816 200.026
191.777 171.404 157.953
183.091 193.52 303.719
112.472 285.277 183.432
160.389 168.618 186.728
145.667 119.633 282.316
117.151 317.635 206.023
111.935 309.586 114.31
94.1632 237.791 310.715
93.1277 280.427 226.561
119.009 275.458 295.822
85.6617 282.931 230.928
109.645 140.634 314.81
132.029 273.577 73.3806
172.559 105.39 181.934
161.017 165.261 140.827
163.277 129.035 191.598
83.3879 298.564 243.406
100.169 207.354 328.054
110.235 281.327 145.176
122.423 305.237 257.59
102.291 187.59 316.943
93.2001 266.662 276.837
92.254 283.6 214.23
158.447 178.366 316.2
182.915 190.368 196.269
183.973 261.45 267.169
116.466 186.654 302.896
118.435 304 266.041
142.445 238.833 259.469
167.363 6.05715 38.2652
