ply
format ascii 1.0
comment Created by Open3D
element vertex 1316
property double x
property double y
property double z
end_header
113.543 114.225 132.056
111.975 128.929 67.2197
113.796 147.317 153.951
116.757 135.922 89.0145
114.418 207.813 130.662
112.082 91.0032 175.805
84.9149 65.3281 216.833
104.391 219.315 188.919
74.1775 133.685 268.181
69.1059 231.892 62.4351
99.418 73.3767 84.2877
88.8985 55.8419 186.327
82.9073 46.6192 201.341
93.6777 38.6959 161.9
116.557 134.598 153.287
106.108 121.448 57.3814
113.731 182.602 144.541
61.3356 149.589 37.553
106.607 160.9 96.4242
113.452 140.11 166.669
113.894 219.624 146.258
99.9689 61.2774 182.055
109.161 202.118 149.265
70.8534 248.349 156.246
102.731 168.15 89.7262
109.098 95.8687 167.803
101.848 48.0131 162.088
94.7692 58.2196 97.8312
115.348 156.365 150.99
112.908 123.094 180.389
116.719 123.586 152.965
108.654 205.933 95.9202
115.778 160.809 139.344
82.6017 72.8364 227.354
59.4875 261.994 117.363
105.447 139.651 198.86
62.8626 245.899 73.5538
116.628 131.748 142.736
101.636 59.7137 119.527
87.3807 46.6208 173.552
113.265 202.907 189.68
104.941 61.4072 152.858
113.658 135.337 185.971
93.3728 54.7678 116.749
107.016 190.217 93.5366
104.146 162.251 73.9578
116.338 105.43 88.4414
75.8106 181.722 127.079
47.8594 265.913 176.578
34.3983 265.438 172.738
115.563 112.76 118.266
104.827 174.056 67.9364
91.7975 44.0798 149.606
110.303 81.1098 177.837
88.2633 200.21 101.918
88.8041 82.9473 203.537
94.2495 240.123 152.666
112.662 160.478 204.295
98.239 134.041 46.6135
97.5303 63.2564 202.094
93.943 125.718 40.7627
72.6026 237.549 70.8414
117.807 149.7 139.271
113.291 67.6539 156.135
93.4216 69.0125 208.275
83.755 253.045 130.927
63.8393 249.868 88.8295
107.473 110.922 62.1838
62.9371 209.403 178.159
83.2673 54.1475 211.972
63.9632 205.842 40.6978
114.937 88.3411 152.722
90.9625 59.879 177.25
87.7262 146.234 193.894
88.8427 169.648 179.675
88.8407 43.782 187.196
108.895 175.847 233.578
107.038 139.958 209.909
62.7837 132.529 279.727
93.4745 149.864 179.592
61.7838 158.64 59.4452
107.65 212.81 199.967
116.177 117.771 94.727
102.597 238.33 144.739
75.1171 46.3561 212.001
80.6757 173.447 96.3935
86.851 153.517 250.965
116.449 194.32 105.648
73.2893 201.37 52.6696
106.373 74.459 182.447
76.1662 212.626 47.4419
74.2802 137.666 99.1718
109.7 107.763 76.4011
114.889 159.908 85.8825
107.59 232.383 143.825
113.258 158.399 123.986
98.801 194.382 53.6566
115.591 204.021 181.657
67.5075 251.122 163.127
110.963 217.267 179.259
53.32 173.581 41.8983
116.662 197.42 136.718
75.1527 160.687 78.8979
56.38 212.954 237.295
67.3616 72.2998 242.089
98.8433 66.9413 89.5079
85.0078 108.628 134.341
107.931 204.308 166.904
72.3662 216.296 61.6857
113.136 226.17 142.098
74.7311 114.419 109.47
74.8212 199.64 42.3571
103.644 170.114 238.483
105.098 202.298 210.312
72.4488 165.578 260.323
105.326 236.855 108.751
63.8407 147.579 277.734
70.5657 172.076 257.345
114.22 209.414 142.619
109.761 178.808 129.674
61.2424 45.8576 185.083
30.9715 198.071 253.079
108.073 147.511 93.3267
81.2123 156.982 102.292
102.303 216.657 74.3353
74.2134 195.582 241.928
74.5511 142.368 31.3152
115.44 105.251 147.1
107.942 229.941 134.271
56.8711 233.069 58.4321
65.1551 166.356 222.131
75.4259 175.993 32.8998
102.37 156.486 234.802
104.588 80.5799 87.7161
95.4897 247.394 133.845
86.4365 36.9609 144.761
98.8864 170.159 51.5373
114.067 142.319 179.654
65.6931 174.634 218.058
64.0501 160.194 273.798
50.9328 227.039 230.188
88.2423 149.328 34.4129
48.6043 262.951 110.485
91.9906 119.669 156.832
80.8523 106.587 249.56
80.0672 88.1209 136.679
105.796 120.077 182.044
74.8867 241.73 177.308
106.385 213.427 81.1195
98.0269 54.1595 149.887
87.6962 95.1119 210.977
60.8092 73.8466 172.329
98.7054 157.157 155.684
59.5718 259.831 188.405
113.096 135.174 74.8051
52.1889 163.25 280.56
101.299 183.042 231.863
115.451 204.588 125.362
83.6633 173.007 109.269
109.11 70.9507 137.984
101.272 244.816 120.51
43.8465 80.6803 241.867
96.9298 223.699 197.156
53.5896 266.95 139.13
101.808 177.601 85.0547
79.6925 187.628 244.969
99.7398 144.443 244.413
72.7425 172.544 80.4844
75.8212 181.964 252.38
65.5464 217.67 50.9848
111.202 193.274 148.061
52.8699 183.503 39.0065
77.3512 143.555 200.686
84.7868 122.546 253.283
90.1119 231.373 67.5993
89.7769 143.884 166.755
27.7161 254.279 108.007
73.1129 256.609 127.691
110.753 70.6146 144.199
79.6281 249.68 100.1
107.784 218.373 85.8486
79.1441 193.203 122.654
55.8055 261.279 166.665
70.6115 98.9135 178.603
35.0419 268.559 162.776
59.8319 111.737 272.625
86.2879 189.508 158.009
100.865 76.6771 195.618
45.4483 90.5561 254.925
109.642 142.263 64.6115
64.5081 167.744 270.751
47.386 70.1495 226.302
87.5847 100.338 240.177
63.0295 258.336 156.55
72.3505 234.802 203.105
54.4374 227.566 52.1296
55.0435 98.9726 264.711
83.8333 164.653 105.81
81.5954 108.27 177.741
114.167 225.968 133.943
103.679 175.34 98.6028
58.5064 174.019 271.033
95.5057 222.367 188.213
56.9447 263.254 142.549
94.5011 148.453 143.777
48.8201 58.4785 211.533
69.4267 166.947 74.7579
100.332 49.3304 138.211
99.2835 170.935 245.785
64.4147 57.2007 185.582
108.75 157.26 211.554
99.2006 235.162 158.673
66.796 75.4601 125.932
61.7995 113.329 66.1853
79.4613 199.519 235.985
96.5916 133.442 242.695
37.7746 129.121 267.862
80.275 161.466 31.571
69.7998 242.873 81.7141
60.0718 256.767 124.841
111.852 118.501 162.499
113.53 87.8474 169.21
108.729 172.134 77.9834
93.198 47.4035 128.208
59.4996 160.088 40.7727
76.3176 90.9431 247.667
71.0848 220.952 52.9321
98.9774 71.521 100.699
61.1166 171.916 29.9733
110.78 191.118 138.34
97.8207 198.694 219.501
94.9143 138.881 41.1886
61.3065 116.591 55.2968
118.151 166.265 120.653
82.7938 73.2065 78.0232
59.3706 162.977 48.9857
86.7687 170.451 194.549
115.231 179.841 184.778
106.851 74.8033 123.499
81.089 85.9878 235.771
79.1052 45.8254 118.958
104.076 132.961 56.0825
62.5603 88.734 179.463
78.7088 148.581 106.673
72.4535 43.2379 136.643
76.784 104.527 258.725
85.4603 143.847 259.299
110.33 219.867 160.611
109.578 224.979 151.351
94.8261 55.37 168.223
80.5098 38.4638 175.562
67.2253 85.5257 250.371
66.3597 168.423 68.7368
116.442 184.844 170.46
97.5673 104.603 58.8021
73.5254 209.382 162.909
110.646 114.993 208.256
113.405 114.435 152.139
112.265 170.216 166.005
83.0844 135.529 198.553
96.4574 144.464 53.1514
79.0076 221.723 197.37
53.3221 190.305 265.495
81.66 164.896 204.343
93.4894 49.1823 188.832
104.156 207.212 78.1906
109.329 212.531 92.0491
74.2222 187.324 39.075
32.0794 257.411 125.868
90.2993 245.185 147.728
110.481 153.893 233.23
115.752 153.051 166.559
72.7845 150.302 78.8452
71.0525 237.354 85.9054
100.069 188.092 87.8073
62.7904 206.08 188.212
33.5755 256.207 181.267
91.92 165.882 247.853
70.2703 218.907 207.935
86.6463 171.015 131.25
108.425 99.5199 178.075
104.085 128.637 202.105
84.9576 251.002 110.232
109.803 201.328 140.026
68.8197 181.372 210.655
87.4497 149.613 131.45
38.9813 253.323 212.116
109.404 144.834 194.55
115.429 147.649 128.027
101.267 243.373 129.795
98.5056 186.625 160.299
70.6562 127.615 38.9447
111.747 171.635 135.417
84.053 159.487 111.539
67.4056 107.789 262.704
71.077 122.263 47.8341
111.289 164.966 187.294
77.4234 73.0086 89.5894
30.2551 192.659 235.279
93.2446 177.58 41.3157
108.966 231.582 104.595
116.696 125.348 94.9937
81.1529 188.051 169.483
75.2729 40.765 203.013
66.5634 254.985 172.877
70.0372 255.169 115.267
63.9639 238.84 83.4227
75.4698 253.327 136.102
84.6441 196.345 241.209
106.67 189.763 224.442
46.3584 125.959 280.245
103.739 154.573 207.546
76.4928 178.413 206.324
112.879 189.194 214.35
84.9589 228.835 193.85
65.1892 136.05 37.8062
112.659 147.659 103.138
68.1801 49.2336 170.951
98.0291 231.693 167.645
63.9435 193.586 100.081
116.316 171.863 173.925
85.8168 245.703 99.3303
79.3895 116.135 261.167
44.503 76.747 221.885
91.4247 193.288 230.723
71.3452 181.581 87.3459
69.1661 210.932 226.045
100.944 181.705 53.4244
52.4885 212.018 190.516
115.119 180.98 175.721
57.4465 235.981 206.865
65.9609 166.319 29.316
68.0284 68.5541 131.461
93.7985 156.996 38.606
71.8839 241.27 189.46
79.8538 94.4167 176.46
87.4685 51.1625 204.472
72.4793 247.997 102.625
70.7933 180.004 115.101
108.546 138.477 225.27
119.544 174.639 116.616
52.6269 142.746 240.458
68.2936 100.486 254.087
64.8702 208.481 168.086
55.8595 56.4604 197.598
104.886 62.0438 126.652
59.2204 195.555 35.7679
91.2981 199.92 50.0313
60.538 181.547 31.8866
68.0244 42.3804 182.323
72.1884 145.942 66.4249
112.033 187.871 195.556
88.0402 235.241 176.607
82.8782 209.465 59.5772
92.5472 247.938 121.204
113.669 195.43 218.887
99.442 238.383 104.454
83.1992 242.903 81.8582
73.2284 221.323 221.31
82.4376 251.402 121.258
50.4632 245.855 214.431
96.3503 153.771 50.6114
113.794 174.102 195.232
115.44 182.963 134.064
88.4239 145.173 125.216
79.545 102.278 175.78
111.229 137.562 81.6406
114.464 129.827 169.049
96.393 84.0855 202.715
64.7338 54.6534 143.055
48.5318 257.809 129.652
76.2117 145.487 95.0845
99.1973 182.6 46.4498
81.8345 128.293 109.419
74.8885 84.5178 233.1
110.445 68.2803 171.726
86.2747 181.647 186.291
60.9771 249.658 186.197
97.8776 52.3193 174.778
69.1442 51.7212 128.321
115.046 99.9274 97.0891
91.718 136.947 126.77
30.7521 250.707 208.496
107.106 193.724 111.415
116.956 224.23 120.086
38.1777 170.462 276.369
67.3479 111.199 269.682
106.396 225.81 162.803
67.9895 124.758 273.247
84.1073 168.22 36.5514
114.966 124.59 79.898
66.6244 160.041 216.323
95.6055 225.384 61.8869
104.091 156.761 59.8303
88.6311 137.586 184.328
79.1999 126.763 188.531
57.7453 142.077 226.285
86.6414 104.67 164.225
101.534 146.217 60.9297
102.539 208.524 93.3008
84.0113 106.981 229.959
113.183 158.572 174.945
94.182 133.267 165.785
107.104 112.162 153.634
58.3006 46.0785 191.527
99.114 244.409 143.73
73.7374 107.509 117.811
92.3029 139.168 175.359
90.7503 152.582 168
95.083 112.093 49.6028
62.6553 45.5345 201.251
80.0405 54.0692 108.81
52.5215 256.296 121.327
84.7016 121.821 38.2104
71.2659 80.6691 244.565
82.8077 63.9708 226.036
94.0149 247.127 140.892
83.0118 124.193 180.958
90.7035 159.307 45.2606
110.736 237.582 125.138
39.0577 213.817 191.51
106.072 107.283 69.6888
63.8985 92.1179 77.4342
59.7948 168.651 275.633
70.4548 42.1703 153.509
89.4074 158.029 159.956
101.491 158.965 52.2819
74.3757 204.15 238.459
96.0774 230.401 71.7142
84.8544 121.012 127.43
51.4459 265.077 127.762
113.362 214.971 125.102
116.607 156.671 104.389
60.1925 260.145 179.31
102.445 109.471 180.819
36.7451 160.369 267.961
68.7419 146.806 32.1801
34.0195 266.875 141.579
62.4555 187.002 68.9243
73.7346 154.453 30.8366
105.287 143.419 236.244
74.8493 153.815 265.236
50.4235 265.204 166.035
80.607 116.695 183.252
73.7234 229.168 210.196
73.2719 88.5559 135.762
85.5939 238.108 86.1335
107.491 225.765 89.3901
94.0912 50.2987 179.221
57.1189 186.88 219.649
112.419 167.695 205.554
93.5604 156.413 172.119
51.6103 255.909 91.3472
87.9626 160.337 169.954
95.8588 159.738 243.963
108.689 228.09 111.225
80.5289 155.157 258.713
99.0711 146.76 46.2548
90.1068 49.3311 195.852
73.2548 243.769 163.383
78.4121 133.782 109.997
114.984 104.258 156.131
72.269 142.148 270.747
87.8063 36.1459 166.071
82.983 99.2857 151.954
90.2416 129.525 137.463
49.6487 195.279 42.4592
116.662 165.012 157.469
45.8509 71.5634 232.685
81.8744 165.432 97.4732
68.9421 86.7385 73.294
105.436 62.5168 143.189
51.0123 187.803 58.401
115.497 142.724 84.3214
67.2781 95.7529 105.937
82.9752 155.023 33.7078
69.7556 70.3841 158.174
93.0198 211.479 53.7604
84.339 152.285 195.359
91.5292 161.91 137.048
86.3421 115.812 42.9772
101.655 218.357 205.344
84.8691 41.9459 181.177
64.6209 247.421 194.066
113.02 176.769 94.2381
103.742 144.418 52.2799
110.051 164.22 235.327
90.6242 152.213 123.853
95.7138 120.256 44.6448
109.726 85.544 153.118
35.5054 182.549 239.791
62.2314 99.0185 194.184
69.5693 99.9705 88.0522
103.299 157.537 242.952
69.2092 97.1147 71.242
65.5573 203.601 238.863
38.8232 89.9028 238.854
67.8629 41.0635 204.068
107.654 99.8805 156.248
47.9936 62.2897 205.043
68.191 176.868 27.4892
97.828 75.2958 189.361
41.5016 266.39 184.153
61.0143 144.749 46.0772
83.3175 250.587 145.084
52.9431 257.796 105.78
105.382 193.772 120.538
28.8251 264.368 153.438
47.8161 61.8321 219.998
104.411 233.746 116.167
53.5163 154.703 281.99
77.6084 162.538 87.7373
86.9113 217.291 89.2345
43.4674 247.734 73.6
91.916 68.357 198.358
72.5257 49.2912 117.24
62.6738 254.644 149.732
101.445 213.966 200.132
42.5478 207.658 56.8177
66.7933 192.4 84.5912
115.712 214.086 115.052
68.0865 59.4384 119.424
116.499 183.048 111.94
77.3223 194.951 45.7611
104.413 115.886 192.696
65.2205 115.716 276.791
111.026 149.314 174.166
90.9883 245.083 107.335
51.1538 241.462 66.1171
69.3805 183.686 97.9518
114.681 138.964 113.042
113.249 195.482 182.437
110.164 152.874 81.4791
102.655 204.686 83.6098
117.447 187.385 177.22
86.0056 162.266 193.771
103.317 229.93 94.4591
111.722 197.65 98.4707
106.959 194.264 82.8661
55.4792 262.197 154.74
99.3064 108.852 204.897
76.1016 88.9727 148.725
79.5411 230.434 68.7828
77.314 74.491 71.9483
108.039 157.195 220.303
57.0173 133.952 223.112
45.6378 170.73 278.832
107.247 180.657 106.224
61.3812 263.621 129.991
61.8034 120.493 59.9536
97.0188 243.747 110.982
77.9813 126.357 265.215
61.6726 220.103 138.657
72.8098 128.679 105.432
40.3249 100.833 260.59
72.4867 256.382 140.802
80.2877 132.205 262.097
105.154 229.991 154.736
56.3586 50.5812 214.026
73.1533 193.94 163.623
54.9972 216.271 174.102
85.5173 222.567 204.478
78.4862 75.1626 148.375
91.031 129.843 177.7
60.7804 53.615 168.446
113.929 90.4425 146.748
73.908 43.2237 163.028
112.548 117.8 77.4193
81.4892 122.276 260.428
117.5 169.564 147.737
78.8991 168.469 127.951
48.3366 114.326 274.74
22.0189 256.879 162.607
114.79 120.013 89.1032
78.0445 155.933 201.925
115.984 200.48 175.048
36.7204 117.065 255.918
54.4949 59.2197 187.733
112.3 197.985 203.742
73.7896 93.6134 124.958
94.6378 42.2315 139.889
93.0638 167.035 38.8195
105.485 139.32 69.4292
66.5712 63.2083 110.436
100.897 114.057 52.2941
102.987 146.631 221.128
48.937 261.315 191.398
65.8222 185.494 104.554
68.8516 75.0171 88.8673
107.522 163.774 201.329
100.411 58.7889 130.242
80.7673 176.359 90.3666
99.5978 225.379 68.6152
70.6764 201.998 153.741
62.9447 60.7992 171.025
70.7172 79.9923 132.554
90.3054 163.333 182.871
71.622 60.2585 144.684
59.0335 254.314 107.351
61.4028 243.577 208.915
106.935 238.703 134.989
57.7746 87.7899 256.818
71.9443 37.7565 193.58
76.8846 132.939 35.9156
57.2401 203.751 40.2949
44.2421 176.615 234.007
81.5411 207.179 88.4431
120.985 283.145 27.324
48.225 169.875 237.27
63.4631 112.948 209.175
81.597 164.214 250.499
108.633 132.119 185.019
67.0185 258.154 136.3
97.7527 233.559 94.0256
112.981 223.286 114.687
68.6912 190.448 246.022
104.111 215.675 94.1133
78.3694 118.158 41.5862
78.1938 246.03 92.0623
77.0127 229.273 143.945
46.8053 215.012 178.707
114.079 189.3 99.8925
116.119 87.8905 134.074
35.0851 185.418 267.901
60.8183 127.786 49.9565
100.983 125.055 43.7267
73.3417 112.341 263.723
77.59 141.336 266.158
63.0172 151.681 61.6639
77.5807 62.0535 92.3632
83.0792 179.669 167.777
86.4689 182.765 36.6025
58.0932 243.009 216.08
84.3856 120.318 45.7898
96.366 134.495 91.3388
45.2419 179.282 273.546
75.2827 116.795 267.399
90.8886 158.873 145.817
61.9658 149.183 220.836
118.601 219.262 124.944
90.0141 68.186 77.4972
63.9952 41.4376 191.806
65.7754 40.1109 164.076
110.168 168.55 227.887
80.4178 233.047 180.73
104.744 230.383 87.2484
73.6756 165.747 28.2324
66.9754 103.014 80.1443
83.6953 244.766 111.852
104.572 179.676 71.3975
94.6603 199.883 226.074
83.1605 242.012 167.659
106.09 71.7234 167.039
75.4159 106.798 187.501
36.4796 120.247 262.7
83.3547 163.956 182.93
66.2038 257.494 126.573
94.4059 238.356 85.7449
89.8146 223.611 198.933
108.433 107.736 164.222
40.8569 77.1236 227.096
44.2126 74.356 211.076
32.274 172.423 253.93
108.847 211.319 122.953
119.756 131.783 99.7087
45.7149 213.728 15.1854
107 213.765 206.379
82.1533 96.6164 241.85
112.503 178.3 222.955
52.4706 210.103 40.3737
63.6354 261.751 139.432
62.2666 111.079 90.5209
51.9504 205.385 247.59
70.6349 123.603 89.5816
64.9367 175.82 79.2097
58.3182 105.684 203.46
67.9322 159.554 268.255
94.2418 128.556 245.209
28.7496 178.386 262.399
73.4243 198.816 118.494
107.467 197.293 73.5469
76.1959 70.8533 156.437
74.4931 123.618 269.14
78.589 120.126 115.132
34.9582 253.344 197.753
98.5878 96.4999 75.325
65.4802 86.0886 93.071
60.2218 216.463 58.6616
68.8019 187.714 120.449
96.566 97.8104 196.877
90.9345 106.249 232.565
79.0475 120.024 196.941
25.6287 223.482 227.874
60.4119 93.7995 201.768
50.0747 66.051 194.355
89.1236 173.501 150.711
81.766 213.653 206.601
89.2856 172.387 163.869
103.64 226.717 101.207
112.701 204.586 111.56
70.6839 135.254 84.1003
86.4231 137.016 171.029
89.6582 141.655 251.833
56.2008 240.449 74.8367
47.0444 184.195 45.126
104.968 201.383 227.303
94.6276 82.1896 77.4485
62.0787 191.849 256.264
63.6081 134.682 272.101
94.5751 96.2003 207.595
49.7598 190.647 258.579
38.3038 188.374 229.707
111.637 229.206 119.255
65.0155 184.454 86.9349
114.588 103.525 209.392
67.2095 247.447 200.915
93.1624 222.276 69.8799
74.331 110.149 50.1694
63.8495 66.5509 166.443
70.71 196.515 194.856
74.6332 36.4883 177.947
69.9605 65.1424 101.192
88.9284 130.48 185.226
41.846 145.559 281.372
104.495 112.97 175.595
68.4753 80.0534 115.915
81.8313 120.904 64.4409
91.7432 194.372 56.3045
103.572 209.75 219.946
79.5997 97.8739 136.724
57.0341 69.6898 175.939
30.4522 164.015 271.567
68.4269 110.51 48.8663
65.862 173.053 74.2959
79.9867 38.0546 191.518
73.712 146.801 261.364
63.9358 250.809 177.874
29.9502 190.616 256.35
81.0254 161.649 228.821
57.0619 252.519 86.5191
39.3996 108.409 238.284
70.8158 153.259 211.559
72.4359 202.619 178.173
88.4385 111.407 231.549
76.1488 173.069 208.457
52.6861 182.085 226.08
108.757 148.713 128.956
83.5341 146.57 115.013
85.9744 146.529 173.775
111.137 130.748 190.209
84.3634 179.265 197.67
87.664 162.417 123.314
39.9081 260.995 119.377
76.3063 232.617 126.126
100.337 195.565 72.6452
71.442 131.833 204.954
113.499 167.525 176.708
85.7802 87.5396 66.5312
82.5938 234.868 172.283
71.0716 192.458 129.117
64.3962 175.981 57.227
23.9668 253.292 154.251
107.75 215.45 141.839
76.1304 130.407 119.999
80.1747 210.231 227.957
70.3785 109.577 196.929
112.962 129.111 147.549
88.8521 245.663 85.9418
62.8513 99.3205 68.6265
73.4236 224.389 203.485
51.6769 69.5596 238.595
26.6697 231.596 215.504
83.6622 132.816 188.22
64.2393 74.5005 113.125
39.1867 155.879 247.033
69.9902 144.167 77.9538
113.884 123.197 142.912
87.5251 120.205 141.846
38.0644 103.725 250.045
115.978 120.278 147.181
43.8596 255.187 96.8716
113.727 230.649 127.235
115.77 196.328 170.926
106.613 205.914 111.414
60.383 177.355 68.6805
94.8304 150.146 132.016
84.9698 144.775 61.5728
110.677 151.383 227.126
77.5462 61.4295 221.188
108.757 147.202 215.733
68.1922 115.002 99.1435
64.5625 185.087 257.587
50.4738 237.922 210.201
100.608 123.851 205.807
72.6399 35.8986 185.714
73.9233 102.769 57.4111
99.819 118.945 195.315
93.4599 189.295 44.5235
63.1975 101.88 91.4292
65.3287 196.316 123.484
64.6619 192.347 110.769
50.89 85.4318 189.056
42.8175 237.931 221.016
56.6881 168.907 33.0495
72.7718 140.512 87.7824
48.1319 214.827 235.559
54.6131 181.725 269.29
119.619 148.564 104.516
39.0725 111.918 262.736
100.101 150.742 100.09
43.8504 218.995 168.667
113.282 77.1619 163.512
82.9295 225.327 54.7375
59.1888 202.655 252.292
37.985 208.591 201.97
111.35 216.405 104.187
88.5969 165.188 164.885
96.2071 151.563 95.4892
117.181 131.772 125.399
89.1444 180.163 243.618
77.1231 183.961 107.614
37.9711 85.2945 232.317
111.314 113.981 173.746
51.4661 76.9449 248.786
49.5328 196.104 216.408
76.0773 162.454 206.971
92.4644 228.129 181.336
24.0586 243.44 106.69
83.1984 230.898 143.304
66.0535 108.711 93.9259
72.7135 51.5727 161
82.4954 68.4549 185.154
76.6797 248.662 146.34
57.4301 253.825 199.16
97.4787 185.477 236.8
42.1588 252.244 108.271
69.0439 186.485 153.83
70.6195 72.3457 148.859
40.2645 209.377 252.267
113.763 141.971 135.336
76.3876 182.993 156.943
84.9487 245.183 156.35
84.6025 136.748 38.9649
36.286 194.29 265.556
89.1973 168.916 118.332
49.5851 146.309 283.722
94.4669 149.147 250.447
29.41 238.362 208.376
85.073 189.282 36.7843
65.482 120.224 88.0182
32.6511 243.746 73.6481
80.2519 40.9361 164.727
27.4662 208.331 233.417
104.186 220.762 173.907
43.237 200.589 217.671
62.5425 123.457 278.243
70.5519 43.3033 175.403
87.5241 210.084 216.682
68.074 252.405 188.538
84.3483 113.365 72.839
59.0087 163.571 230.855
44.8316 252.166 80.4323
114.82 162.64 217.695
59.5189 187.71 252.935
60.3401 102.01 265.657
110.906 129.364 220.808
114.337 172.649 180.512
60.0459 80.3847 177.376
84.5531 139.691 51.1903
68.8312 147.685 265.195
62.4868 253.067 198.191
69.268 92.0721 174.804
60.2278 80.6581 251.288
60.0178 184.44 265.646
98.087 227.35 93.6525
78.9703 32.9877 159.8
34.9932 154.997 255.755
70.8011 93.7072 255.158
111.956 172.117 148.899
35.5764 200.561 258.479
53.7315 176.934 231.724
58.9838 207.258 247.674
63.1951 218.228 160.837
79.3451 81.7446 72.8378
90.9437 89.9592 68.6721
83.653 184.833 43.3316
24.1985 242.071 206.995
78.2131 51.2222 218.298
115.964 134.478 105.972
48.7331 224.194 160.593
28.338 258.022 131.825
79.8719 187.952 146.674
61.3669 125.954 77.1704
35.1718 178.506 274.73
68.3096 107.126 56.024
38.1264 256.305 109.846
101.536 58.8089 174.463
55.4303 85.3968 202.814
47.2377 189.122 225.861
66.5896 189.118 218.194
86.0117 204.684 229.351
74.5304 116.539 190.312
38.0664 96.5788 244.96
69.2818 109.156 182.808
100.146 144.201 100.529
72.3077 78.7951 161.997
115.375 217.786 132.724
74.087 70.5484 233.673
39.8021 244.184 213.403
47.0593 71.7264 214.626
75.022 232.629 189.557
33.065 209.186 249.455
40.0251 175.379 241.324
55.8178 109.846 276.648
59.852 203.852 108.132
68.3265 88.0188 114.027
45.6342 137.387 283.48
46.4634 265.408 134.924
83.2921 180.085 139.002
40.2596 86.7232 224.284
103.614 168.689 78.5729
72.3851 104.155 104.062
57.6797 160.891 275.65
83.9872 143.173 250.686
71.6837 166.557 210.033
109.858 213.222 110.589
111.308 94.331 90.6483
79.1722 173.866 124.245
111.333 150.204 112.995
69.0219 201.46 183.209
60.9285 150.677 227.344
62.696 171.33 60.9202
111.862 101.939 143.446
51.2087 177.671 52.8655
62.9313 78.9468 106.626
77.4767 154.706 90.5899
88.8538 102.366 148.175
110.649 114.427 167.495
52.723 224.442 151.065
88.6 89.4776 218.897
83.0603 193.802 39.4153
110.612 81.8923 118.784
115.139 177.311 212.916
99.2497 216.873 63.2104
65.7455 209.254 153.332
54.2502 61.7122 217.999
49.3385 94.5431 203.846
79.5273 104.325 54.8918
83.9967 177.862 180.851
62.4478 141.72 217.37
106.815 78.7593 100.028
47.8249 65.4645 156.985
111.908 159.206 189.018
44.731 191.665 265.637
88.8926 160.574 35.335
33.5595 219.531 72.2939
113.502 124.059 70.7505
31.5748 180.074 249.25
80.1443 66.8079 79.7549
86.4806 122.982 192.236
68.4826 140.373 210.434
71.0489 125.416 100.771
76.7796 174.131 118.161
34.5566 145.152 269.033
33.9795 224.034 86.2761
113.437 129.746 175.981
89.1829 170.942 40.8056
65.5345 57.4938 132.101
54.7044 260.968 192.102
34.7791 124.922 257.993
68.3602 149.89 272.378
102.781 213.348 158.176
54.7386 186.915 71.5808
23.8417 254.052 117.125
81.8367 134.291 116.313
83.8143 41.8098 190.84
79.7581 170.582 251.003
46.8203 162.282 275.646
66.92 84.2801 172.831
35.649 146.3 276.703
86.4417 166.312 139.556
38.2798 109.005 255.026
68.3111 234.679 208.413
43.0819 218.364 63.2041
41.7076 260.8 176.892
115.32 184.838 119.369
70.7311 180.019 102.071
46.1674 122.379 238.365
115.443 187.992 155.339
91.236 153.239 144.433
110.758 204.138 119.255
59.1118 72.2294 187.195
108.323 150.358 67.4299
41.3528 82.8297 216.487
65.3267 185.063 36.5048
51.751 132.497 233.639
69.5236 254.522 131.23
104.779 205.621 176.767
89.2705 123.05 176.606
47.8681 243.509 70.9042
62.5913 109.112 82.8559
82.5659 131.94 73.5299
93.856 94.0687 71.262
89.2797 39.1324 134.203
29.7779 243.948 81.7888
40.5932 166.637 242.521
113.813 202.443 66.3309
69.9994 154.233 72.2228
73.4873 188.346 134.394
40.6722 258.462 126.108
78.5769 61.3833 184.431
41.3675 266.019 146.175
55.7561 89.3598 189.541
86.2178 140.748 70.1754
38.5559 238.101 71.1526
46.0456 182.305 229.401
44.3694 136.528 278.814
119.031 200.189 67.3035
45.1979 236.733 63.3871
115.74 83.6265 147.208
37.5013 214.579 59.8887
64.584 195.583 40.1907
90.2172 139.559 191.16
59.6579 181.541 222.81
50.9125 193.558 67.9663
57.6025 104.946 262.166
91.6946 146.47 95.6792
88.8896 82.7523 214.453
68.92 100.237 263.746
63.8846 134.329 214.883
85.9976 118.855 174.584
84.7026 246.401 140.552
77.7199 189.658 74.233
57.2088 217.571 164.071
79.3882 143.337 260.836
64.9007 199.95 92.8252
50.6131 154.276 237.575
85.9428 197.424 44.8944
71.7108 188.98 199.63
91.5047 164.908 129.259
81.9079 187.852 191.561
43.6355 262.169 197.373
62.2413 83.6021 188.734
79.2314 148.613 206.336
105.594 117.821 170.281
61.7557 54.5341 198.862
25.7485 229.753 207.843
74.7296 195.202 188.626
83.0129 161.642 188.246
36.9511 252.235 82.3099
32.496 138.824 261.808
89.8455 196.921 106.912
40.5704 232.073 71.6361
59.4403 190.691 93.082
30.4411 172.431 270.278
66.1493 78.5768 169.536
37.5556 112.826 250.505
83.5083 39.1831 130.994
113.988 82.9647 135.278
114.352 166.539 92.8306
49.4334 215.007 246.621
34.1138 155.531 272.8
90.7085 62.487 83.6277
52.356 116.165 279.724
68.7217 182.682 130.248
90.6046 237.095 74.031
29.3389 168.934 264.26
66.344 137.882 71.3477
56.5298 109.723 222.434
79.838 193.962 83.1969
35.406 162.567 278.139
75.0152 146.912 85.6274
33.6598 253.189 95.6928
78.869 193.815 157.858
43.5285 197.203 56.319
43.6993 214.191 76.742
29.8598 194.368 244.156
67.5604 170.917 264.065
58.2377 57.7143 176.629
77.9598 68.7497 222.243
79.6804 143.515 119.655
83.8747 99.1631 54.4864
31.1905 245.323 215.277
77.1312 245.556 141.87
32.9091 235.255 229.203
80.6328 227.869 203.342
69.0473 92.7338 168.212
46.104 85.0409 199.698
46.0941 158.498 281.678
82.2905 167.481 114.406
41.7741 129.675 243.533
60.2202 129.523 66.2937
32.5944 262.181 147.116
52.6408 256.958 200.96
40.2268 116.587 273.866
40.5914 94.8961 225.671
22.1831 248.823 144.219
30.1874 245.791 91.3002
56.4818 253.82 94.7797
66.3639 92.2122 258.888
93.0111 156.401 223.879
53.7805 95.9681 188.178
117.928 122.397 126.721
111.716 157.341 228.042
66.7308 198.989 134.467
32.5932 228.748 74.9917
106.416 80.5046 106.884
67.6066 62.8348 234.023
104.569 199.504 180.683
42.3696 152.977 281.849
93.6499 101.718 219.302
91.1327 141.654 38.7852
72.9761 146.506 208.385
50.6161 265.129 145.194
95.0236 76.7312 151.838
49.2041 69.3969 146.426
45.3004 99.5022 225.904
64.05 131.799 42.4028
82.7272 229.596 110.271
35.4907 144.347 252.433
44.7649 118.554 231.526
63.1444 105.803 197.01
36.5871 124.34 250.259
36.5527 238.978 217.764
25.7279 229.654 171.64
22.2682 244.83 193.256
97.4572 227.797 175.019
58.17 201.55 200.467
25.7772 220.924 210.476
98.0183 84.07 155.675
66.5598 210.803 77.9597
59.7611 216.837 153.739
60.6029 50.383 176.488
82.0568 147.592 50.712
79.5809 215.291 84.6768
99.1407 151.838 106.513
32.5467 138.085 267.755
63.0997 61.005 145.592
113.599 157.376 163.772
67.2385 235.452 192.917
44.597 227.126 61.6244
57.7701 200.239 246.695
79.943 183.028 28.787
81.1436 166.843 159.326
103.141 134.171 109.792
88.0221 63.4383 203.708
79.6538 126.773 55.3261
115.734 128.908 215.462
60.9655 229.868 100.931
92.6761 128.012 144.999
81.291 54.4166 95.0607
58.0149 240.239 173.566
76.9539 136.48 198.558
78.659 195.618 76.2815
67.3377 51.5528 221.798
90.4259 219.343 204.432
36.0363 227.183 63.7565
108.962 238.521 117.457
69.7121 151.971 242.228
49.2409 108.419 230.241
86.705 108.836 150.142
45.2313 81.9509 207.5
65.4183 49.8087 211.948
59.2207 144.183 282.718
34.4148 145.118 260.338
36.7403 200.916 225.719
59.4642 213.743 230.156
39.6519 157.379 277.923
94.4379 87.0601 214.435
82.4497 63.9274 88.1254
21.8804 238.561 196.739
71.2089 123.01 107.375
65.2428 111.723 238.995
89.507 156.012 217.516
90.2554 219.018 55.5058
83.6847 181.463 246.922
59.746 171.452 223.259
80.7974 215.699 57.6571
45.166 202.87 76.1275
50.9681 250.57 210.901
54.8796 139.59 280.234
80.7734 204.702 93.8133
38.9752 100.39 234.265
73.3071 77.7416 143.35
94.8324 85.9362 163.479
69.4642 71.2189 142.62
63.8311 111.087 200.803
39.8261 121.242 245.822
109.945 70.1226 149.32
60.1244 117.956 218.849
72.6971 103.353 51.2779
72.2786 61.9506 224.546
35.8733 164.301 257.076
43.3231 103.554 229.118
50.7151 170.519 273.845
111.165 154.721 199.97
42.5546 108.045 232.538
69.1911 106.049 188.793
47.1869 108.266 268.724
68.4804 55.1346 158.564
70.5395 234.979 181.608
114.861 194.644 196.851
43.5106 108.656 244.638
58.4827 149.812 48.8746
36.6655 234.331 84.651
36.0444 245.494 221.325
46.3538 114.241 227.441
101.227 162.378 57.4371
43.8948 157.377 252.678
76.6048 62.6244 105.878
87.659 196.066 83.5201
44.5562 232.501 231.606
115.79 173.214 156.763
55.1153 130.739 277.785
25.789 245.585 200.376
39.3795 135.428 276.117
71.1101 117.304 196.228
60.2128 205.487 122.193
45.9595 111.116 264.55
82.0303 195.371 94.2934
27.66 220.912 201.006
26.7253 238.269 93.4174
73.2153 81.2891 155.062
79.5392 195.229 168.151
38.9228 134.969 247.956
109.669 187.182 80.3586
50.2057 103.005 210.569
10.8357 263.124 147.321
93.4469 153.391 103.398
64.5505 205.425 136.97
61.2941 106.715 217.8
71.4904 204.309 135.078
83.9655 157.432 61.7108
51.3611 176.732 270.41
105.259 69.593 102.859
84.9637 137.813 81.0723
115.243 125.632 132.621
65.8395 238.077 202.755
22.5462 254.624 172.596
98.1628 55.1155 181.762
44.9638 211.066 192.59
29.8543 233.45 77.8862
39.5307 92.235 230.063
69.5937 200.242 165.479
37.2941 97.9788 238.59
92.5306 103.576 205.767
32.6729 149.196 257.165
28.5029 224.099 177.07
81.741 205.502 222.987
76.4567 252.181 120.063
43.3331 228.151 56.3231
62.6241 196.681 164.872
98.5687 132.06 110.833
83.6157 196.596 107.132
34.9305 251.092 88.4529
45.1113 98.2446 263.247
61.0544 247.612 97.3381
27.0774 215.346 205.43
31.4037 150.965 270.524
63.9685 128.978 83.3489
109.22 109.499 176.804
72.2755 212.686 151.801
50.7291 216.662 55.2455
105.129 105.396 159.302
84.4404 217.279 214.93
26.7023 261.489 136.701
83.3311 118.411 72.9974
74.6101 207.914 99.3783
43.498 246.52 155.301
31.1582 206.298 213.021
110.589 142.712 127.071
85.3321 97.3395 218.19
88.4159 215.415 49.2307
48.8598 208.252 51.4718
28.7524 232.184 157.947
31.0364 252.371 191.82
102.134 133.945 166.974
55.4862 118.519 221.489
24.4144 239.661 163.04
95.2629 104.174 201.205
79.0802 99.9864 238.255
25.9153 208.58 216.399
56.4462 205.937 48.4839
38.8379 205.329 70.8279
45.7378 120.419 271.698
105.532 149.942 78.8469
104.904 93.7412 73.5998
106.308 145.925 69.9306
37.3586 151.664 278.37
14.0578 267.77 146.864
55.4316 50.8162 219.596
40.7089 123.646 273.518
17.2913 274.496 151.628
67.2013 154.79 31.3719
68.4922 126.573 94.6787
48.2004 105.946 221.612
107.804 109.541 207.391
87.8921 234.642 131.822
70.2406 178.927 133.407
95.591 151.104 110.535
93.852 140.612 107.703
23.944 288.483 148.883
79.707 212.946 220.266
38.0561 134.634 255.956
77.7194 123.92 202.185
91.1669 208.248 225.117
100.246 206.971 178.49
98.2877 143.983 92.7821
64.4199 118.839 212.398
41.0334 218.278 19.1174
87.372 157.119 131.721
21.7889 250.066 123.756
83.491 124.655 197.059
55.9401 97.2781 210.59
68.1276 205.903 140.967
89.6193 107.574 115.09
