ply
format ascii 1.0
comment Created by Open3D
element vertex 809
property double x
property double y
property double z
end_header
136.424 76.062 102.223
107.62 22.6704 171.067
89.9954 191.935 89.5469
129.416 55.0833 130.835
134.477 83.4933 98.4445
116.241 66.386 88.7393
112.818 131.378 109.242
78.7313 109.696 41.5971
142.913 83.6454 107.906
128.772 79.5473 145.253
100.581 50.0308 43.1684
144.872 71.3388 97.1928
81.6934 34.714 58.0281
132.418 65.3503 136.534
114.34 38.5643 106.143
108.827 103.135 117.803
96.997 186.755 107.068
116.891 128.979 93.5146
111.77 39.6275 113.308
89.3022 203.1 126.671
97.9522 186.897 121.753
100.425 126.457 95.7926
80.5764 85.5071 27.2738
94.4407 178.739 99.8004
122.094 71.597 148.673
132.99 102.894 118.058
100.76 119.094 148.175
109.097 94.5036 151.781
83.2892 171.216 124.571
83.1823 198.193 140.535
117.036 54.3439 129.849
146.494 81.8527 119.781
90.9687 127.556 71.3571
112.171 82.9566 109.863
119.056 109.657 127.309
72.8675 187.21 136.053
66.3429 215.795 104.481
122.526 126.435 122.015
136.292 65.8135 126.829
43.1811 14.5452 4.49899
70.4574 193.958 87.2659
113.073 101.931 104.22
75.3058 218.337 106.141
103.689 76.2891 157.608
95.8104 192.091 139.931
98.8737 123.506 107.9
116.987 118.766 141.932
58.0912 207.591 124.862
88.399 30.5172 102.975
99.6837 109.578 57.2012
93.13 201.651 118.331
95.9544 194.786 103.485
86.8469 211.311 123.368
103.657 113.887 153.614
116.677 10.0738 65.2394
109.665 113.969 106.821
73.5605 172.584 131.47
70.8398 71.1881 25.342
109.257 60.936 44.8589
108.379 42.5086 124.933
84.2889 183.293 133.571
68.893 45.2252 34.2655
104.984 85.9219 41.1222
113.134 73.2922 140.67
61.2037 211.014 111.728
91.7807 206.269 107.542
122.773 108.047 72.8445
93.2924 23.7943 92.9382
70.8733 53.7511 30.6294
113.733 92.131 118.262
114.899 49.18 66.5507
40.711 18.5612 16.3428
121.785 94.6809 122.475
124.871 65.9813 138.284
92.7202 139.034 99.6767
112.197 133.474 119.188
81.143 88.1802 42.3598
136.798 73.6281 134.239
119.642 104.428 116.627
134.28 62.7103 102.882
120.057 51.2647 119.064
139.846 98.6262 130.932
109.027 32.7209 99.8884
81.6708 120.398 56.0254
83.0001 198.766 127.307
116.144 44.6643 124.423
136.638 55.4478 121.252
125.039 121.922 128.252
106.077 95.7979 118.627
89.3325 59.6122 30.3636
118.126 102.069 93.0764
73.7437 97.633 125.248
87.4524 179.99 98.2527
101.522 98.5517 43.4191
78.1501 52.7358 31.4498
114.243 76.5133 151.563
109.247 115.758 70.578
94.22 185.187 94.9126
130.075 112.961 91.4049
132.881 86.68 126.644
68.6828 202.286 82.5588
139.819 70.988 123.314
74.9787 72.4607 37.0473
90.5749 105.211 47.0432
127.637 54.433 98.1679
124.339 86.4763 148.866
90.6028 190.768 112.415
55.7397 182.491 123.136
100.264 31.9001 102.789
121.455 121.827 93.7121
83.1442 215.876 109.334
111.685 60.4849 75.5582
96.9935 137.224 113.035
117.741 77.7892 85.4036
90.1656 78.7369 139.892
112.866 117.188 91.6318
98.5888 41.286 51.0545
64.2239 203.292 139.966
119.714 65.8246 98.2469
56.9028 180.582 115.013
126.492 89.1306 63.539
94.0835 119.044 64.094
42.4021 49.8293 80.0135
83.261 32.9894 72.0234
67.7836 195.665 141.617
112.018 126.229 128.208
109.293 134.191 101.176
85.2599 125.06 62.7389
98.0426 193.68 113.207
95.1179 122.776 145.381
94.529 197.925 95.152
114.567 67.3943 51.1302
121.368 59.6447 115.342
135.449 80.9532 135.577
62.7863 209.613 133.217
71.1106 41.1036 63.7038
108.257 70.2925 156.365
44.431 192.762 115.036
123.232 96.2797 63.1501
105.898 106.611 85.7533
140.282 88.4001 132.367
78.5427 24.9504 94.8265
64.9904 28.3551 75.7314
129.838 94.8235 66.1377
102.798 125.525 142.125
96.5892 71.8607 48.4073
132.797 72.4877 73.1675
89.0753 212.939 113.37
98.4386 38.1848 79.0127
82.861 23.1382 88.9338
81.6934 123.838 72.6881
82.8702 198.778 84.0543
109.527 79.0791 71.0002
83.6661 105.268 152.089
109.803 56.2484 126.677
125.788 85.5178 104.554
74.2608 210.413 82.0301
89.3457 130.845 107.844
108.597 91.8324 45.2155
127.361 120.873 89.4208
93.4279 59.5479 127.784
95.4045 113.105 153.619
117.037 118.152 125.152
129.419 108.065 138.967
85.3304 101.903 145.781
112.765 57.3009 114.876
91.644 42.7212 41.5047
64.4056 212.619 96.279
140.337 62.246 118.121
101.828 72.3292 35.5464
105.256 82.1201 61.0064
64.1591 71.3761 39.7438
59.0974 64.3408 28.8457
110.269 45.0405 105.728
100.244 134.28 104.053
106.283 51.4157 52.4168
62.594 185.882 99.0307
85.7358 59.6121 119.384
94.5849 135.142 126.346
107.986 45.5579 60.5374
90.912 87.9128 128.918
85.1105 77.6936 152.921
132.535 85.3121 89.7455
105.352 94.6232 130.106
96.5356 104.974 46.8605
121.238 116.094 135.649
84.2283 33.9231 116.939
78.0301 216.581 120.269
86.3559 94.5876 142.217
69.02 214.907 129.225
108.738 49.0213 114.931
76.6084 28.2841 73.6653
107.489 129.974 85.7625
141.805 89.1184 83.6457
93.4886 45.1308 116.245
112.149 80.1832 60.8766
140.852 67.9676 114.138
110.917 72.6594 45.6344
102.479 134.396 97.0156
111.36 110.179 122.219
121.594 94.2859 142.473
136.17 87.1587 119.938
104.261 84.6988 139.592
104.459 32.5459 89.4572
133.356 102.569 137.71
72.9184 108.081 141.044
103.521 135.227 112.696
91.0773 83.294 148.013
103.062 59.2651 142.936
100.583 107.786 133.773
93.1785 65.9567 133.257
119.904 103.165 65.0451
76.0903 211.902 132.278
92.7249 73.9444 153.113
100.113 74.9566 148.181
123.643 8.98941 82.1769
118.968 91.1288 134.044
94.8836 195.564 122.028
129.269 76.2142 66.6057
127.713 109.298 79.6702
94.9306 129.127 139.989
85.9434 123.377 145.788
78.4602 190.435 142.299
108.107 64.4532 66.6482
131.094 71.0722 145.672
98.6089 174.785 110.183
111.835 106.341 92.3683
82.6552 64.2017 28.8657
100.092 30.5317 79.657
71.6363 52.1102 112.562
51.8575 200.231 118.852
73.3277 216.307 90.1393
105.627 131.618 130.76
88.3458 129.232 81.4472
88.0042 87.3254 29.9832
116.314 85.7416 98.0505
105.149 69.7022 126.332
53.915 46.9552 83.1743
79.9101 42.9176 35.8892
135.361 55.4258 98.8629
57.1379 94.2048 33.9241
114.731 80.5946 49.4405
116.045 65.9235 72.6386
95.4557 33.5739 118.453
86.743 51.0074 114.029
125.031 83.4061 60.9008
74.0434 178.823 138.157
76.8434 170.466 118.726
73.4495 24.5106 85.4958
115.514 54.9912 103.498
130.411 60.7239 120.587
73.7132 101.627 144.178
71.4849 92.8851 33.4587
63.892 186.215 137.836
91.0571 127.237 132.655
70.2391 77.2543 116.599
92.3838 108.954 58.6836
114.371 42.8559 82.2024
90.2815 26.3336 109.513
125.143 120.92 105.585
81.2697 101.27 51.4541
83.6599 70.9566 142.534
126.368 79.142 94.7526
90.9322 140.305 107.33
114.131 42.7347 97.3379
95.3319 114.632 83.939
124.455 71.8635 91.8383
61.1423 34.5898 69.0319
82.5944 69.6511 129.794
80.1432 70.0691 24.9198
60.1649 56.7082 34.118
102.28 86.2764 156.253
137.583 62.8137 90.6966
66.8164 178.69 135.001
93.1276 128.734 121.668
90.4837 29.6593 73.9216
82.0832 140.154 104.425
92.7375 55.2619 37.3503
105.177 76.5209 41.2699
95.9784 84.0032 47.8529
115.504 119.476 113.279
83.3728 134.026 109.015
102.311 133.599 122.814
128.238 120.543 120.893
101.507 28.3181 96.7445
100.079 101.511 159.206
109.533 111.422 114.283
144.946 74.242 109.985
84.6589 63.5485 40.8071
131.623 67.7528 84.9709
86.088 80.2221 30.2156
112.188 73.0957 111.33
92.5686 78.1069 31.4728
101.57 107.91 149.817
86.7175 94.0665 33.0531
110.638 97.0977 98.563
102.696 83.036 125.258
130.134 59.709 90.5801
109.371 68.1049 57.1902
95.2161 53.6368 142.293
75.4118 135.482 92.6053
80.5637 178.45 137.967
116.097 71.1238 103.331
109.567 68.6057 146.493
84.0236 41.9127 50.7369
128.119 87.7704 92.9621
101.541 117.35 67.0408
75.8601 126.695 63.186
70.5695 49.8225 54.4462
132.64 80.1273 75.1005
119.48 118.861 79.9976
121.139 107.391 133.25
108.138 48.9438 99.1142
99.8767 53.3677 125.187
99.9753 40.5817 67.1521
124.071 69.2465 101.019
59.771 72.8013 30.9172
133.231 56.3826 113.607
80.0153 81.2536 120.06
87.3498 33.4814 51.3047
53.0896 196.663 109.007
84.2638 215.459 86.0693
100.649 91.6843 39.5447
68.7733 121.272 76.7469
84.9536 43.0082 63.9578
84.5632 54.2296 31.3773
107.723 104.104 151.61
95.8028 90.2549 36.8831
66.1318 87.8632 113.282
128.796 119.394 114.295
123.452 44.5691 98.3629
115.919 59.0416 61.9055
128.162 104.101 134.159
130.732 90.0587 132.501
83.4968 207.811 131.72
80.0319 177.976 125.088
73.944 89.6379 26.0273
92.142 37.3065 83.8248
98.4855 56.0564 63.9434
94.0749 29.1995 96.4489
72.5473 32.6549 93.809
74.5705 37.5406 52.8355
131.068 85.9664 71.3179
115.665 111.968 83.6936
126.43 93.9648 87.6584
66.1894 86.1216 29.1689
74.8884 116.173 140.101
116.106 109.607 68.7793
87.025 60.3733 52.5241
79.3981 95.0849 33.4801
68.9426 35.5396 76.1369
100.188 102.293 52.0767
118.417 97.564 156.124
106.555 123.217 125.203
109.709 127.367 105.636
132.853 90.8362 139.093
74.388 52.8592 47.1672
89.5937 176.943 131.669
70.8151 172.074 108.552
110.53 79.0767 144.006
121.252 82.309 138.775
104.616 109.542 93.6389
66.2935 114.635 47.6522
88.7896 135.632 131.929
108.211 124.819 113.136
88.0643 50.0731 36.9764
62.1646 130.922 101.166
67.0275 37.7961 44.9933
111.604 97.4305 58.1328
85.5714 40.6517 126.343
137.023 77.7502 128.178
66.3981 31.392 95.7738
132.567 72.2425 118.311
77.51 100.933 36.3165
121.286 78.7125 56.437
89.662 31.0483 86.9582
119.348 97.336 104.635
108.025 59.6966 59.1528
144.669 95.9316 121.013
114.767 71.1344 68.9181
80.5885 54.886 111.671
92.2314 45.6074 48.9895
79.6148 170.492 110.161
68.3568 119.636 126.771
106.12 87.1392 114.607
129.767 56.8121 80.8174
109.815 81.0511 44.125
135.181 82.8737 142.167
92.5553 116.133 71.262
122.512 98.1459 128.722
111.11 110.056 143.584
106.252 41.2563 101.374
106.611 103.326 72.8481
110.036 51.8809 80.5662
77.8873 62.2596 27.6673
105.194 129.085 119.013
86.2952 91.684 155.215
91.2441 71.4869 30.9613
138.883 104.126 87.485
90.4199 118.836 148.808
93.0005 98.0532 44.4653
65.4826 171.028 116.785
115.692 86.5123 83.702
103.969 115.293 86.7078
106.81 38.9532 73.1528
78.8927 134.355 119.369
101.836 127.839 136.533
72.7664 32.1064 65.7877
76.04 37.4638 45.5672
105.127 35.3308 111.467
128.635 112.939 124.587
108.943 63.7158 117.342
85.1496 167.145 101.527
99.1713 113.377 75.6116
130.97 103.892 125.96
60.4209 56.2731 50.2106
106.202 98.5108 53.9107
99.3667 58.8525 35.856
60.1961 115.105 117.743
106.718 78.3318 123.115
92.9475 100.854 143.427
52.3233 70.467 31.0696
88.355 54.0603 141.344
115.812 95.59 74.8465
133.063 86.7506 82.3795
55.2506 50.9181 95.4518
93.8116 65.084 32.9282
51.3193 37.4075 68.2987
107.889 104.799 53.7534
130.149 82.3673 83.3854
91.4692 32.2344 112.029
138.82 78.0192 94.124
92.2401 70.7488 44.155
108.244 110.224 64.8902
75.6816 77.2528 24.8924
107.322 120.405 132.231
108.927 39.3599 80.1532
62.1635 51.3548 29.9765
110.025 51.2708 70.0736
96.1041 109.314 65.659
98.4085 78.7849 33.6894
86.4167 102.566 36.3612
72.5688 209.106 138.843
94.8858 103.241 156.033
101.852 61.116 47.2437
96.508 127.335 86.5895
89.921 208.197 85.3431
136.408 111.244 125.085
98.2906 37.7888 126.722
67.9389 116.802 135.485
56.1161 190.595 135.745
139.279 75.1327 85.5602
90.1886 93.1028 52.5712
89.0244 73.9179 132.003
86.3745 112.62 152.543
76.1728 134.125 107.566
71.6833 99.6297 47.155
73.8715 36.7424 102.085
80.888 62.6881 129.704
62.8682 44.6674 54.5387
80.563 29.5841 84.324
129.893 95.0399 162.197
69.6425 58.8772 37.6829
100.932 46.9398 129.193
115.802 65.4705 60.7033
98.9357 130.373 129.612
56.2129 201.273 102.777
129.008 68.2182 110.574
50.4056 121.825 102.509
116.852 111.128 75.1768
102.911 66.6845 60.8323
64.6071 121.8 89.7825
132.663 91.5106 74.1361
129.979 104.391 76.0626
41.3022 66.5637 75.3386
107.504 118.811 137.837
104.675 101.569 134.858
101.351 95.0291 154.156
87.8575 188.798 126.611
71.7531 64.3406 117.654
77.6477 92.5873 148.247
99.5325 119.057 89.6411
79.0866 108.498 145.474
122.845 73.1553 74.8602
141.003 75.7984 116.261
76.8346 183.605 126.028
68.341 132.868 72.5565
44.2053 100.825 76.6459
70.2441 78.8389 30.4565
122.978 99.8678 146.24
80.2335 47.2037 127.352
65.3162 100.279 46.7605
123.06 74.2687 80.9738
72.6125 44.9912 40.3625
137.397 90.0344 92.4259
72.889 90.1314 142.252
109.441 42.2861 87.9133
133.849 98.1056 75.0002
126.601 83.1924 70.7529
110.916 99.8359 138.511
54.9818 113.356 50.0518
127.044 102.855 68.3405
66.1739 104.384 33.8513
81.3623 68.3277 121.858
112.024 97.9812 84.3411
121.654 64.342 63.8084
122.599 48.3239 110.713
114.391 105.445 63.2972
51.0641 62.8841 91.0918
71.2373 108.512 40.1135
134.074 89.2095 105.248
108.93 116.95 146.892
56.6396 98.7742 40.5746
72.0711 178.814 93.3693
96.1708 137.963 120.433
55.0518 128.348 78.0301
90.7365 167.937 106.65
47.8065 65.8535 36.3373
83.7398 124.337 90.5978
36.476 65.7393 51.9102
127.958 97.5081 82.9918
78.2978 111.02 57.2422
80.9551 117.864 67.3224
125.069 107.941 90.1505
88.0848 48.0633 57.8258
101.006 102.947 66.661
71.8033 102.309 35.3953
102.012 89.2131 56.6252
115.54 48.7225 77.077
101.747 44.8775 55.9391
43.942 76.3487 65.4066
92.6132 34.436 59.9643
84.8129 215.795 95.1101
134.787 98.1778 95.0098
63.9362 74.3872 25.1667
55.1679 90.9224 42.6849
79.6307 133.725 128.287
79.2967 180.893 90.9373
126.617 98.6916 122.051
64.2123 127.611 116.486
140.019 65.4191 106.71
110.434 128.49 97.3505
123.892 74.8477 61.6598
111.501 55.0477 134.423
117.979 127.885 102.416
101.83 156.36 132.273
99.3084 38.4792 107.841
77.5536 173.008 102.481
127.519 66.403 72.809
93.8861 35.6647 104.22
111.292 119.659 78.7485
77.5267 122.884 138.376
89.9539 66.1457 53.3141
107.307 121.655 98.3585
124.039 89.3511 94.8812
93.1554 173.41 104.215
87.9039 138.26 118.478
93.1406 36.6714 95.5795
113.474 123.275 122.413
143.555 91.6284 95.3629
66.3671 69.9364 107.038
56.0733 49.03 46.2312
93.7414 85.0481 153.778
127.551 93.8571 109.381
73.4653 126.109 132.326
130.889 75.4248 138.435
72.7887 162.084 130.745
84.384 73.8117 31.0791
72.6863 121.794 86.605
129.388 74.5347 101.75
72.4634 133.73 123.699
71.9578 66.4858 29.0814
104.593 68.332 41.4918
59.0566 45.7346 38.8333
108.005 106.245 59.7883
58.9068 109.488 54.2683
76.2418 122.534 68.3659
68.1365 175.142 121.372
48.4432 35.9161 77.7765
79.927 55.5157 43.5892
85.4879 97.0732 38.7219
16.2391 12.384 4.87886
72.8512 60.1908 28.6736
109.832 60.1144 52.4359
70.806 216.362 121.544
56.9165 198.471 138.327
66.0866 95.2209 27.9365
88.6821 67.1888 28.9021
97.743 72.3413 55.1367
88.3351 51.1095 124.699
122.134 100.125 108.911
78.9983 99.5191 143.872
136.299 94.6767 84.6896
82.6627 30.4205 105.898
110.721 63.397 139.925
107.993 112.163 78.0511
122.121 57.4123 71.0356
113.064 94.8131 63.7882
64.3971 175.179 127.801
119.47 78.7802 93.4941
76.1762 74.791 123.453
55.0445 117.522 93.3189
101.441 38.9165 87.9375
92.9931 60.9992 137.735
121.728 110.137 78.8798
89.7767 123.006 86.5144
86.1085 135.791 124.97
98.3475 78.4312 40.2198
94.5552 96.1491 152.661
139.391 64.8629 96.8681
57.0095 182.308 132.286
69.2998 118.441 55.5805
137.715 78.1679 121.329
53.0955 63.176 34.1947
96.2484 126.785 80.0253
87.2287 90.5506 47.4371
47.863 55.19 65.2613
67.1015 207.679 78.6643
89.7224 34.2044 77.5542
94.4636 89.759 156.751
84.7563 115.809 73.7114
104.147 49.2624 65.0858
79.8033 76.7124 29.7137
78.5228 117.255 145.548
120.979 116.35 119.391
50.37 194.238 128.216
64.1122 80.9233 30.5928
76.7634 132.884 72.3304
142.535 93.2978 106.807
103.846 47.2609 122.725
120.509 80.9638 102.807
120.988 91.4079 55.5743
106.049 54.7334 135.236
61.5887 41.7976 65.3332
56.2228 103.975 46.6962
112.729 95.8313 90.7015
77.9082 132.352 99.1057
60.504 117.08 126.06
58.1904 130.366 86.0671
97.3223 95.195 53.6865
138.093 103.514 110.465
93.4121 121.238 138.304
91.5542 114.273 76.7359
65.0299 127.274 70.5434
100.381 78.3231 135.624
128.599 90.4783 142.716
132.949 114.491 116.463
93.1543 96.4999 39.4876
137.692 97.4822 105.892
113.386 92.5755 49.9776
53.0578 201.569 130.276
72.5525 110.385 46.31
83.8802 102.773 43.1172
67.6975 108.126 135.345
66.5029 35.1454 52.8583
117.465 91.2725 157.151
101.928 123.705 78.6822
64.7618 124.084 59.5953
93.0249 83.2426 134.594
134.033 100.409 85.2398
75.6557 69.7929 116.924
134.613 73.3733 92.5845
80.0629 119.477 86.021
75.3631 57.7876 51.7547
95.079 42.0313 60.9068
83.2872 93.927 150.672
117.294 73.9061 53.2417
84.1603 45.7678 41.9839
47.0984 73.9349 37.9635
74.1933 44.8573 105.769
48.171 86.8813 46.2429
67.4106 63.932 34.3886
80.7393 89.8824 127.997
43.7698 116.4 106.628
131.662 63.001 79.4276
36.9929 69.658 69.1863
84.7105 127.044 138.414
130.606 104.926 82.2925
114.237 87.8834 54.9114
84.6221 135.155 94.9465
81.3844 76.3951 143.515
103.538 46.2691 73.4994
85.3062 133.432 89.9946
119.098 127.958 115.849
101.879 53.0867 58.5404
70.3839 32.5952 59.6914
117.911 68.1749 181.236
103.937 92.3513 49.5796
79.7182 80.9741 35.1248
53.1136 32.6367 74.4939
112.258 49.2117 126.278
83.2005 127.416 133.053
88.1671 114.853 55.8112
53.7989 48.3871 60.8651
134.876 87.4026 77.2035
74.2255 217.587 96.7215
71.8002 110.958 56.4302
90.0721 98.6004 154.664
53.1499 57.6318 40.2996
42.7759 60.2044 66.7101
79.7576 32.7882 64.7467
81.0026 52.3853 38.7758
108.933 105.245 130.518
114.675 104.197 144.582
47.9382 49.6517 74.3139
123.946 114.058 90.8189
76.278 94.804 51.7303
61.0185 67.1854 98.1488
101.343 64.2728 51.7523
102.807 96.197 63.6009
79.8182 32.3253 90.4739
91.7194 66.1324 150.395
93.82 84.6055 34.9341
75.1294 119.738 57.8077
127.308 77.0652 77.0036
65.6245 61.2621 107.828
74.0268 88.5634 120.728
82.9193 61.8891 46.8819
86.3882 81.6837 128.226
118.128 93.118 59.0931
55.9886 53.6784 56.8906
77.5285 203.368 140.512
37.7523 59.1973 78.2031
57.6845 121.825 77.8375
121.238 61.9635 75.1721
123.537 53.2446 105.063
100.543 69.0855 150.794
88.2702 73.5291 38.234
44.8955 102.846 46.3421
86.471 112.051 144.404
119.93 45.9883 105.949
51.4767 73.3247 85.3187
67.4815 59.5393 114.792
54.4583 114.051 84.0899
63.6458 108.521 44.4196
35.1294 70.6559 59.0756
79.5117 109.887 47.9548
61.9891 216.205 119.747
121.027 116.574 87.0165
69.6563 124.995 64.5648
102.106 119.658 72.8378
65.4606 45.2517 102.818
52.4443 45.1653 67.4389
59.156 81.9785 33.2449
42.4357 66.7582 65.0697
92.2028 112.546 52.5886
123.828 68.5641 66.6327
81.989 91.2854 136.156
127.347 96.075 98.4856
62.811 116.157 109.493
53.6589 123.074 113.501
48.2646 72.324 57.4729
52.3734 79.9595 39.7153
49.4513 188.718 121.113
131.039 95.1903 131.593
66.2811 134.424 146.144
53.0904 76.5831 33.6786
56.0179 41.457 55.0605
88.501 117.833 139.439
124.776 114.82 81.1691
34.4361 101.865 72.8027
90.8048 81.5289 46.6995
55.9694 63.4847 45.5216
62.8832 103.923 130.548
67.5609 136.323 114.1
68.6485 128.479 100.809
67.1897 79.3821 109.56
95.2678 45.6841 53.8126
59.0139 106.188 37.4767
58.0428 122.457 70.9601
133.504 73.9148 86.3975
35.6558 9.54761 1.47851
62.2024 196.248 92.6775
54.2294 69.9793 93.1652
99.1066 43.2064 117.49
54.9425 207.109 114.748
103.244 57.5801 130.448
52.6246 62.8223 56.9876
66.3643 129.664 122.946
128.36 100.902 97.0508
46.291 85.5962 38.9114
45.1749 100.858 85.9675
48.5442 92.0305 91.6735
98.7558 61.1128 135.652
54.9691 78.8996 91.1491
106.803 121.941 86.5756
111.332 84.2175 152.176
53.9524 93.3561 61.167
61.5527 112.168 97.2373
59.0545 191.578 99.6047
130.366 102.776 101.916
59.8551 73.5147 95.0569
126.091 79.2678 83.2576
51.9282 71.0453 42.5532
40.9585 84.66 77.9974
82.0773 112.837 51.6006
68.9661 107.565 51.8722
120.995 73.7074 126.438
116.831 101.642 78.7862
131.046 104.396 94.4278
83.4379 76.8869 131.085
46.3579 79.9752 59.121
61.0943 62.4091 99.4221
47.1191 87.0199 84.1118
59.6447 57.3749 40.8856
91.9346 112.318 44.4398
67.428 130.614 109.576
127.412 89.4421 73.881
132.097 98.1225 115.175
