ply
format ascii 1.0
comment Created by Open3D
element vertex 893
property double x
property double y
property double z
end_header
91.4512 79.5875 180.159
49.2917 221.654 147.911
108.256 38.9189 168.969
58.8628 214.849 105.562
110.541 35.0603 142.28
98.2458 144.41 265.051
92.3116 159.819 109.002
90.8587 114.727 103.332
77.7586 184.918 107.745
44.2731 224.252 112.638
80.5916 35.015 148.189
82.399 154.057 117.163
118.326 83.1309 194.861
94.8814 30.0975 156.313
78.376 205.77 164.781
115.13 49.0061 170.164
95.9822 171.366 55.517
104.621 73.475 205.674
82.9687 207.258 143.272
90.6691 58.3833 57.041
76.9621 91.2744 248.781
100.937 56.9637 61.4861
83.0521 174.137 136.45
115.654 38.2266 126.771
70.161 110.815 293.815
100.736 34.1821 164.267
106.784 163.187 201.271
72.9808 205.8 93.6166
117.271 128.642 197.399
83.2884 73.1454 333.73
82.27 113.674 79.1302
70.6746 149.518 203.903
93.3699 88.2011 187.573
98.8166 27.0097 146.48
89.2813 203.335 121.94
101.537 140.284 277.233
107.478 44.7671 179.045
83.9383 106.305 83.6875
121.424 93.717 167.121
94.5268 202.46 110.178
80.1983 121.764 73.166
122.064 56.3315 118.077
67.2619 211.414 114.083
106.641 48.6916 340.382
92.5814 118.684 292.538
123.144 60.4519 111.233
64.8319 128.052 44.8176
80.7715 201.415 98.3057
96.368 127.563 42.2833
113.073 143.751 189.377
82.7261 171.601 108.134
93.5421 109.441 182.927
90.9156 113.281 192.83
97.7713 180.004 54.2542
89.7548 141.787 97.4122
81.8731 151.75 101.399
76.5896 137.691 211.772
114.219 80.0018 113.912
72.445 133.232 56.3487
82.3631 39.8109 164.08
65.4232 86.2282 38.3188
89.8422 199.851 167.779
98.9634 194.583 118.84
84.6173 86.1131 35.5979
77.9039 55.8326 153.027
120.314 50.5245 134.045
113.635 124.827 177.827
117.607 99.0505 200.317
107.234 61.0744 318.683
92.3714 37.9465 173.62
84.4113 203.108 61.5897
93.7644 110.979 149.984
90.585 33.7357 331.613
78.8272 203.942 83.0969
101.486 194.387 74.4475
107.84 54.5009 309.273
85.503 96.6215 89.4078
82.283 153.108 156.498
99.0089 99.0364 254.19
79.6588 138.855 108.106
75.9722 143.547 61.8492
115.613 133.497 191.965
92.3967 102.824 109.51
44.578 212.875 155.745
117.595 74.0643 107.44
104.814 48.6013 189.276
76.0596 52.3856 141.662
114.343 52.7015 181.169
109.904 83.1895 118.122
93.4135 198.999 59.5701
52.3964 203.226 54.7405
119.328 77.4453 74.1254
100.897 134.216 282.256
91.0363 112.037 161.605
108.18 92.5214 214.971
87.9222 28.5067 145.072
78.6156 103.846 114.735
95.9329 145.953 275.208
110.676 40.6976 97.4745
83.85 87.3735 284.858
74.1239 184.68 157.202
88.1344 134.388 32.6752
65.9132 202.269 47.272
107.838 87.3319 111.379
90.3012 121.193 244.588
122.704 81.6195 174.487
65.9709 98.4861 290.166
44.9365 225.942 124.84
46.7374 226.113 135.901
68.1806 202.824 182.2
98.4712 49.4503 68.2324
75.8315 48.4298 125.147
86.9398 70.1928 184.704
91.7936 129.722 171.315
88.4228 132.62 162.743
78.7827 116.347 66.6494
109.548 125.302 268.408
84.6655 152.241 170.764
110.725 81.1462 54.2757
29.0999 217.493 81.8125
76.0069 139.429 200.42
95.8866 171.955 95.2712
96.9581 108.849 36.562
93.3972 116.588 179.582
82.5315 45.8889 70.4748
63.1734 194.021 36.9541
95.5794 92.75 256.642
74.5769 121.604 125.568
67.6604 188.544 157.46
100.265 95.4566 42.3735
84.3565 119.633 296.603
59.9522 103.877 37.2814
85.176 31.987 156.181
42.9365 220.217 93.0598
60.525 214.008 164.534
116.906 66.1788 144.096
80.8248 203.65 115.075
120.411 59.0357 165.197
118.748 67.247 131.401
82.1033 62.9968 344.407
68.6322 104.062 55.5872
63.4101 90.8041 296.159
74.6641 153.211 215.229
57.7506 124.949 36.5235
72.3914 59.8504 68.3979
112.512 86.0558 209.199
77.1569 155.348 69.3659
79.5444 131.155 75.5381
90.8635 145.112 264.012
63.5091 180.209 65.6968
91.6729 70.7483 43.0669
112.217 128.139 214.494
101.169 188.469 80.659
99.1123 26.2989 137.641
94.8873 168.089 158.084
78.5748 102.515 146.286
95.5689 160.042 135.716
50.3791 211.699 165.356
91.1084 98.7587 193.984
102.94 85.1301 213.87
120.401 57.5544 128.613
121.037 50.7748 101.64
81.639 142.872 220.125
107.018 88.0347 123.885
93.4719 129.192 125.41
76.2992 59.5129 144.737
99.8105 62.9393 134.906
94.4585 41.6268 74.0727
104.483 99.7788 48.4261
83.5001 86.7264 154.827
63.0528 114.684 289.777
106.129 96.6784 146.267
115.897 53.7791 312.955
91.6794 130.897 293.897
108.547 58.9919 330.381
65.6658 110.931 50.6011
95.5884 98.8371 182.654
85.0487 39.9738 78.0403
75.9442 212.129 137.999
92.4006 153.147 117.589
88.0092 97.6952 285.023
84.371 148.169 275.548
71.1324 169.696 176.769
89.82 189.649 193.17
107.097 95.3629 58.4529
113.859 111.956 209.286
96.8433 171.568 71.5358
102.266 192.246 91.516
96.5364 180.236 110.288
50.6179 218.235 97.1225
116.706 66.596 96.4057
69.3591 69.1971 320.111
91.4344 140.96 286.698
76.5975 122.394 298.746
104.549 33.6841 101.485
90.6282 147.577 223.576
108.549 79.1689 209.321
120.487 66.1316 105.087
86.2246 145.868 63.0112
118.209 49.6901 157.593
105.86 106.574 149.219
91.3136 155.229 97.3432
108.716 47.874 304.914
72.3961 45.9461 339.082
114.538 77.2732 131.633
83.1354 167.632 127.169
86.3301 89.1423 85.9316
102.22 198.057 85.7079
57.4318 201.009 46.736
77.6576 73.6771 326.866
104.521 113.239 283.945
79.5588 164.092 87.8257
70.2839 171.974 65.3795
85.6587 35.8997 87.0367
77.6462 131.461 66.6205
110.419 41.0391 311.103
99.7273 97.1997 114.233
94.4824 177.257 128.983
71.4287 96.956 250.589
114.121 64.1034 190.234
95.1961 64.7341 201.719
114.923 51.0543 87.5179
98.8585 151.778 220.487
80.8253 131.255 84.0347
95.9836 107.775 249.962
66.0983 70.3078 60.4971
115.476 40.8023 106.56
57.7841 186.158 185.331
76.4535 102.631 64.7912
64.6205 204.969 62.5963
115.213 84.0326 62.239
84.3414 132.321 153.386
98.9566 52.2096 192.667
91.8989 47.0479 63.5958
87.4598 197.487 51.8322
80.499 77.8299 81.429
102.691 138.137 223.019
92.4727 98.4381 264.073
49.1465 212.748 75.22
89.266 157.106 63.3092
86.1978 78.679 38.6881
108.127 66.8505 198.783
72.2829 106.525 260.129
92.9978 202.921 89.2306
120.43 40.8457 323.628
96.1153 98.4489 103.697
110.944 145.197 211.273
88.2327 124.981 159.168
92.3148 183.341 44.0149
119.489 56.5011 145.436
101.771 116.269 221.807
105.911 146.541 176.217
79.9808 176.968 100.951
86.5835 91.08 258.11
104.649 89.8567 102.187
100.651 39.9325 313.043
121.506 79.6219 183.18
35.2828 221.231 92.6422
108.293 152.966 209.881
74.0578 180.104 80.4984
116.143 58.8857 75.4502
120.531 57.718 86.9253
61.955 207.18 177.082
108.045 123.591 220.148
99.1817 34.737 332.838
114.559 40.85 325.725
86.3699 196.293 184.358
93.3994 159.476 159.338
105.374 88.7649 49.1255
81.4776 201.524 178.564
74.9916 84.7656 124.407
98.7206 57.2513 329.218
113.046 47.0262 335.897
107.163 67.8052 56.0923
86.1593 107.125 245.85
113.132 49.7383 328.816
91.1424 121.563 115.482
96.3705 69.2266 48.7649
76.2391 46.3179 151.08
92.0972 125.519 178.517
66.1138 219.969 131.283
79.4826 107.494 69.1176
60.239 207.153 78.7695
71.5768 148.234 53.3608
27.3785 212.651 120.467
74.7732 145.461 193.329
117.523 108.435 200.949
92.8297 114.186 246.602
91.1966 93.1687 168.334
76.1936 183.265 91.6534
108.025 38.6791 340.038
95.4241 115.714 254.655
110.763 85.7217 76.639
44.2661 197.769 43.9739
85.3705 141.154 158.981
123.524 93.8947 177.232
72.9054 196.289 41.3277
84.3095 45.1569 176.372
85.8564 119.545 126.882
107.807 117.421 258.687
75.5631 50.1452 116.331
96.0224 59.881 165.756
83.0429 123.811 219.848
77.5676 85.8791 258.004
66.6045 191.204 142.873
87.9092 99.7703 249.594
87.5486 66.0874 338.988
72.9929 161.162 211.793
81.1017 54.8279 97.6743
85.5968 53.2694 185.43
89.9921 30.8576 102.094
120.918 70.2488 73.8955
97.8155 190.897 56.6886
42.056 172.044 28.8965
115.665 108.489 163.898
75.7733 187.556 141.742
78.7669 146.439 268.602
54.0654 166.384 47.669
83.9766 144.782 261.981
93.9757 136.633 251.507
91.4139 184.337 200.476
46.887 197.188 174.779
75.1988 105.13 298.353
99.8581 122.242 286.399
77.9551 138.952 124.369
79.971 130.166 95.9886
63.8433 138.438 43.796
52.1288 216.513 155.564
91.2195 154.219 217.767
98.9042 74.2994 144.82
56.5445 190.896 166.743
79.1017 64.9786 324.954
109.218 52.4749 316.809
102.517 176.74 194.641
81.2266 51.8025 61.7066
102.675 99.6556 139.591
69.5665 137.477 49.922
66.7519 219.952 141.551
75.851 88.3852 72.2574
83.5136 170.964 211.51
85.6086 56.2707 347.839
59.105 101.48 253.082
78.8492 83.7052 144.175
75.2714 201.53 48.3846
76.5752 128.31 131.596
80.5317 87.8698 149.504
93.7112 101.787 33.7018
85.641 117.736 154.229
81.4422 100.539 247.115
53.5205 207.316 176.822
42.1435 222.756 102.819
81.4005 150.931 109.394
93.6796 108.305 120.534
57.3736 98.2602 290.066
91.0249 83.099 193.477
86.9245 126.469 296.111
84.0632 68.323 168.979
65.8279 214.521 155.836
86.8375 109.319 207.869
99.151 118.693 44.4845
95.4455 59.0497 197.039
78.6088 136.258 140.758
75.9472 150.562 188.576
101.55 93.3275 125.997
100.908 47.5901 307.896
82.1211 52.007 170.856
102.541 35.0789 322.055
121.259 107.829 171.827
109.456 122.688 165.593
40.3544 173.738 38.0726
53.4359 205.577 66.0131
102.615 104.823 132.85
74.7361 205.53 68.6817
89.1614 122.453 192.412
58.9682 210.743 88.9102
66.0569 198.908 188.971
112.752 74.3043 61.1012
92.6874 172.785 41.2789
78.4009 141.815 72.3805
70.2037 153.566 193.994
74.2348 54.0554 72.102
74.9228 211.547 144.834
73.1227 60.8092 76.5226
117.094 66.3614 184.554
89.2436 72.8305 196.164
83.0132 143.267 254.21
94.5011 164.703 100.836
80.5543 146.271 150.819
67.1762 167.101 188.761
80.4412 59.4764 51.8516
87.234 79.1117 95.1728
71.1289 61.5559 312.316
89.0602 136.34 223.878
110.872 154.197 193.844
78.5557 190.276 200.326
119.336 48.6445 319.999
103.719 121.883 255.55
65.8168 111.99 250.48
82.3589 81.8255 271.5
118.8 74.3532 121.055
89.4223 86.6954 276.067
73.0198 102.393 246.586
72.2897 56.8329 355.147
99.1113 163.295 213.117
59.8809 222.713 143.41
111.386 92.7492 152.139
106.329 147.745 218.76
97.1971 102.299 121.712
108.717 103.075 154.633
91.1474 125.216 31.8829
73.015 105.699 128.599
96.2321 121.988 135.061
109.824 90.8935 64.3479
64.6736 74.7109 333.632
71.1724 204.877 79.2242
69.2769 100.801 279.424
95.0422 160.911 94.5216
95.9855 139.793 224.46
64.8461 181.515 170.018
100.145 27.4132 125.941
75.2615 59.0878 127.001
115.883 68.3061 150.613
53.2449 150.728 24.6531
123.138 98.8872 183.963
97.8563 113.675 285.208
73.0006 110.112 248.539
83.5975 56.8326 178.585
103.39 56.5592 337.612
113.138 59.1519 323.12
116.407 104.02 206.779
90.401 126.181 146.46
64.3944 90.1551 284.874
89.2545 128.921 247.366
82.3164 128.397 247.602
71.2664 83.5653 264.578
74.147 106.467 121.804
83.592 104.919 27.4727
66.7086 152.219 48.6511
102.961 198.514 98.0637
81.055 180.786 121.695
99.3604 106.623 140.403
87.6356 203.646 75.5535
80.0358 203.263 56.2943
114.036 80.8656 69.2775
74.4162 140.985 287.029
93.2479 165.108 49.1936
75.7024 107.248 25.2975
77.4379 157.547 181.245
92.4501 89.6109 263.624
116.967 97.2979 161.609
82.2617 120.695 246.843
89.4353 100.8 162.176
35.0903 194.014 120.706
85.323 136.902 273.439
34.2572 223.279 116.788
76.6976 93.4321 135.572
54.7816 192.845 142.513
58.9379 193.116 122.039
106.32 130.897 221.469
75.7537 145.426 212.139
87.3715 128.621 223.922
74.5344 78.222 70.3059
90.9011 129.582 59.3025
99.2045 93.3254 270.078
98.9636 51.8094 312.666
102.719 127.408 254.668
79.1733 72.8234 343.307
85.5608 104.713 290.639
69.075 86.4203 292.638
83.3845 206.548 153.885
72.0662 184.204 32.8322
96.967 125.492 250.199
56.0441 55.3101 345.885
85.6 121.389 254.481
111.739 146.916 202.537
82.1702 34.8173 96.5254
80.2243 112.531 299.984
70.2659 204.209 55.4439
35.7566 224.187 107.246
82.2874 137.851 257.899
68.2309 193.37 111.706
76.6026 41.5486 100.117
87.9466 104.849 214.267
12.3495 233.771 119.826
72.1341 86.472 253.024
121.904 67.8867 116.457
99.5975 112.622 55.1149
101.903 136.916 258.965
74.3014 130.086 249.112
31.6111 210.648 135.973
57.6314 220.19 151.534
85.2673 137.481 280.711
97.5572 201.026 74.4313
109.328 116.547 274.897
83.8612 70.0679 86.9695
73.5121 58.382 340.599
86.4751 84.4155 262.936
90.8671 132.676 117.886
99.8907 129.132 287.115
116.407 69.0876 66.6053
30.0204 206.501 128.337
74.5694 160.966 63.3667
120.477 51.4492 94.0274
73.815 48.6096 350.84
50.8982 156.749 39.6477
65.7594 87.8002 53.4319
96.3872 68.9875 138.218
81.0539 102.472 103.05
111.49 94.5117 272.046
102.181 77.5588 48.0657
92.1488 122.848 253.849
92.1473 202.137 157.052
115.963 70.3895 85.8551
77.9398 122.739 282.899
40.788 219.321 141.996
78.3994 127.616 138.49
57.7404 72.0357 340.25
72.6115 97.2755 30.7004
34.3408 222.713 124.536
87.1117 171.963 36.0562
109.795 78.1803 100.738
100.249 118.575 249.584
75.3543 114.014 127.853
85.5363 118.674 282.007
104.408 34.1074 314.125
72.027 72.5294 348.232
104.979 129.861 260.56
92.2868 102.906 255.418
83.6977 151.074 215.363
78.3371 133.154 288.021
115.021 53.1121 322.589
95.9161 114.912 123.247
98.8738 150.808 147.891
84.3205 129.599 278.915
81.5538 150.512 84.1945
72.7178 74.6721 335.227
103.735 123.101 273.896
52.7317 200.6 182.568
112.248 83.0203 152.689
85.3257 33.1769 110.452
31.8015 220.967 100.06
82.2963 110.178 152.433
64.5922 192.835 81.0551
82.8792 59.087 329.804
91.6402 51.1462 190.276
36.7669 196.795 146.37
71.4053 152.386 171.627
78.9415 35.533 132.534
77.8439 78.1198 40.6029
95.6207 118.951 36.3715
38.2948 217.492 78.4183
84.8191 73.461 101.738
92.6034 34 92.5847
72.4747 88.9962 62.5629
62.3605 97.9884 298.884
66.5296 88.3204 257.897
105.142 101.688 264.129
116.584 45.6726 313.764
94.8231 92.3288 36.8005
86.0853 133.51 286.83
92.7529 123.78 283.538
55.9179 62.7395 341.262
77.3064 114.731 136.795
106.569 112.957 263.104
72.0348 179.598 164.147
72.0211 121.406 292.051
66.9484 174.604 203.174
120.182 113.214 186.216
64.5853 180.663 199.925
101.198 105.448 282.73
79.6863 113.458 107.475
99.2132 49.1484 332.885
57.098 197.08 104.864
64.0245 210.518 98.8476
76.2189 167.028 75.337
57.911 70.651 348.548
69.626 75.1786 327.579
76.6541 89.9657 265.605
72.9221 160.541 152.809
74.9318 197.124 193.2
70.6388 133.046 21.9706
108.575 123.875 261.45
74.8361 124.409 59.6143
80.6446 144.601 279.27
97.9103 101.949 219.064
99.9648 182.663 67.7676
86.0294 119.791 27.0168
61.1638 105.424 289.902
85.9381 161.376 216.094
98.281 34.3611 94.9013
80.8715 184.512 136.243
87.6516 136.68 184.291
81.1453 172.064 159.13
106.204 128.178 276.889
80.7114 51.4861 108.793
71.2656 139.104 275.229
75.5054 70.5585 119.574
77.947 113.706 144.356
52.4406 63.8082 333.595
103.717 120.84 267.156
91.8732 194.57 176.951
94.7251 106.406 80.6287
74.1574 189.07 123.644
89.187 100.439 207.34
107.79 136.181 264.535
87.3744 93.9993 30.1862
68.4856 67.1003 330.755
94.126 88.6993 270.51
64.244 63.8211 346.827
37.3514 207.166 150.396
66.6532 192.109 125.631
81.489 37.8494 321.95
62.7714 74.1353 325.642
118.583 77.8207 160.222
81.7975 166.204 156.039
101.202 115.405 254.072
99.585 56.1059 317.459
82.9829 124.194 211.503
76.482 45.2401 85.0518
72.8296 118.409 58.1878
80.8752 143.528 27.8308
81.8704 58.1918 164.506
77.4328 114.319 290.927
118.654 42.2913 132.552
74.0865 119.797 247.602
103.994 83.4221 89.7298
103.457 108.493 277.625
74.1176 59.4874 57.2065
59.1366 40.4172 344.31
98.4952 144.735 156.441
75.167 69.0793 316.455
85.1162 88.1371 268.294
87.7431 136.615 254.261
106.746 85.0889 131.146
105.619 162.551 183.069
75.7108 73.1092 45.4574
90.5529 96.1507 140.814
110.394 77.7346 196.501
78.4862 146.104 79.2176
103.109 122.107 280.299
42.9123 198.746 161.668
67.4625 120.541 290.021
61.1488 110.806 281.561
117.291 44.0858 99.8524
72.3318 124.774 269.929
106.067 178.402 188.404
82.5945 160.153 143.376
99.4892 99.5974 265.41
80.2739 185.711 36.4082
28.8199 211.934 113.107
29.9081 216.478 129.048
80.5414 115.043 258.164
92.5111 177.971 208.424
67.3035 192.218 195.934
63.8374 132.926 271.637
99.0189 101.997 71.1012
54.6573 189.209 176.671
77.0697 176.167 164.29
90.0528 28.3376 121.563
68.2892 71.7858 50.9642
63.8233 123.911 269.707
77.6295 65.6353 336.018
65.5061 59.319 329.625
99.4295 98.3029 277.164
82.776 94.9271 252.619
82.9778 114.366 247.102
89.5403 131.149 142.906
79.408 123.829 290.67
103.837 185.238 182.527
74.9695 134.883 254.545
71.7801 209.96 122.161
95.2794 42.5449 183.597
76.7904 46.3208 75.1801
101.12 138.804 267.945
86.9248 108.608 256.95
81.767 127.929 203.532
78.7424 58.8643 317.427
22.8192 211.817 91.5542
83.7981 111.475 287.185
78.8688 92.9636 258.252
57.9328 47.4898 348.792
95.3583 103.295 271.004
107.083 40.6187 331.647
96.7217 69.2434 107.519
108.625 33.8424 319.367
93.8888 104.957 284.489
78.23 127.612 278.238
66.1469 70.3414 352.845
86.9971 49.3241 59.2903
64.5525 47.9684 134.748
96.0921 89.0081 130.787
81.7302 180.343 208.389
82.1377 130.989 194.58
94.4008 101.911 279.519
56.6757 137.825 37.0626
55.4864 107.234 278.589
108.098 46.0181 79.9184
94.4636 86.132 212.761
78.5723 43.2575 156.329
82.9308 33.1235 329.025
65.2032 162.6 54.6253
80.6191 123.507 145.16
91.2022 155.681 52.0663
103.883 137.979 167.638
92.9898 152.736 77.9619
99.9028 117.259 276.523
95.9197 131.799 253.722
92.0701 130.477 284.396
78.069 89.072 296.981
102.968 70.9894 130.063
91.469 194.934 143.206
79.9324 82.829 278.604
69.0775 166.054 28.0312
70.4835 79.169 62.7856
68.6176 194.861 93.5451
66.0989 100.238 248.726
72.8549 102.038 135.766
73.05 83.8933 272.636
61.1345 158.885 21.9984
70.8636 179.705 73.5725
61.8783 179.16 180.013
76.0182 133.171 267.984
76.9926 114.451 244.309
85.6894 61.5848 172.645
69.7466 135.488 281.217
40.816 198.75 72.1086
91.1976 140.581 258.619
74.0277 209.493 172.726
91.7444 117.736 277.429
85.2667 122.829 133.238
81.3456 130.821 255.541
87.887 147.699 269.166
80.71 156.611 218.723
90.994 191.137 47.672
101.697 132.145 160.198
46.8224 192.29 142.895
57.9925 191.251 191.337
51.9476 187.124 62.5569
68.8222 126.253 253.516
97.009 179.146 96.3757
37.7488 213.204 70.1618
99.3381 69.0527 126.813
94.0461 40.1423 329.282
107.536 132.005 270.833
70.8282 76.3264 126.344
80.7854 77.8007 156.624
103.528 104.282 270.241
92.4246 99.3811 168.994
95.7655 108.984 68.0013
60.8762 181.617 192.201
65.2997 133.891 264.364
111.075 52.9622 69.4501
95.1488 27.3545 121.368
87.7825 99.151 273.836
82.5147 152.807 32.6279
71.5815 129.496 287.561
57.3793 125.89 265.431
40.0808 223.607 129.647
87.5863 130.172 254.757
104.349 47.3609 68.9441
74.3125 172.888 74.4913
81.2648 192.42 130.181
80.6565 100.426 72.8425
77.7726 55.0795 87.0762
49.5066 198.213 78.0733
77.1441 62.4742 351.18
85.8387 137.595 171.747
54.4326 106.554 289.092
61.202 192.729 128.947
90.8435 111.069 282.266
66.4498 146.664 21.4284
70.8753 138.307 264.163
68.6799 152.625 163.914
92.9729 120.862 222.651
52.7437 190.862 132.393
58.079 224.309 131.048
101.48 134.135 274.183
102.823 113.544 272.399
84.8648 104.016 279.106
66.5553 47.5096 348.748
82.726 88.8767 276.983
85.5263 100.439 258.147
109.151 89.7331 135.903
59.4705 125.632 258.631
34.5903 191.467 40.1816
77.1593 151.526 138.281
87.8571 148.965 54.2364
37.2763 186.217 51.8409
90.799 204.757 133.575
108.123 35.1007 149.721
88.2492 114.418 254.992
76.8498 152.031 168.446
59.7683 121.167 284.491
24.4818 226.195 105.109
42.2749 193.492 63.5852
96.6561 135.943 286.45
71.3164 129.282 259.003
73.7148 113.151 284.996
91.7205 131.821 182.152
103.677 92.2824 112.62
73.6571 130.36 272.504
71.7262 123.935 283.967
93.792 58.0664 161.373
84.1325 144.535 164.704
87.2758 95.6061 278.225
108.047 39.5156 322.69
60.5458 108.642 249.511
76.0187 165.871 30.067
39.7731 181.905 121.395
98.0301 111.068 271.169
100.549 30.3233 109.141
26.5513 218.296 107.184
24.9241 215.609 98.791
80.1371 107.95 291.666
89.0523 163.931 160.935
77.4548 143.259 166.398
85.69 109.863 282.556
44.2407 159.745 30.7931
31.8988 186.953 46.5562
60.5744 55.2507 353.78
76.3695 139.546 269.638
79.3905 105.03 245.669
65.545 70.392 338.7
24.4069 207.203 71.3358
113.177 42.2933 318.098
74.7347 135.762 260.431
79.4204 106.196 251.476
73.3546 54.863 348.057
96.2168 37.2315 322.614
80.4247 75.3677 161.673
55.5426 198.883 90.5264
64.4764 104.018 28.0987
78.2973 124.265 253.659
67.5023 129.984 280.374
57.0615 128.708 275.25
100.372 184.023 187.272
96.82 133.787 153.056
78.8647 153.077 142.974
77.988 136.204 278.456
45.1879 180.828 52.1035
70.0078 154.637 25.4852
102.897 107.282 256.085
103.303 41.3482 327.236
71.4238 120.197 257.66
67.0017 87.0022 278.232
97.6118 127.608 277.588
63.5031 61.2505 352.431
100.104 112.862 266.085
87.749 183.734 125.538
57.252 115.552 273.054
108.566 129.844 174.411
78.8976 140.207 263.855
90.3301 122.981 184.96
23.1486 208.699 82.7545
106.268 73.6834 72.1356
69.0593 87.9925 72.2501
66.2381 160.382 152.707
37.8794 179.097 42.6681
88.7148 59.6601 165.861
43.3252 201.301 83.2826
111.637 57.1019 117.553
72.6938 119.84 277.242
70.5494 65.9967 341.688
102.629 46.5932 155.277
84.6088 29.6116 122.256
66.6416 56.9672 320.355
86.0493 204.7 130.307
96.0929 170.407 88.8364
109.189 83.5059 139.032
84.3941 94.2769 271.577
66.4265 125.663 262.049
97.1661 47.6097 156.279
69.7105 80.8283 38.5253
74.4677 63.4997 347.4
71.3222 39.5098 333.792
81.169 120.781 131.253
88.404 129.76 65.3015
62.2895 67.0076 330.274
99.6865 125.789 154.895
76.796 199.744 131.249
29.2964 195.447 61.1067
105.051 42.1509 77.1412
95.3261 73.9409 112.734
43.2644 164.349 30.4195
88.7353 147.327 138.582
73.3646 71.8797 73.8456
93.4174 135.649 282.135
78.8868 65.5678 164.358
89.5518 106.04 281.234
85.767 66.0459 92.2782
48.451 185.964 154.317
111.406 58.1898 109.54
73.6158 68.6729 51.1108
