ply
format ascii 1.0
comment Created by Open3D
element vertex 1165
property double x
property double y
property double z
end_header
63.0527 266.095 137.071
85.5569 181.226 74.3518
94.0457 59.2695 168.285
76.5253 131.835 93.5061
78.5615 107.473 147.349
82.9119 130.63 176.994
77.6643 122.916 193.305
75.4778 194.554 54.4732
66.14 254.992 167.28
81.8887 223.689 97.5648
75.501 193.279 170.29
55.8222 42.7595 122.191
93.3581 156.872 98.5625
98.537 106.33 141.824
98.9845 143.659 205.643
80.6691 201.71 139.998
96.0699 77.3873 124.34
84.3393 244.903 149.184
81.1467 138.079 47.4139
95.1082 70.8948 116.546
77.2036 114.332 109.605
91.7011 204.194 176.227
71.2526 173.919 39.0292
87.7678 162.16 232.269
99.9725 129.037 140.045
71.8726 94.5121 177.673
54.6953 184.006 65.7303
97.1696 95.8986 98.7652
96.451 75.6063 88.8146
69.291 121.92 85.6154
94.6195 122.292 192.209
60.7285 106.952 206.227
82.7433 109.394 241.309
88.1023 218.072 107.435
44.337 224.167 57.2995
87.5396 171.796 81.9504
96.5985 148.726 101.846
28.3492 234.88 267.5
90.0239 220.668 173.139
91.3733 53.4009 144.299
84.7002 167.519 62.0125
95.462 96.3865 177.695
97.2026 86.243 98.2882
44.8235 242.817 179.171
73.3846 200.522 105.357
97.687 207.036 137.173
74.5027 214.463 60.5211
63.1792 144.625 35.6001
93.9846 61.153 138.484
97.7616 131.948 201.806
95.6976 203.792 146.693
61.9945 266.553 126.546
67.3049 88.6024 57.4852
94.9414 228.897 134.427
89.099 107.255 63.0469
97.8191 125.751 75.6589
73.8442 116.088 196.877
92.0167 116.594 229.605
36.4901 93.5996 68.4301
55.8021 228.23 169.038
62.0836 261.448 106.262
97.9186 102.354 153.887
89.8326 156.814 73.3699
87.5569 85.656 229.301
68.5425 58.8919 174.814
87.0993 119.282 236.29
86.7962 220.007 185.11
70.3012 115.758 90.3672
64.0664 179.558 194.566
89.0764 203.838 90.9514
95.1917 200.507 167.676
94.1107 171.01 198.653
70.9698 125.236 201.845
83.1206 52.4787 111.406
54.2044 249.179 126.927
96.9468 112.806 73.3126
39.5772 145.36 55.5988
86.591 239.553 120.368
98.2839 164.362 119.114
82.8032 240.023 160.601
68.0431 255.753 102.642
76.66 150.523 189.817
98.6857 90.1114 147.947
98.2391 127.889 211.825
94.2316 83.0374 117.674
90.813 161.016 83.9263
52.1189 153.238 236.48
57.6814 205.974 79.0331
94.1662 210.972 122.994
99.6596 129.373 106.373
98.2083 132.666 81.8597
70.7199 260.213 135.468
97.8534 167.74 172.108
101.213 79.593 176.291
97.6499 133.105 175.258
96.1769 186.792 168.77
87.9649 187.217 204.148
64.8417 206.388 46.792
70.0604 239.647 191.354
97.4055 137.916 214.841
83.5662 226.599 105.672
98.3431 159.125 128.638
75.4783 185.888 115.764
74.9049 217.722 139.949
49.773 251.012 84.4451
97.1113 142.266 191.625
77.1796 157.982 127.392
93.9327 146.821 230.006
81.1533 119.771 177.642
92.2696 57.8519 188.271
98.8577 110.611 215.203
57.9001 47.5226 173.295
71.8745 66.8487 78.2645
97.0816 151.833 185.681
96.8376 119.048 79.8444
91.625 208.138 130.757
76.9531 134.497 101.608
89.2248 184.35 87.6885
78.108 188.502 153.042
96.8865 121.495 203.936
91.1325 175.176 206.654
92.564 123.85 60.4128
94.8684 201.358 118.397
74.757 87.0151 145.489
98.1443 140.333 157.059
49.28 259.189 157.894
86.0463 48.6033 146.019
73.9632 128.031 115.228
80.1779 141.045 173.829
38.5426 212.689 267.814
68.3211 46.2219 128.579
74.9855 122.161 96.2541
64.0701 230.885 157.187
95.1842 182.172 173.704
100.717 143.496 146.208
92.6742 71.3025 212.476
86.3423 50.5385 173.637
89.9013 51.9458 165.445
46.817 79.6006 185.509
84.4991 119.987 57.0642
57.1521 244.464 149.744
88.7822 134.178 54.6264
92.1199 158.536 223.375
88.159 101.896 233.34
48.0096 241.605 168.485
61.7744 108.785 87.8591
60.8505 103.388 44.6263
56.0473 220.996 46.8285
74.5272 91.7429 162.29
94.1317 219.549 128.656
72.2761 221.81 118.501
95.744 88.1821 172.753
55.9876 236.44 162.111
97.6346 113.981 134.092
95.2885 147.104 223.186
98.4859 113.067 151.722
39.1943 227.734 262.937
87.1644 49.8973 136.022
97.5707 111.135 82.7574
94.6156 158.383 211.849
52.6127 203.867 218.439
97.2835 90.8097 164.263
98.7302 124.727 153.741
11.7208 237.923 266.373
98.6946 102.98 95.6058
70.9896 91.0697 122.016
44.4442 66.0814 164.508
78.6136 189.408 162.284
87.3311 143.785 57.9369
76.8124 108.2 186.724
77.1923 203 66.7551
67.6166 72.9954 68.3725
70.0699 143.8 204.04
74.58 179.884 98.9663
86.9705 59.6825 201.884
90.3901 185.047 185.288
53.2951 127.572 36.4787
98.2212 150.916 204.432
55.6616 260.367 100.673
96.2935 87.7792 79.1657
95.1269 94.8522 74.7049
72.8984 246.835 170.205
77.782 101.551 178.065
85.9297 125.723 50.4277
76.1194 254.141 115.894
85.9405 227.235 175.651
70.8985 247.121 91.0725
84.0181 144.463 244.524
70.6456 255.499 152.339
82.79 234.769 110.35
98.7618 217.513 153.978
65.7784 76.1542 140.309
96.3621 150.603 170.553
56.559 181.902 207.031
95.9046 77.9237 133.573
98.5318 97.5609 159.71
58.4563 99.854 201.857
66.126 172.905 201.519
65.009 77.8146 223.819
86.1786 158.214 64.9351
74.9635 72.0607 72.7873
47.9776 73.0763 178.506
76.8534 254.737 125.513
95.5431 162.199 202.309
67.0818 167.081 147.5
85.7096 211.91 200.851
41.7448 60.6707 138.365
93.1762 177.998 195.085
97.1836 154.432 156.878
69.3016 258.433 111.28
78.0704 48.0706 143.064
72.4022 79.7663 62.0393
84.4474 246.794 126.576
70.9424 172.528 191.327
50.8761 189.676 210.004
96.49 223.717 141.623
95.2322 175.14 179.959
95.0312 130.024 182.729
63.1222 145.005 73.414
50.167 216.968 271.137
49.5911 254.856 97.0444
73.0319 203.339 54.1911
99.1578 131.964 159.667
69.8845 148.413 82.9224
98.6278 163.583 146.16
66.4373 110.993 48.1482
96.6496 196.788 156.767
98.8757 218.055 163.107
93.0389 195.937 179.698
87.9677 166.339 73.7835
96.4726 144.045 164.492
93.6884 63.0649 148.774
81.6413 185.92 62.6697
97.3411 158.277 164.668
59.9192 100.035 95.2339
73.4571 235.194 77.0455
96.4025 61.6662 127.008
77.951 211.767 131.447
70.6226 106.672 244.839
53.2965 246.198 157.314
97.7483 102.209 79.7791
65.5043 248.848 180.026
77.9268 112.672 138.867
98.8154 139.066 101.398
48.4454 242.586 190.542
83.2059 48.6932 128.081
35.8098 104.945 65.4475
98.5992 98.4892 214.563
46.562 243.097 79.0264
72.8941 98.2472 56.3938
77.3158 247.479 122.716
90.4297 149.318 85.1054
98.7775 76.8231 168.709
83.6038 151.295 54.3355
97.0598 143.874 176.093
49.0841 191.59 199.529
78.1842 124.425 106.294
93.8721 121.444 68.3655
77.803 78.6264 69.1863
91.6661 115.888 63.537
58.9672 73.295 63.9995
79.4685 215.027 75.5759
55.0676 55.1527 84.8469
64.3041 184.972 35.3625
57.694 246.615 136.113
62.2194 206.002 90.2065
76.6686 154.758 44.8849
94.1012 230.016 146.553
90.8863 50.9073 126.918
69.3269 223.581 58.7227
61.5221 66.6319 71.4115
86.7353 49.9099 157.448
54.4792 218.122 212.348
81.0229 231.99 172.503
44.54 186.692 34.5735
92.8528 71.1354 165.395
98.8626 127.397 118.743
78.2805 229.064 83.474
64.4513 261.439 148.74
95.568 81.7786 147.024
70.1469 138.077 250.985
39.7337 72.6258 183.958
92.4631 212.795 165.499
47.6258 212.68 73.6308
92.6846 59.4793 158.788
69.9252 102.624 49.9947
70.7997 259.901 121.62
89.1682 137.635 62.8844
81.2084 154.798 242.462
74.2765 249.577 147.497
90.284 133.62 233.763
16.5882 244.969 247.487
38.0484 85.7809 85.3895
95.766 87.8274 208.442
97.7566 123.641 166.635
72.4709 165.269 91.4045
94.9837 91.3181 216.073
43.3506 207.89 63.2806
77.615 226.125 75.3129
46.3286 250.964 172.165
58.8237 245.997 75.9028
63.3172 264.502 117.056
96.7796 216.626 146.826
68.7869 116.903 249.049
69.0662 195.573 46.6211
96.2987 192.19 132.68
66.0146 127.891 252.004
6.67845 216.31 244.204
88.1486 74.922 219.719
91.1258 225.632 166.578
87.0819 83.4632 68.7364
90.6485 69.6396 125.261
77.5502 100.587 160.198
80.2502 48.3396 118.825
98.002 104.506 87.9655
85.703 153.853 236.08
96.0563 134.774 166.419
98.0046 177.591 162.813
85.5364 211.171 99.1326
57.3101 120.188 249.118
31.1255 60.7677 105.827
83.6916 219.135 90.2916
72.097 91.8419 170.935
19.6005 25.8978 74.7524
24.6861 252.48 258.796
71.2297 122.995 142.407
67.6095 52.3256 149.844
74.7613 179.884 151.558
76.8327 96.7624 147.139
78.6187 108.412 55.2398
79.3767 193.164 65.6762
76.5265 244.677 99.5782
75.6007 96.2543 130.311
41.5889 205.623 267.765
33.9731 232.224 257.261
93.4823 65.1779 205.07
92.9865 68.8217 133.716
40.5702 197.97 259.223
68.5603 48.5507 140.252
69.835 156.06 34.0445
66.048 52.4599 99.9988
58.3664 151.86 27.1022
86.7949 232.855 116.592
72.8856 101.674 109.434
63.47 56.0523 164.416
93.1278 73.5121 201.76
77.3502 119.186 117.019
44.9417 180.96 45.9049
77.4261 131.572 162.278
69.3444 98.2965 188.573
41.1488 61.544 149.641
71.4153 211.618 101.932
70.466 119.774 165.853
57.651 48.0104 144.794
62.7886 169.796 209.842
46.7249 187.652 55.7426
98.8262 97.764 146.252
80.3691 195.027 128.202
54.3534 98.6512 243.909
74.9459 182.228 137.994
58.0645 87.393 54.1154
95.7238 107.212 187.302
70.5905 164.865 31.3874
82.2766 162.337 55.6085
78.384 52.7155 174.138
97.8963 78.8172 159.756
75.2702 252.697 138.678
63.0241 83.876 175.353
83.9989 237.556 128.477
69.3152 86.7324 233.056
73.9282 141.774 88.5714
50.0027 98.4575 207.979
62.454 234.995 204.454
62.2595 189.922 231.913
95.461 179.571 143.489
50.3669 90.1885 196.415
100.74 115.798 141.337
38.7478 245.998 260.815
77.2324 149.715 90.246
68.0212 188.964 81.6417
74.9673 100.622 124.013
63.616 162.96 140.054
98.9162 112.582 92.0607
51.4851 67.8586 141.061
59.4408 67.9052 151.206
59.4984 178.588 30.855
64.7906 237.269 67.1642
51.1052 110.716 42.4401
55.4132 148.332 64.8231
62.3921 221.9 103.256
76.7121 123.651 248.776
61.7261 46.7922 105.726
69.7835 69.0072 204.076
94.8908 193.995 146.484
59.7993 184.974 191.935
80.4575 68.3341 78.3813
51.079 181.447 30.3816
67.0702 96.0663 104.947
67.1636 183.216 184.113
79.6668 63.5409 202.061
89.124 234.667 158.906
70.7841 180.175 181.573
90.0589 75.3913 85.0655
47.8655 204.923 264.342
75.3031 213.131 150.666
19.1399 231.658 238.197
49.5245 249.04 183.94
96.1785 138.102 74.541
51.3975 248.586 114.265
43.5335 203.633 42.4516
83.8215 64.9002 86.5825
65.0887 222.156 161.413
72.1693 126.45 123.877
84.516 210.769 86.7088
61.3569 191.466 183.038
87.5149 197.01 186.607
48.9485 257.876 112.076
99.1713 132.067 150.203
81.9304 246.311 114.519
99.0267 129.486 98.1884
96.2562 71.6185 181.052
63.9891 58.3329 84.5865
77.5808 148.138 45.8971
47.8732 48.1564 182.416
99.8433 168.892 138.056
91.0359 80.992 214.827
78.3101 105.976 168.822
39.5229 78.3327 192.465
99.9252 88.963 115.708
92.9804 141.899 67.725
76.4611 184.571 127.295
81.1368 153.341 176.655
78.1469 231.161 92.8162
65.7101 248.968 87.3012
57.6011 240.128 116.774
34.7835 235.99 239.06
82.9723 189.01 71.6134
60.2133 123.333 39.7945
98.2502 116.852 99.3196
43.9817 218.811 68.0044
80.677 49.3519 164.002
72.7673 165.184 46.9296
76.3948 93.2332 141.113
61.7108 154.588 134.875
50.8271 252.392 154.009
46.2921 233.511 178.064
44.1267 227.5 67.7259
57.3251 115.595 211.844
47.7462 231.778 265.207
69.1017 179.718 131.054
89.7515 227.898 123.132
67.5355 156.721 204.884
54.0622 161.554 239.721
96.8646 127.525 221.463
68.6129 78.5487 149.008
49.4308 228.564 198.323
79.8256 240.438 118.23
76.3325 47.005 133.356
63.4234 142.408 260.813
84.655 75.4801 74.4507
79.0423 199.736 121.622
39.7562 238.381 256.053
52.9979 190.174 224.265
72.3023 163.02 82.8303
53.9279 151.84 225.955
67.3512 214.22 50.0597
48.4497 176.488 53.0244
75.6791 70.0279 217.825
42.7112 90.9632 219.114
97.0231 76.8713 107.841
91.0815 166.135 216.883
79.8745 238.559 104.093
95.6804 198.452 138.733
80.2784 201.251 73.4037
43.4057 247.832 87.2274
55.762 180.649 231.491
94.2613 100.936 224.957
31.9846 209.519 269.682
41.0231 178.753 36.3978
99.5482 93.7466 88.0285
39.264 232.003 250.903
75.1583 157.4 199.007
81.8892 146.488 182.303
46.3681 202.921 208.586
62.0893 213.198 221.385
100.896 140.129 112.273
49.8369 196.484 210.146
73.56 178.358 45.6301
93.0139 187.507 126.847
65.3079 131.89 208.956
79.5088 235.887 97.7481
65.3286 152.98 76.3505
79.5629 167.954 47.8232
99.6367 150.303 151.525
69.8573 218.546 111.419
52.266 120.55 38.4448
87.8033 231.554 130.994
95.2118 52.7583 179.518
9.99471 241.587 247.858
73.9874 169.462 99.8773
64.3957 137.391 25.2856
76.0106 218.995 67.3259
87.8929 144.489 127.131
75.5873 186.456 97.0725
94.0939 76.428 96.7401
94.3461 63.3724 182.209
97.6762 105.837 161.542
85.5291 50.4863 185.526
60.0859 174.736 69.8129
70.1153 59.742 87.0138
67.0407 111.45 201.975
68.8266 168.564 80.0644
76.6704 92.6621 154.011
98.7439 99.6422 125.01
59.1393 262.795 158.982
74.6818 181.14 174.879
35.9836 125.881 47.9892
57.625 169.715 27.8065
74.8089 47.0365 113.425
78.7183 141.24 97.9647
73.2946 152.68 102.097
98.8523 117.233 110.579
95.3383 88.4096 200.603
79.744 243.133 180.298
10.5022 222.693 269.157
79.6508 163.644 181.33
80.7707 130.87 192.323
39.4008 244.003 248.8
71.2321 218.919 150.518
89.5944 204.153 190.435
41.4699 168.539 34.9606
74.7199 238.596 87.2607
34.0667 77.9107 89.7786
61.4543 78.8189 61.175
53.7345 266.804 124.29
43.6221 234.674 72.856
88.6934 188.966 98.2968
55.3352 206.554 39.7106
74.2349 201.789 225.018
60.702 214.382 44.1045
80.2042 219.408 81.6448
90.0609 236.649 144.687
48.0224 234.424 94.6421
90.0336 188.575 192.735
92.7373 179.431 117.516
36.0877 137.549 46.6738
50.6996 184.923 219.664
100.662 91.2619 125.267
48.9367 236.14 195.113
95.3458 118.922 184.864
85.0123 227.068 112.265
98.2517 117.329 122.72
98.7643 177.709 150.33
78.4775 53.756 94.0879
55.9633 253.761 180.906
93.5434 131.276 60.7392
30.9567 52.3638 162.975
65.7186 161.424 28.0798
67.72 190.334 177.421
94.7493 103.442 67.3964
64.3038 242.706 74.8774
68.895 118.146 202.847
52.9587 43.7243 110.474
60.3656 92.8995 101.758
60.3834 228.932 54.879
70.6105 81.5063 138.908
93.8172 197.41 126.152
48.1676 102.152 82.9247
59.3629 142.464 217.018
51.9968 222.365 88.5141
50.7277 263.273 148.804
49.2724 221.053 205.807
79.5839 137.495 189.074
89.9195 62.5334 195.233
87.5655 214.531 192.14
64.1621 169.345 32.5718
87.7467 236.457 151.698
56.1705 175.036 235.678
40.1583 82.4876 211.382
69.4651 107.021 96.9973
70.2709 54.7303 160.712
97.8686 90.8365 156.082
66.345 158.061 116.763
99.3866 142.411 107.322
100.108 137.442 93.7629
50.0462 189.593 69.8792
57.1624 90.8504 190.951
95.6128 107.989 225.627
61.413 54.5929 156.376
57.3877 159.038 66.3894
95.5801 95.2855 185.892
29.3943 229.659 272.383
52.5382 108.015 212.905
66.5519 169.421 132.604
57.0457 260.768 166.658
70.5751 177.994 84.4006
52.2584 97.6385 47.6589
61.801 147.845 213.161
77.8463 104.18 140.45
23.109 246.874 273.082
77.286 105.904 133.843
70.3523 132.909 83.0658
78.0506 249.781 132.059
74.0372 63.2507 195.137
64.9005 151.587 29.6776
49.7721 260.084 142.76
64.3348 146.716 121.885
67.9704 207.878 167.163
49.0553 225.342 177.048
43.3128 197.721 267.4
75.4534 127.039 225.681
66.9456 140.544 79.8027
91.3493 237.121 137.623
98.3779 112.051 119.679
54.5974 249.634 143.522
91.9781 143.359 90.0395
39.8749 220.969 266.551
52.5395 178.141 221.851
62.385 178.478 240.538
40.7592 83.2918 200.59
80.8806 249.255 141.881
72.6621 229.988 70.5596
82.4035 222.708 195.938
52.3409 196.32 218.94
60.6347 256.633 93.4041
79.3005 243.064 107.681
68.927 212.714 160.019
73.4753 54.9094 169.838
82.7341 229.539 191.55
63.9799 215.215 165.901
99.3127 122.162 114.716
77.6753 120.799 126.107
67.7996 254.425 95.5096
64.6395 94.4162 242.224
71.8598 177.752 119.244
57.1657 238.565 107.448
51.2362 226.69 50.944
84.4964 92.9869 67.0336
63.338 111.131 246.163
70.5954 200.254 92.6261
43.166 223.322 195.27
51.9559 133.854 71.389
83.5335 199.37 204.681
82.081 57.9209 189.278
96.4583 85.7909 181.414
94.262 225.705 159.15
97.2037 216.118 138.225
71.7812 128.7 42.3014
49.5943 254.876 120.296
50.0599 246.656 105.575
64.4213 232.465 61.3025
52.1431 68.1592 69.1964
72.9419 140.403 105.572
96.884 76.541 205.754
52.3677 159 58.6608
94.5072 212.234 158.666
36.8458 106.696 52.6819
43.5626 102.361 47.0254
75.7034 119.657 101.337
97.4386 164.511 188.157
52.6077 197.548 188.638
77.3328 172.551 178.67
88.069 139.262 237.153
76.7743 58.5501 85.4251
78.2898 99.8388 169.649
72.2605 85.19 153.316
41.8974 113.998 47.0931
78.1567 126.572 49.0222
54.233 162.252 229.181
69.6758 48.2375 105.974
85.4082 236.35 166.229
48.679 205.504 69.897
78.4723 203.207 157.332
52.4354 244.341 72.0723
59.2261 243.075 192.722
71.9963 101.525 183.445
74.1561 252.657 104.584
70.2751 174.834 139.479
44.4925 91.9188 209.563
64.6413 53.3543 89.2162
46.625 151.319 59.2212
72.7592 249.912 161.512
54.5964 77.5987 119.606
68.1839 83.2342 126.09
50.976 117.556 220.051
76.9553 238.628 171.254
9.8317 210.925 252.785
66.1006 44.6477 118.114
50.803 232.69 58.6165
70.5093 186.745 42.9095
50.6274 158.457 28.3673
42.7408 211.078 51.9469
96.4527 82.6992 189.572
74.7627 50.8426 160.115
58.4543 201.874 224.51
70.6023 163.38 198.76
63.5546 62.7383 186.632
28.5765 241.964 251.18
69.8839 242.392 78.0594
94.6756 99.2415 198.147
49.3466 217.396 78.4158
98.1498 153.278 115.454
44.8995 115.558 238.193
84.6489 100.931 268.689
76.6286 189.209 102.851
101.296 69.961 222.625
80.6347 112.921 175.548
52.4076 168.688 227.034
41.8049 122.002 41.4615
44.5147 139.687 62.1051
63.3913 80.1899 169
71.9968 131.868 201.926
67.5159 138.745 124.094
61.7883 209.997 171.967
100.088 156.36 139.618
97.3848 161.043 178.133
75.4101 114.681 130.623
63.5063 160.041 149.862
64.2166 161.824 73.0876
95.6855 111.404 208.168
20.0803 207.875 243.741
44.2473 139.815 35.7955
49.785 241.712 97.8029
37.294 81.6672 66.3759
77.4258 57.5732 183.62
69.4183 226.601 147.152
63.1863 123.479 79.5737
91.2575 148.182 70.8094
72.0912 105.413 192.441
94.1367 68.5028 194.076
55.2947 70.1688 146.649
67.2519 178.814 79.755
28.1889 230.939 236.147
55.4382 80.5484 181.535
56.7924 86.1959 235.729
94.9979 71.6766 158.088
78.8705 103.338 242.311
45.5133 107.865 240.74
94.8291 84.4924 85.7343
38.4107 46.2683 120.04
43.1519 43.1358 164.068
101.223 62.2456 176.325
69.5924 137.45 39.235
32.1954 219.203 279.837
54.6239 214.825 84.9429
67.5322 199.366 172.184
81.3353 119.441 168.473
99.5483 151.115 134.843
96.4483 97.4403 108.898
57.7051 123.824 217.608
42.3224 215.26 56.8198
49.6531 111.785 222.02
95.3812 203.138 161.172
64.6646 65.5071 203.004
59.8511 70.7475 216.338
56.1501 109.861 245.172
95.1067 90.5014 133.943
43.9425 194.626 41.8349
85.2436 64.6293 210.012
68.8481 130.062 129.163
50.5548 205.24 249.105
85.1669 128.645 133.396
45.1733 60.2458 78.8717
5.36934 226.895 262.159
90.4834 212.979 181.268
48.1274 210.447 262.217
42.0815 114.486 69.8642
73.5122 155.121 159.267
61.5887 149.292 247.516
73.1066 88.7498 129.441
43.8598 236.423 83.437
56.3556 191.33 34.2551
53.2492 257.392 173.216
19.4562 204.678 253.106
68.2937 79.888 120.756
77.8224 161.001 188.345
93.4447 91.4137 224.242
33.1163 63.1472 178.426
85.1415 57.3467 92.6464
42.0916 197.205 49.9593
56.517 215.818 91.716
70.6389 174.988 106.111
66.1527 167.821 243.189
39.313 97.5357 54.1649
40.7265 168.751 45.4022
54.8637 229.321 204.965
82.0275 206.71 80.3402
96.6563 123.409 86.7969
57.135 238.403 64.7226
59.7541 152.204 70.1094
45.5503 210.437 191.732
75.1489 102.706 117.887
49.0979 81.9039 108.881
79.3686 244.502 162.257
79.8155 128.769 184.093
50.6037 223.289 238.956
65.2898 78.1704 159.424
52.76 199.663 36.6189
55.3701 49.0046 100.92
45.8208 239.865 91.2206
51.5061 42.5832 146.554
83.0359 71.5051 215.931
45.2234 226.498 76.3768
78.7897 179.969 60.306
54.7978 268.756 138.446
47.7638 251.483 164.712
73.822 161.08 38.1492
50.9047 262.479 120.503
59.0866 219.187 168.696
74.2235 178.905 144.727
82.5619 103.513 59.2083
20.6618 214.386 230.061
34.191 54.6798 114.752
68.03 139 149.044
74.7803 53.7936 101.173
66.8685 230.221 123.971
17.6921 223.86 231.124
71.014 227.8 64.9242
98.7998 213.326 132.38
101.157 108.711 169.3
90.8038 177.727 104.517
50.4317 216.135 42.3585
71.5084 53.5882 92.3933
44.8618 102.388 234.233
71.1886 180.321 109.524
43.4215 216.532 49.0632
56.7616 167.516 217.163
65.6699 130.663 36.5445
51.081 94.6312 90.7162
74.9769 121.403 147.772
99.0264 114.834 104.98
25.9414 239.583 277.98
61.4441 100.523 244.384
47.6847 41.2029 125.072
60.1653 62.0319 78.7758
44.422 230.263 186.414
50.1116 253.426 105.045
13.5826 212.44 242.007
22.2153 201.246 266.894
15.4391 246.409 266.188
76.2582 108.925 255.877
68.5928 219.609 53.7077
49.7641 90.4225 98.2699
65.2665 143.323 210.344
63.6299 198.331 41.6756
92.6558 55.4203 153.894
64.9815 161.616 131.176
52.2534 83.7583 229.562
73.8264 183.943 235.753
99.0762 189.045 147.645
77.93 169.989 57.7909
86.0492 177.52 218.756
59.8659 184.016 74.2699
81.5378 165.07 172.602
44.6743 216.67 200.96
63.2457 156.852 125.073
61.3904 75.6418 163.922
90.5787 58.6781 117.741
46.4731 202.353 194.952
57.1605 178.915 212.207
52.2102 263.606 132.32
35.2538 46.9841 154.836
50.4939 256.003 135.363
62.8721 234.437 139.237
75.5692 232.891 192.176
96.9803 85.7563 104.569
51.8915 63.8199 198.136
78.5124 104.717 154.392
61.6672 239.826 128.17
94.3279 107.568 193.618
40.0468 63.0101 119.118
16.556 205.174 234.109
77.408 119.971 52.2913
75.5841 174.86 90.9384
60.3931 97.9199 195.441
38.427 73.2841 199.393
100.192 108.564 126.572
89.6678 212.207 109.323
45.0098 84.6189 194.318
65.3411 151.721 117.654
91.3329 55.5589 135.156
48.0885 115.187 230.484
45.119 195.474 66.5021
79.6387 151.783 50.1865
82.9905 242.971 135.839
81.2368 57.9091 195.321
83.6292 88.9413 233.646
60.1103 85.8727 109.277
43.0643 64.8285 127.102
47.2812 90.0594 52.5608
37.8834 75.5783 78.5961
43.9616 128.116 40.2178
71.1376 224.283 141.731
61.7551 128.188 211.691
70.0877 166.256 118.658
59.7682 78.6566 221.421
40.5445 196.918 251.087
69.7942 90.9291 112.987
48.3152 102.759 214.858
60.346 226.255 163.061
37.7617 149.289 41.2312
45.1802 228.795 269.98
72.5249 138.532 160.697
95.0508 133.734 226.667
52.0834 116.107 78.2684
38.4085 80.1525 99.7736
42.3451 157.518 46.5497
51.5939 205.729 182.068
90.554 89.0027 73.3694
71.2089 132.521 154.741
64.264 87.857 76.0363
41.2239 73.9624 112.889
74.5076 107.446 126.012
53.3623 77.6953 60.2763
84.7132 158.298 161.849
95.63 185.067 137.456
94.4914 172.434 187.045
76.0449 246.57 154.151
58.6835 72.2311 125.834
59.2964 198.547 178.904
37.8648 199.641 273.514
12.8513 203.2 259.906
51.3856 171.118 27.1153
8.68556 216.321 260.495
3.53866 224.007 252.15
69.3296 157.922 78.8053
68.0746 138.703 114.031
69.3252 85.6014 165.945
36.745 74.7412 106.21
78.3356 112.82 154.417
59.3468 58.5015 178.11
79.2119 51.2178 152.065
17.6031 208.641 272.739
52.6746 229.048 95.3611
49.2266 238.188 68.4824
22.1451 25.801 81.6803
76.6096 110.23 243.239
77.8639 186.998 231.037
59.047 46.6217 131.05
92.171 187.006 109.835
62.7289 236.826 133.053
56.2486 198.071 76.2088
48.3965 234.896 170.5
71.3319 107.542 104.976
78.8775 207.828 213.515
46.3167 33.2812 125.534
34.3503 59.5984 186.392
61.0809 72.3108 133.657
48.6391 101.319 240.127
33.8394 44.4214 140.838
47.9357 221.954 84.1826
77.5502 112.893 125.074
42.3304 153.98 32.9782
69.8725 227.022 135.584
70.2764 170.291 114.553
65.5677 134.033 90.8177
58.1095 86.3298 185.118
68.7042 69.2988 212.467
100.295 100.69 117.326
68.8445 107.733 196.544
93.8678 227.67 153.246
78.8484 127.16 157.068
61.9343 43.2433 113.562
76.7076 170.957 164.1
40.8514 243.791 266.787
61.8283 238.443 145.044
47.0932 229.764 84.4226
54.5363 263.863 112.461
97.3811 79.9783 152.424
51.4096 45.741 164.873
54.3339 218.479 174.037
62.787 114.306 73.3104
57.1335 75.9408 169.324
57.7707 136.634 29.0946
78.4102 136.581 246.067
71.9413 83.8929 160.412
62.9355 136.851 75.9819
45.0621 55.5972 85.4695
69.6434 81.9835 131.883
77.2939 189.899 133.112
48.6726 165.998 29.5573
56.1546 158.143 221.808
34.6737 115.169 51.9523
47.1704 109.607 232.407
88.6028 132.4 132.123
79.7978 117.157 267.716
37.7644 57.1187 101.393
52.2575 62.6268 77.7236
67.5639 164.296 211.99
88.8948 221.197 121.279
38.1285 216.526 272.621
73.0549 122.126 132.02
55.9343 206.475 260.094
82.7896 93.3549 274.787
99.3375 132.871 111.989
80.4962 157.863 180.199
49.5105 121.522 74.3419
72.0484 137.659 232.849
73.9223 135.62 112.724
52.0087 143.101 229.599
69.9033 146.923 112.884
39.1424 99.625 75.3392
75.7487 182.641 49.2993
98.7335 144.656 127.36
18.3 194.177 252.18
44.6581 161.273 53.3407
46.5167 222.574 184.842
66.1157 158.63 245.88
97.3649 106.317 106.162
79.3812 178.363 52.3062
69.3056 142.125 58.9524
49.6411 92.0901 235.286
83.2054 88.28 61.2843
35.1954 239.707 276.51
59.5544 236.348 152.94
58.5371 266.609 152.394
74.8704 210.38 117.183
75.1898 90.7988 135.348
40.6388 41.3975 146.833
79.4096 149.332 167.371
28.3125 206.255 276.495
81.2341 228.658 183.302
86.9922 156.647 128.523
36.6514 89.7441 78.0123
56.4857 210.191 177.396
48.1646 230.932 247.976
59.2092 129.9 251.754
44.3552 191.165 62.8764
52.808 167.838 60.6415
46.497 102.037 224.44
51.4974 77.164 221.694
91.0651 217.115 114.729
71.267 127.845 146.192
57.8274 232.935 103.744
94.7722 100.256 206.794
92.8994 72.2263 143.301
92.115 172.107 109.773
51.3396 85.5291 189.389
35.0138 68.8767 87.1072
65.3721 231.579 149.696
22.7085 227.362 279.14
51.5479 73.7915 170.809
30.8146 226.455 281.504
72.602 163.52 244.823
44.6382 70.3302 171
61.3564 223.454 214.45
50.9905 136.863 223.639
75.438 237.055 181.325
94.6623 185.812 154.879
58.0533 160.907 27.1561
98.3373 122.602 99.5196
39.4894 67.5448 173.44
72.2073 161.859 110.419
3.13928 211.609 253.977
50.589 211.166 208.342
67.6423 143.113 154.814
45.0761 69.727 70.1174
44.8177 48.7962 173.655
38.7772 58.8586 125.497
55.7631 54.8994 182.719
92.3547 177.481 132.903
54.1059 131.089 243.675
40.2797 69.335 117.365
38.6158 231.36 240.91
67.1944 108.388 267.245
57.4768 60.5126 189.836
66.1858 166.527 124.295
73.2415 170.63 186.612
91.3488 141.557 144.697
81.4025 131.04 243.833
33.2446 240.509 267.224
56.9834 72.2123 159.518
105.655 142.546 133.246
32.0364 251.034 258.831
48.1253 69.9812 128.379
44.9045 85.0282 96.0867
37.4735 68.6078 78.2302
43.9713 234.033 246.262
41.8481 97.8749 229.082
60.3066 117.574 95.1678
68.525 229.354 129.998
63.821 87.5146 184.675
55.4459 76.3424 175.632
65.8841 150.354 147.219
22.9143 194.186 239.551
41.6594 202.554 59.1047
48.4792 72.063 119.344
50.3539 197.856 71.6604
50.2929 48.464 173.185
77.8808 186.143 143.612
43.8819 86.2922 226.26
12.9892 220.84 236.915
59.7581 167.543 69.2149
67.167 132.265 135.425
54.7542 68.942 208.993
77.1122 139.866 66.0812
94.2214 129.147 193.908
69.6204 220.388 156.47
87.1232 138.518 138.129
57.1832 130.995 219.729
84.7911 166.453 148.24
49.3107 207.402 198.816
60.6759 123.042 60.3849
43.6564 210.125 275.723
32.8795 53.5597 154.894
44.8329 80.7024 102.846
53.9292 126.813 74.64
37.2599 56.981 194.502
68.7352 261.275 126.548
73.1378 132.083 236.091
60.7308 80.1235 81.8848
82.1241 118.305 151.259
80.8622 218.493 190.314
31.6754 60.8343 168.392
77.2749 87.0551 66.1967
54.0892 121.392 231.97
73.8654 217.754 124.484
87.2562 177.982 130.572
46.6978 197.87 84.5982
72.9578 138.762 70.0377
1.43823 33.8636 96.0349
59.1525 81.2187 115.075
47.0996 47.9534 114.946
82.3009 135.105 183.445
70.0811 78.7485 228.236
74.9361 75.7847 224.057
30.6468 247.819 272.356
70.9017 190.978 233.497
96.5667 72.9082 99.5645
18.5389 236.094 278.753
44.5482 223.965 278.433
48.4348 50.9994 93.8594
63.3922 94.4444 190.311
71.6367 173.217 152.935
65.5212 158.436 213.68
72.4769 167.805 106.998
45.4576 81.6318 60.112
50.1983 200.426 268.304
98.871 108.956 176.43
14.9664 22.6179 72.5732
49.7826 125.202 220.642
63.6735 212.965 202.467
71.0319 116.608 62.5014
34.7569 58.6642 138.199
37.1659 225.182 281.651
47.7361 40.7572 141.214
65.1274 123.509 64.1548
102.631 92.6911 196.955
54.9111 54.6671 156.234
62.0061 148.578 143.331
41.6474 48.7615 99.5434
71.8266 93.3364 277.722
43.6563 76.4765 219.938
89.6145 157.25 143.718
97.2561 85.3606 92.1722
88.2937 137.597 146.19
71.2347 125.115 233.377
70.9248 158.051 126.956
58.6312 203.47 177.632
79.3106 211.743 120.928
70.8038 125.476 70.8893
84.3991 111.657 271.196
74.3436 194.849 127.31
84.5024 158.11 122.177
37.4575 214.862 229.152
