ply
format ascii 1.0
comment Created by Open3D
element vertex 356
property double x
property double y
property double z
end_header
101.2 116.694 43.4065
122.39 48.0044 92.5477
118.222 116.674 55.8466
125.438 61.3935 97.814
101.404 79.3779 129.994
127.217 85.4002 90.6767
121.54 111 80.5
121.236 107.516 55.2134
113.254 78.6888 122.499
79.1069 80.0685 134.423
115.772 92.901 43.4837
121.677 98.1789 62.0455
122.18 52.1336 59.6482
120.671 104.533 93.3061
115.43 111.312 72.5884
123.873 61.2602 62.7629
129.304 65.2617 77.1356
124.782 68.4253 104.327
49.8753 59.5588 68.3558
124.327 105.278 62.5641
101.367 129.558 73.5487
114.564 103.861 45.3216
129.358 56.6954 76.0381
96.2521 107.083 114.773
131.166 73.4537 86.8972
127.645 56.234 88.9837
127.958 94.6665 75.2327
123.335 55.473 68.4255
131.663 69.88 65.5124
118.012 53.2812 107.131
105.523 108.647 105.573
118.597 98.8624 50.4534
101.269 127.264 81.2259
92.8174 94.0113 32.3423
103.899 80.4641 32.2864
115.761 42.1867 87.4297
107.071 123.664 58.8339
119.829 119.06 78.5157
34.345 96.0369 99.7745
121.033 91.6644 102.721
31.4663 82.7591 83.5769
119.455 81.1078 47.3888
90.4618 115.443 103.976
100.767 69.3452 34.2811
96.237 61.827 37.0776
129.949 64.767 85.3548
130.288 61.9867 67.4448
103.251 122.047 90.2416
89.371 101.538 34.1113
80.7074 121.484 44.3817
115.212 112.058 49.6408
126.65 96.3956 84.946
109.623 95.2988 38.6215
91.7453 77.4091 131.974
91.4442 32.3235 74.7046
103.443 89.6412 34.0017
91.9977 124.653 50.7434
123.883 70.9866 55.204
116.827 88.2482 117.721
78.1159 90.0628 135.072
123.616 95.2947 92.1666
68.9277 36.6264 62.1961
103.214 69.1933 124.467
126.869 72.5844 74.0757
85.4444 100.529 129.164
119.188 63.9013 106.51
81.3636 99.4197 34.884
120.927 67.553 45.5695
122.788 86.6133 52.6384
128.429 88.0071 98.8725
99.2219 125.062 54.5885
119.989 79.5712 116.827
58.1984 47.4014 81.9138
127.814 82.2337 61.8085
123.803 54.2787 99.9197
123.351 94.3143 56.2887
108.757 122.301 50.9895
62.0736 91.4235 132.475
116.343 53.847 54.6627
83.6235 111.552 111.724
90.7905 130.277 60.635
115.276 103.618 55.0012
116.484 46.8901 98.8582
84.4242 131.468 71.4263
114.675 47.4936 51.5082
129.928 73.7062 93.8916
110.128 127.372 68.4624
114.697 119.038 73.1449
108.357 60.0531 40.2023
103.733 107.702 38.4482
44.8027 92.5215 60.1693
45.8482 73.0566 69.5048
108.041 45.2358 45.5647
127.057 83.9167 108.206
118.157 46.6092 63.536
87.7479 112.17 38.3229
34.7049 107.002 88.269
95.2448 107.541 36.4797
113.996 42.2518 70.2119
49.8283 87.152 65.0873
92.3127 128.35 83.6361
62.2092 122.405 101.586
77.2807 30.3668 65.5797
70.0082 75.9339 132.914
111.039 56.1237 110.369
35.7964 91.1741 70.4093
46.5276 60.4334 89.2034
84.8849 30.7333 59.6495
97.5892 84.5256 32.5677
37.0266 74.7803 70.4725
117.345 109.733 92.0944
57.7023 59.8327 52.4006
126.248 69.0776 95.924
91.2736 99.9184 121.234
109.079 51.7491 49.1344
127.452 79.8879 68.5293
78.0083 34.6911 53.6182
84.4533 52.0219 36.966
47.4187 113.4 61.3546
102.131 115.38 50.1094
37.5672 100.79 72.3866
74.2123 126.406 92.1764
110.091 36.9561 60.3568
123.978 62.6309 55.8011
123.978 102.782 80.4614
88.2319 72.5106 29.249
93.1597 132.603 67.1799
107.037 106.242 47.4826
97.7034 74.4031 29.6821
123.449 91.1861 65.4954
125.195 51.884 79.4904
118.176 94.073 111.39
110.176 114.189 44.4306
36.7209 87.7595 76.9775
111.559 36.6595 82.0479
99.7792 92.7841 124.833
112.079 95.0549 118.475
82.9689 40.6612 90.387
120.964 59.4202 51.8659
48.4498 49.5464 84.6496
60.2396 112.986 119.852
94.2106 53.212 36.4616
102.943 32.6909 81.9635
57.5548 83.8214 52.4699
56.2523 120.921 110.142
100.182 129.38 64.457
33.4985 79.4439 103.409
108.114 42.6786 98.5841
50.1992 103.213 66.681
102.345 122.123 70.7925
91.5237 67.1331 128.174
80.9378 132.061 63.0042
49.068 61.6481 59.5013
92.1128 123.299 91.6692
122.9 99.3776 101.801
88.9774 37.8275 94.3986
78.8604 130.183 80.8266
73.513 121.343 100.624
124.454 76.7567 105.464
77.1323 55.7525 35.5988
95.9649 98.9106 128.009
90.8899 119.718 44.0849
91.1415 33.0873 56.0783
86.6732 105.549 115.007
78.212 69.5042 30.9689
118.361 108.218 66.4379
121.543 103.163 73.4682
110.533 105.12 108.808
76.4579 81.4435 38.8295
109.221 101.71 40.6928
84.7322 87.5978 30.3887
31.3183 83.1772 94.8434
101.249 120.004 59.5487
112.598 111.85 95.6772
76.4977 111.785 111.293
108.342 50.9907 112.381
114.289 64.301 115.087
93.2559 113.456 42.8731
66.407 56.6895 43.8179
121.897 46.8196 74.3971
42.0066 108.339 76.6107
118.477 73.9577 48.0372
73.1733 75.683 34.4811
75.9158 40.2798 48.3018
85.6699 122.779 94.6894
95.496 75.1489 35.9368
101.106 107.367 44.7734
111.186 34.8137 70.196
100.479 99.1722 35.2282
102.491 36.8496 54.9888
123.036 72.2148 114.229
111.649 64.4727 122.237
122.317 61.4709 110.109
126.355 73.3256 65.0722
109.885 117.019 80.244
88.9481 144.607 65.2284
97.9617 92.1689 131.588
75.3846 113.768 41.0882
103.38 60.356 35.7147
102.364 56.1313 41.7667
41.1967 63.296 94.6597
97.9258 43.0335 100.022
42.8829 67.2082 72.1387
86.3783 30.3589 68.4397
55.0417 94.6345 57.2673
91.1173 81.7164 30.424
64.4503 119.479 113.31
53.181 126.214 82.9313
57.575 129.274 96.2898
112.116 80.8508 37.1198
94.7239 33.1524 85.2324
91.4151 133.026 76.073
43.6419 82.6525 62.2728
81.323 46.7871 42.1801
80.5554 63.8438 32.1776
108.273 87.0801 123.508
54.5425 101.046 53.1075
42.796 93.1436 81.5516
52.91 53.617 70.9457
81.7643 75.8411 34.4814
104.897 46.3636 105.643
100.393 52.7609 110.2
65.8317 38.9461 53.1428
98.4031 118.08 94.8867
83.1792 28.9098 77.0482
63.876 69.8044 126.178
67.1735 50.3682 48.8875
108.974 123.913 76.3452
45.4235 95.6721 71.3222
61.6009 109.459 53.6201
76.6606 101.321 129.32
97.9905 35.7687 49.8363
107.346 85.2018 39.7003
117.866 103.995 107.291
77.3934 106.467 36.8091
90.0767 58.0235 33.6335
64.2346 63.6631 117.419
50.0913 71.7415 59.9424
84.3064 105.364 38.1219
80.918 80.1382 30.773
96.5423 45.0255 41.0118
107.32 44.0537 55.0685
81.1621 127.637 57.5045
56.6311 77.3365 47.6115
73.8944 35.5562 75.1504
105.253 115.796 99.3693
73.4072 130.211 64.3192
43.5043 60.4974 67.1276
76.0602 92.7228 37.53
114.652 75.861 40.8745
88.3564 37.9852 45.3166
102.421 99.0478 121.328
104.219 91.1664 40.5809
60.5336 45.9236 69.6532
91.2836 50.4007 42.4864
97.4145 45.0199 47.4324
80.1274 107.011 120.043
108.008 73.1143 35.0576
67.7939 120.041 99.6658
114.23 44.8783 57.4053
103.368 34.2167 72.4587
121.05 48.0429 68.2302
37.0952 73.3239 96.3767
62.2969 75.5965 43.5005
127.579 87.4881 63.9692
39.0539 90.5644 113.061
88.0318 92.974 128.891
111.774 120.133 86.3743
72.5348 123.863 50.6837
89.8021 29.8552 82.0846
32.5692 95.0069 78.7661
78.5227 109.423 125.236
105.754 124.061 64.3
87.5195 88.3032 36.5359
105.311 37.3882 91.6978
88.0105 88.5339 136.027
44.1991 70.0865 108.125
115.499 115.987 83.3537
66.3935 79.861 38.525
93.9941 28.7008 67.2711
76.9782 87.0309 33.2059
98.5602 93.2793 49.8199
36.7368 63.6133 75.6896
119.034 44.9747 81.9592
49.4244 83.7351 57.7346
124.357 80.2504 54.121
69.351 60.7164 121.033
85.2005 63.9798 119.701
72.1188 97.7303 38.072
68.5774 113.663 48.1773
69.8241 131.636 77.7525
46.0905 57.0314 76.0596
94.8992 59.5052 123.257
66.2069 65.9124 44.0356
88.7308 115.364 112.562
87.1752 44.9052 103.153
110.832 67.4162 39.7379
102.344 100.841 42.6269
81.6747 69.6901 36.5921
69.2413 111.947 115.816
33.6078 89.3224 103.24
45.7004 120.425 109.572
84.999 41.5008 49.0124
89.1085 110.219 120.81
94.9593 62.8132 119.466
61.8105 85.5236 46.0547
101.889 42.6862 50.3029
84.0102 112.686 104.755
99.3238 32.0546 59.459
114.294 63.2828 46.7935
83.886 59.2435 38.6751
83.4475 133.695 81.8674
36.322 96.7739 89.8592
117.968 89.7387 48.589
60.9714 62.9965 42.5271
104.426 34.9957 62.9098
55.3542 124.052 100.592
57.0096 68.3878 50.7595
80.6287 114.541 45.5639
37.695 84.3935 86.3532
88.1644 69.975 36.1523
71.242 67.6555 121.232
63.343 106.221 48.2442
40.3604 74.1795 112.922
63.3579 41.3179 75.8464
108.883 102.292 117.517
80.3358 93.9077 46.2556
42.0433 113.123 114.013
67.0851 40.2268 89.2721
68.6035 107.586 41.3469
77.3237 53.4949 113.166
88.1298 67.0669 134.276
69.6459 113.583 105.744
64.8719 102.755 125.578
70.9175 69.0632 36.0088
72.7812 104.425 122.114
49.5722 107.542 98.1942
97.2409 51.3569 113.564
106.292 97.6703 117.54
59.6839 101.918 130.078
49.7953 124.631 94.6736
51.6668 71.4676 52.3596
70.516 49.259 43.4558
79.9672 123.732 100.783
68.1827 44.6375 55.4251
44.289 54.4184 70.0723
70.2903 120.766 108.114
41.5987 67.5936 101.452
71.9678 119.931 82.2479
78.28 30.1143 78.3012
44.8988 82.8566 116.34
72.6928 52.6317 110.78
57.2799 83.4831 128.411
72.0419 63.0206 40.1096
42.7063 112.142 86.1742
49.2355 67.919 117.003
