ply
format ascii 1.0
comment Created by Open3D
element vertex 746
property double x
property double y
property double z
end_header
120.147 96.528 86.3429
73.0735 105.199 46.3499
81.0167 254.289 184.733
91.0957 250.426 143.475
109.798 265.723 195.135
68.7489 223.836 211.08
114.86 89.6691 75.493
90.7978 115.783 67.0387
76.9048 34.4866 114.271
97.5011 249.061 148.61
128.222 64.9814 102.014
75.8065 271.747 142.788
127.138 57.4533 105.511
114.945 63.375 88.6641
52.6479 304.974 208.014
119.081 52.0056 117.284
88.7234 289.378 167.91
93.8048 78.3747 91.4326
103.082 104.657 88.9002
105 41.1067 96.6758
97.4133 239.525 210.973
107.402 259.843 167.184
98.2188 63.7507 116.036
86.5139 88.6892 123.042
54.5159 96.0398 112.526
95.9956 94.2023 129.715
100.534 111.798 68.2247
89.217 296.688 199.571
63.5155 104.182 127.332
115.087 211.216 174.616
87.8347 31.6405 91.0558
89.1712 262.818 215.512
53.0917 272.847 231.164
106.606 254.131 159.979
102.066 245.023 156.461
128.456 62.8938 92.2022
106.625 80.8545 64.8099
117.766 67.8771 95.3445
108.216 84.1371 91.8443
83.8114 43.5555 80.2686
121.998 211.779 154.76
95.8492 95.8451 54.3061
109.134 55.9259 107.844
104.774 83.9464 100.445
82.6878 235.847 213.803
125.061 90.2509 105.522
132.373 71.6575 129.97
125.792 69.5194 94.081
98.4464 61.7046 135.156
86.997 90.0352 135.806
83.6449 257.977 211.306
101.855 70.1995 84.3466
109.811 67.6911 76.3158
105.863 57.6489 125.748
68.8012 122.205 95.1197
122.181 84.2439 110.572
108.094 249.338 176.409
96.5803 42.5691 131.424
66.8507 121.563 75.3717
108.393 89.2223 59.1636
123.588 62.7934 112.512
115.214 105.8 84.5231
127.713 80.9852 100.365
71.6355 47.96 72.151
49.9336 245.087 230.992
118.222 64.2534 120.642
105.739 83.7421 130.392
52.6397 302.192 167.317
115.711 203.543 169.296
96.4355 229.953 196.196
113.794 72.4683 83.5136
48.4974 220.688 210.534
108.951 34.8163 105.795
104.873 80.6433 56.4396
48.5548 105.934 49.0156
94.9269 284.359 202.974
99.6928 88.1446 134.125
38.7873 289.047 258.393
57.8935 89.2827 47.197
67.2517 119.7 104.001
127.822 56.0973 96.0646
92.6276 291.429 190.078
70.8804 112.376 56.733
106.354 91.0547 105.919
124.055 76.2266 105.976
132.595 67.5822 86.0071
95.4962 33.87 86.0833
75.8016 59.9988 74.9028
53.8614 102.294 129.762
112.56 76.7502 132.904
124.552 90.2945 93.4553
125.338 49.3855 100.535
43.5476 113.745 83.1603
99.9204 99.8671 61.7734
81.1137 227.074 203.624
88.9679 235.449 183.971
82.3744 246.806 146.091
84.0081 71.6443 59.9715
80.6285 130.771 105.411
90.1221 91.0096 61.4017
52.7466 103.516 119.078
85.6827 33.3569 106.778
62.0792 216.568 213.959
105.259 38.8084 86.3622
63.1248 244.406 136.985
60.0012 125.586 72.5073
77.79 214.932 184.748
71.2232 106.763 69.8898
68.2931 121.396 85.0956
85.9683 42.7661 129.691
76.267 32.5054 102.678
91.8787 69.2849 52.4623
94.9363 227.982 186.445
75.1007 256.442 188.657
130.32 216.055 172.778
76.9648 82.5603 123.848
86.2107 94.5799 101.235
60.3558 242.008 225.6
117.107 58.8579 124.096
91.5516 105.554 59.3728
97.6725 105.7 107.84
91.1905 107.638 100.714
68.7845 107.367 78.9531
76.9758 271.317 231.204
106.666 240.09 192.797
81.831 107.18 97.3689
109.803 71.5943 101.419
110.825 77.8797 72.7472
69.2764 226.15 141.203
101.241 279.846 186.584
80.6037 26.0297 183.602
108.276 63.0339 61.1432
110.61 206.955 164.046
117.243 80.7858 91.4939
78.2488 38.893 122.802
112.407 47.7964 125.616
83.1605 99.5714 62.6468
76.057 122.938 70.4762
90.024 84.1003 48.5705
96.7372 266.409 151.596
98.9683 111.424 86.6426
37.4435 101.987 117.685
60.6244 69.8037 140.427
69.8893 87.5252 132.073
73.4399 114.544 90.2628
103.598 258.311 209.317
75.8485 66.7395 141.412
80.522 36.5668 82.9716
92.5691 62.1919 123.764
63.244 78.3811 136.995
46.8951 125.806 68.7574
46.1831 276.417 147.01
65.7056 88.055 103.692
37.2041 244.608 228.967
54.4874 76.8078 124.467
52.7856 127.37 74.4814
110.422 45.0078 107.803
112.356 94.0663 88.1215
62.828 119.055 65.2444
101.837 263.535 159.424
123.969 89.5855 77.536
86.4079 66.9189 78.1952
79.382 235.744 203.887
85.6633 235.856 146.1
47.5096 99.8635 56.7509
90.4608 37.789 98.6526
97.8087 51.206 97.167
77.9054 46.0071 127.463
113.956 44.0484 86.4106
74.3034 305.958 188.781
95.6077 39.1447 107.711
89.0959 227.42 151.676
60.4669 241.824 213.664
82.2367 217.482 174.879
77.2036 278.517 146.852
93.8252 98.4977 84.6189
74.6265 253.425 161.08
99.7185 98.6993 102.935
72.1834 112.858 47.4055
58.816 229.563 209.674
46.5884 220.58 219.395
77.9955 290.838 164.204
84.1838 109.327 89.2477
46.4241 105.096 120.7
82.5328 235.403 155.848
71.4941 57.7641 140.727
73.4067 296.261 221.626
53.2763 263.31 225.398
105.336 55.5085 134.331
105.224 67.129 130.143
39.451 118.968 67.9719
56.5222 283.761 233.308
92.6768 103.524 78.8878
126.619 218.083 160.735
67.5513 83.072 124.942
106.48 49.7946 120.511
93.5782 93.4411 105.512
3.39795 109.208 269.044
122.251 42.9313 107.619
116.005 83.3232 125.568
64.9883 77.018 54.2444
48.9814 231.886 144.89
80.2687 71.172 91.7023
108.113 91.1798 72.8857
62.1533 227.075 223.412
82.2646 262.531 227.577
38.713 120.918 85.4822
123.702 79.7895 81.1994
96.9087 101.807 93.8697
74.3963 36.4036 87.2172
60.1233 90.3985 126.388
81.4455 57.3834 87.211
111.138 43.3161 116.853
89.3106 93.2936 51.0488
121.18 41.4272 102.053
81.3273 46.5578 137.075
45.3638 298.633 166.287
57.502 112.955 74.8579
110.114 81.942 110.474
89.216 86.4778 100.569
102.027 237.77 162.032
79.2775 300.375 211.005
77.3302 235.554 143.456
118.367 205.488 184.763
75.1452 75.6729 138.932
64.3088 288.261 158.172
38.0537 278.943 234.165
80.1717 252.4 221.863
63.5306 125.661 62.042
62.0438 302.616 221.039
47.1423 279.444 235.121
66.3609 98.8649 97.0591
66.6718 231.007 216.05
40.5931 306.648 189.973
84.3373 298.95 205.863
80.7037 65.9705 49.4014
51.3215 283.602 150.598
57.4534 248.843 174.552
82.3495 242.804 177.734
108.236 103.026 100.782
109.801 225.324 74.7312
84.7325 99.8908 51.918
114.246 100.753 99.9612
119.374 77.9905 117.31
96.9243 87.011 53.0212
111.847 217.583 165.439
45.0741 259.068 225.152
123.625 202.086 170.397
47.3348 227.184 204.232
106.405 245.271 187.215
112.201 87.948 123.368
118.079 69.6917 73.6485
128.265 73.3506 86.5167
84.5307 247.666 159.044
107.554 245.852 165.897
97.9257 282.449 165.039
87.6068 64.1239 88.7338
102.571 81.4368 114.213
71.7516 238.4 206.418
112.187 217.193 182.43
76.9674 99.298 58.8899
72.6782 121.589 55.4811
84.102 285.938 156.221
96.7272 258.205 152.967
74.9319 100.893 98.3873
45.6967 267.252 235.932
43.1093 134.005 198.49
70.7712 230.682 198.554
126.083 62.1124 81.5416
121.412 203.473 159.521
80.9845 67.6803 106.541
79.5903 99.2494 105.542
73.762 227.818 172.047
90.4607 247.584 218.425
69.042 102.595 87.4541
79.488 121.961 78.4453
90.3487 87.4993 92.4733
60.498 307.128 202.693
79.3635 293.319 194.622
107.796 90.4714 113.561
80.8164 243.401 222.097
26.3258 284.412 265.554
91.5349 44.7886 86.8268
116.904 73.4681 105.735
116.236 54.0495 75.3854
84.8596 227 187.5
73.48 259.242 219.652
109.425 268.897 179.963
75.8236 98.31 125.5
108.983 99.1203 65.1575
83.1671 275.475 150.645
68.7145 282.991 150.962
42.2752 286.129 155.172
96.5361 265.447 212.067
78.0406 92.1265 132.043
56.5673 104.012 83.8229
53.6027 235.184 172.069
76.3446 81.6706 40.4117
95.0157 52.4831 127.858
67.864 74.5622 99.9375
84.0866 76.0545 136.16
90.8665 75.0104 115.502
69.6491 77.7338 41.8665
84.5491 203.696 264.456
98.3667 78.9508 138.74
88.4308 50.4404 132.114
77.8293 286.461 152.564
127.33 209.801 165.436
82.2497 49.6191 89.1698
58.4524 122.767 80.1332
77.8324 99.2557 70.1139
92.5971 74.8366 46.4935
93.2976 274.961 164.452
90.9119 47.3914 94.6326
61.8682 274.838 237.094
76.1805 104.47 122.995
101.571 246.003 197.369
118.718 60.0504 70.9566
68.3373 39.6353 80.8985
31.7921 108.321 108.041
83.4248 114.996 55.1597
81.6147 86.715 107.067
107.258 274.907 187.571
28.4006 104.45 98.1286
116.808 222.06 157.593
81.0864 97.4719 46.1957
91.8287 60.9433 138.332
91.2315 107.314 65.4645
24.79 292.256 181.227
81.8706 109.541 55.7136
88.0703 224.117 174.905
98.4757 81.4884 50.3261
79.6612 54.4633 136.559
104.298 68.4041 58.6862
57.2104 297.496 227.016
77.393 73.1192 45.3828
45.2516 302.576 218.655
66.4749 97.8346 84.7134
60.3391 91.772 96.293
73.1591 217.362 193.421
55.3932 90.2381 119.622
80.6175 222.911 186.386
73.8716 94.0195 104.033
75.8987 222.431 149.479
81.3455 56.2288 118.966
97.783 50.8274 87.2923
82.7528 86.8462 56.5858
30.1739 289.042 215.133
72.2272 218.769 158.001
30.2935 286.503 224.145
108.962 103.243 85.5555
82.8618 241.885 138.89
120.347 51.1918 107.344
73.6089 97.5794 48.4218
36.3736 295.774 210.219
59.3686 241.027 182.2
89.9578 99.7604 69.6962
79.2376 105.994 77.7224
57.7412 71.0146 50.9931
67.547 244.84 197.662
92.9235 86.6976 114.261
109.992 108.444 96.7202
102.05 43.1382 120.575
118.284 70.0992 110.53
73.905 262.488 140.063
64.3804 211.532 196.928
89.9256 89.5467 74.3588
85.7921 63.8925 142.196
62.9666 289.6 216.562
80.1107 103.342 85.0883
87.9414 70.7029 93.1431
55.796 54.6689 132.551
106.986 54.0056 84.9228
47.9093 95.1248 116.209
81.5853 53.0549 78.7158
102.905 272.959 175.259
110.533 76.4382 122.678
87.106 70.9469 127.962
31.4606 296.098 181.011
42.9156 253.269 231.524
103.34 108.833 100.594
83.5391 121.953 63.3971
39.6089 110.125 123.36
77.2295 55.5199 127.843
68.4988 291.233 226.823
72.3058 90.2539 61.8881
54.1226 264.133 140.783
82.9387 42.1416 91.7448
61.6278 119.615 55.008
89.4202 290.265 182.439
78.0726 249.072 175.955
83.931 268.599 158.744
49.5674 243.806 139.192
86.0917 80.9874 134.176
117.858 49.4485 94.9187
66.1245 257.172 162.561
67.815 50.1999 125.881
53.3326 82.0458 135.773
88.1499 77.4379 107.725
51.1433 71.2213 137.361
103.48 231.992 166.998
99.5762 93.0496 60.7619
40.631 236.938 216.875
41.4946 293.04 228.051
73.0638 249.972 219.035
102.476 243.456 173.711
93.6139 73.0665 137.164
73.3368 264.91 223.736
121.195 78.5808 67.7663
71.9832 79.4324 103.351
85.0049 99.8969 95.3223
59.524 67.1693 63.6881
52.3308 80.977 69.3412
66.0037 95.6823 124.705
97.7343 66.507 58.266
94.8174 236.427 169.064
65.5097 308.464 191.663
35.8058 270.949 234.561
96.8376 57.6941 110.078
53.7332 122.779 66.432
54.6247 266.801 163.111
31.8057 300.66 189.829
40.1007 283.091 226.919
86.2316 96.3921 85.75
2.58018 123.054 271.753
51.2604 98.247 236.615
98.767 31.4442 92.0298
85.4581 280.306 159.35
99.7357 57.3906 128.313
64.5356 109.586 48.1001
91.4388 54.5715 141.125
68.3344 296.375 212.54
92.7473 59.8261 79.3745
45.8586 125.539 80.4562
81.095 62.7627 113.5
39.4548 107.513 113.535
93.7255 70.2182 64.7248
94.7483 84.8656 65.0032
78.1846 227.212 153.419
64.0037 112.366 79.4985
58.9083 304.126 196.762
88.5822 222.379 192.556
120.697 57.6131 113.863
103.351 231.239 173.396
84.2855 89.2876 45.3731
84.8898 58.5911 134.888
78.5814 74.5766 102.563
60.5397 48.4614 127.89
53.2247 110.626 92.3807
104.619 244.519 180.742
46.6049 78.2604 107.11
125.421 75.6104 95.7788
38.4593 95.4533 96.3095
38.8671 91.9242 126.152
120.069 54.7167 102.165
72.8306 238.575 217.929
60.3242 253.769 207.762
80.8142 51.7918 107.773
108.416 69.5876 66.0032
98.7046 110.048 95.1793
116.301 71.5261 64.3463
47.3068 252.003 207.776
87.8044 50.9422 124.281
90.5943 256.491 158.039
67.6466 84.4032 39.5685
102.128 49.0955 125.803
83.6423 51.7186 68.883
72.2553 42.052 92.3257
127.058 72.3492 78.5218
32.7342 223.464 203.974
32.7532 248.88 216.527
78.7706 56.8664 111.511
91.6872 238.981 202.198
54.2666 118.285 84.6834
40.4406 217.372 194.582
110.503 74.0002 92.5551
29.372 96.3859 118.756
29.5747 190.33 222.073
85.7565 234.584 163.509
70.2235 225.134 221.532
90.2953 94.9579 91.2414
48.3093 307.632 197.459
95.6738 247.541 206.789
64.3525 38.1105 94.2757
92.412 226.283 179.949
85.8419 262.794 151.714
44.3409 105.423 86.8086
100.197 68.5793 48.7961
66.267 44.1204 117.017
44.3341 235.131 225.708
66.2985 92.713 46.892
111.995 51.8647 117.473
94.5648 277.413 202.663
45.7681 109.317 72.1893
72.9114 223.607 187.647
97.8183 80.3465 102.302
91.0408 72.1541 82.177
24.54 293.184 205.525
78.236 48.2067 111.175
40.9872 290.845 166.609
59.4553 206.058 188.961
65.3162 235.492 192.584
118.625 59.6283 78.4979
50.5623 87.7643 123.902
44.4777 92.539 48.1713
111.098 49.2332 95.2602
100.651 74.8866 50.1008
45.7468 84.243 58.6824
88.803 285.725 175.71
75.5003 97.5726 78.0223
56.2503 291.058 231.782
36.4541 81.4786 87.4176
67.8772 268.946 146.065
30.1776 223.077 194.716
67.7053 225.729 168.352
98.0231 78.2881 59.1127
85.8328 282.02 167.175
56.0932 115.097 50.999
59.6992 100.617 42.7237
70.5625 97.069 120.55
63.5717 232.702 202.878
71.4745 159.121 213.672
49.3134 15.1598 15.1592
78.5653 246.26 167.986
63.1576 234.505 219.846
42.865 86.4639 112.158
101.087 86.182 62.7808
45.7313 102.459 105.426
98.6157 206.454 141.224
71.636 54.6166 103.242
65.9432 213.026 169.738
81.3905 285.973 170.827
96.2119 239.699 196.666
77.7674 79.2619 55.682
54.8013 55.1558 67.6199
122.456 83.9109 70.2922
86.9632 43.9204 106.103
69.881 58.3325 78.3701
87.5253 110.463 83.6797
35.868 261.179 234.899
58.8066 70.4813 127.214
67.8337 64.4556 137.954
76.6999 106.78 90.1135
22.7321 276.424 221.432
62.4404 42.2164 85.9429
50.3558 40.6021 91.4337
95.5662 267.639 162.98
68.4319 50.8191 83.398
95.5673 236.482 177.218
38.6221 251.694 222.023
56.8208 228.009 200.384
72.2036 250.63 168.507
89.1632 55.3642 69.4126
66.9727 256.51 191.078
72.4283 47.9018 118.192
87.65 38.9124 115.081
49.1947 111.611 61.0798
82.3697 78.7693 44.2662
55.8517 71.1992 90.2202
32.731 264.298 226.682
57.1874 114.421 62.9991
75.9622 302.436 195.394
65.4659 255.724 215.707
118.45 64.7404 104.281
54.7519 255.912 228.052
83.7287 225.084 161.96
12.1641 70.4369 265.303
66.2228 40.8055 111.78
30.5947 301.177 255.65
52.1975 303.885 194.14
71.972 72.1906 51.4278
85.8774 81.1148 60.0672
80.7289 218.991 165.563
63.9355 261.563 235.359
89.3785 59.6662 60.6327
55.6552 84.1639 87.0836
1.85824 93.6752 268.69
88.5803 76.2217 98.3639
69.2674 112.876 117.321
98.1742 87.618 107.753
53.2227 86.0713 98.4012
49.2066 222.42 196.405
47.6189 66.5487 70.2412
47.3799 283.37 226.891
47.0355 256.828 142.458
57.3756 109.194 48.1436
60.078 282.397 151.771
76.118 44.3605 100.48
85.3784 71.6102 45.9419
87.7148 61.5394 52.2218
82.7282 37.6748 94.7923
105.929 100.04 105.487
42.2315 106.056 99.5638
123.122 223.62 166.251
67.9661 87.0765 53.9753
56.3792 266.452 239.472
88.0439 106.738 75.9183
92.6801 282.742 180.78
20.9632 108.661 271.862
126.446 77.1866 72.5638
98.9407 258.799 212.301
95.0843 61.3106 58.8523
67.8903 264.984 140.287
60.5893 264.672 149.597
48.5608 98.008 91.6229
29.3156 299.82 206.998
78.1095 90.2214 48.5295
57.2717 89.1532 80.5037
122.114 50.0352 87.3154
90.7183 228.101 168.419
32.8493 301.894 260.518
58.2641 78.2073 101.344
59.1155 255.849 144.982
69.2797 58.36 128.709
102.033 89.0297 116.348
44.8637 273.881 187.68
72.5502 63.679 124.834
53.0699 117.092 114.124
73.5164 242.946 143.211
91.1992 81.32 103.466
72.8516 187.308 174.497
108.408 56.6222 94.6116
20.9313 267.127 218.237
52.9972 46.2284 84.3504
106.782 91.5714 64.9234
26.0295 99.0453 111.319
72.329 51.3934 89.4761
68.392 68.2148 126.19
59.2193 49.1297 118.795
51.9795 234.166 155.908
42.977 302.995 203.695
49.4237 91.6294 57.1097
95.6201 73.2942 102.442
79.6174 1.97539 150.218
104.431 260.194 174.237
55.6637 266.88 152.981
65.1249 39.1294 101.11
70.9102 190.251 178.147
37.0079 113.239 95.4931
47.2578 284.946 163.822
48.1715 117.558 65.183
61.7709 112.822 54.4052
48.5138 139.406 91.7067
90.5374 105.682 86.153
40.1183 96.9189 65.0702
54.8289 82.1584 47.3606
52.817 248.012 160.382
67.2178 101.559 47.6181
71.7924 55.1913 116.649
15.2439 204.069 202.733
36.0015 110.753 62.7014
40.7957 229.199 204.75
5.09059 80.1807 272.486
103.778 51.7532 90.3285
50.3664 279.045 155.601
63.5478 55.3132 118.61
35.9429 279.246 264.18
60.7609 248.373 58.9026
54.6195 245.69 148.327
45.3767 43.741 103.197
33.0873 292.046 172.302
75.2508 88.4145 43.3906
68.8335 87.5814 43.9624
22.5003 163.301 246.49
41.1213 249.144 207.554
136.403 59.0332 70.5598
32.5454 236.982 216.102
125.422 84.7738 86.8213
65.7354 113.438 60.1055
96.2795 228.882 174.383
69.4152 303.32 213.43
38.9351 105.255 80.5385
90.3741 254.06 172.226
130.22 63.9063 61.5253
82.8303 254.739 144.241
70.1117 252.54 230.172
73.9697 89.3124 52.2236
115.947 53.0209 84.8925
81.6022 58.7545 63.2976
32.1046 274.959 222.832
21.0031 282.576 185.445
50.305 86.2785 49.0513
31.8019 112.99 89.0253
119.87 73.5572 69.8502
25.2763 270.804 230.73
56.1123 38.2901 94.6345
58.9409 245.08 161.208
106.621 263.453 178.841
43.7394 108.136 54.6335
22.1436 285.494 214.912
39.476 247.293 145.967
47.797 57.9563 116.442
118.784 183.111 175.824
19.63 278.473 210.054
114.934 248.468 46.8454
42.6766 105.463 61.395
36.3629 102.186 92.8306
119.486 56.6365 53.4723
79.3044 83.3545 46.1902
50.2629 110.519 53.9409
99.5942 93.7525 75.8888
53.7525 249.488 227.324
35.304 303.005 198.739
64.547 64.4008 100.429
64.1857 221.863 152.492
47.2575 77.3532 83.393
58.4338 73.5851 74.2474
81.3218 259.423 144.807
51.7235 227.779 195.788
72.9365 56.3364 94.0039
38.9806 271.039 195.456
66.8032 238.438 215.646
61.152 86.9392 58.9456
119.126 59.4791 49.8556
37.9448 220.414 186.287
51.6046 42.3594 80.9575
39.4292 265.842 152.086
39.7924 95.3938 110.614
9.01792 203.98 202.072
1.95436 76.5222 145.405
115.965 73.6215 90.4741
19.8501 165.715 238.217
44.817 77.168 118.932
61.2738 78.7312 66.043
21.0325 295.415 263.054
44.893 55.3894 110.48
55.6217 225.947 152.847
35.5327 102.35 59.6155
44.7697 249.445 221.361
3.66619 261.038 258.358
88.6145 78.6137 47.0385
58.9435 60.89 74.3867
53.8867 119.939 103.289
117.33 54.8313 91.7488
96.7875 70.6376 128.782
85.954 286.12 184.274
21.1834 92.1429 262.423
24.243 297.026 267.57
48.7509 118.982 104.488
134.073 73.7495 60.9705
72.8556 221.994 172.899
56.3264 56.2511 118.099
84.4044 254.308 171.642
43.0584 99.1464 98.54
35.1466 105.776 71.3708
74.036 167.723 219.873
