ply
format ascii 1.0
comment Created by Open3D
element vertex 622
property double x
property double y
property double z
end_header
18.5831 190.202 221.954
96.8337 159.981 335.365
32.5844 111.61 127.071
22.5293 198.191 246.895
18.3489 196.9 211.187
53.5527 68.7784 128.948
17.0631 185.292 213.756
29.2368 196.145 268.482
18.6536 194.851 229.333
84.6039 53.0904 67.8933
17.0217 177.118 207.47
122.639 52.1431 59.3505
23.2257 212.596 231.97
83.9595 118.253 228.424
20.3122 128.379 224.411
45.0066 36.1511 172.633
96.3997 132.105 309.254
105.346 136.748 307.795
22.9863 161.976 218.221
17.8297 204.756 231.195
24.5909 186.765 259.612
100.66 148.498 226.281
25.4268 15.0424 83.8902
26.7146 151.308 231.09
27.3773 161.109 240.502
16.0694 109.623 225.025
92.5954 56.2463 37.7713
88.4421 162.689 192.09
14.898 170.895 197.671
74.1257 107.933 326.835
104.124 102.931 323.673
26.7494 162.451 257.948
38.4165 193.2 355.407
43.5616 157.662 199.566
90.6081 152.25 196.782
87.5055 59.4347 57.9011
37.0084 218.103 234.046
31.7997 103.546 247.992
22.6544 152.194 214.244
80.0077 125.421 333.573
95.9666 139.367 221.74
113.346 111.912 63.2899
92.3244 130.153 234.41
84.9915 101.697 311.356
89.9639 46.6372 59.538
18.1398 166.622 233.649
18.677 122.241 217.237
117.535 94.4655 56.15
24.9526 169.09 267.439
64.095 101.606 223.12
76.4366 123.771 313.715
40.7188 211.38 258.648
19.6446 202.299 239.33
109.045 116.872 310.317
98.7708 158.727 303.095
15.6541 172.042 185.712
90.5468 147.054 343.389
122.294 59.5208 45.6365
51.3857 214.616 216.892
13.4776 157.049 185.168
18.4046 189.617 191.417
75.2256 123.255 305.438
24.4448 148.754 220.997
86.9493 129.508 308.315
19.0545 191.294 201.106
33.5273 44.6339 149.335
24.7381 175.532 260.01
49.8399 210.102 257.87
103.524 169.757 229.177
50.9601 42.3024 164.78
22.9588 141.594 216.637
16.1764 122.732 234.198
80.7258 114.527 240.049
99.6505 131.116 343.868
29.0641 40.6885 165.817
115.673 77.4866 94.8613
18.9267 170.187 213.18
89.5465 197.527 234.305
19.5388 178.741 221.107
22.7638 209.485 240.634
28.6216 33.4023 168.067
93.7687 190.033 250.22
30.6126 135.242 194.772
26.7804 43.5502 156.318
84.1349 102.202 52.8149
19.8421 148.102 206.605
33.407 31.017 172.485
24.01 165.76 226.612
16.0449 110.479 211.235
90.2985 51.874 50.2286
89.7305 128.071 223.003
16.4744 151.326 197.368
30.3414 214.114 213.666
53.2018 34.8213 161.943
26.5419 28.0502 147.252
14.0173 144.869 189.959
77.7112 104.11 312.658
61.0175 137.804 182.485
21.7694 146.971 274.211
92.7565 178.331 212.172
82.4471 133.248 345.064
92.6569 109.744 304.469
25.7486 174.959 244.913
52.7069 44.664 157.082
18.461 156.36 206.021
83.5172 97.5225 40.2534
87.3625 66.3701 29.6067
90.0912 99.2783 324.982
83.9231 101.136 326.511
107.968 141.471 321.574
102.471 106.605 331.807
102.071 138.117 334.613
22.8442 137.102 231.172
23.862 138.745 281.797
96.9543 103.362 307.536
86.7655 122.468 237.34
94.2547 147.168 205.391
89.2969 130.097 210.432
105.186 165.486 237.31
30.0358 214.199 242.539
108.989 120.596 324.021
96.2942 100.341 22.4593
120.086 98.3696 48.5014
101.249 151.284 332.307
45.0906 213.148 248.153
14.1814 145.124 180.199
19.6896 144.628 244.371
116.172 84.9526 80.292
27.725 201.917 257.31
103.265 133.585 329.745
26.3242 28.0963 159.603
23.4182 190.183 249.96
34.7408 134.713 176.054
32.3899 191.847 275.411
102.622 152.19 309.979
81.0759 66.4279 82.3019
50.3139 209.588 207.571
42.4354 205.832 267.072
119.792 61.3137 81.6871
40.9143 43.993 152.159
106.692 111.92 306.506
21.6213 190.005 234.819
102.181 161.319 330.679
53.89 174.653 287.917
21.4841 173.213 224.312
79.6752 115.993 303.644
67.4394 186.818 204.086
41.58 141.676 175.162
90.8695 143.479 307.059
90.11 108.079 339.87
84.9466 150.843 265.007
20.3344 131.564 249.715
73.2365 111.382 311.167
61.0127 214.588 236.495
102.702 124.954 320.496
18.178 142.039 201.079
15.3357 162.711 180.623
84.6377 178.558 269.984
22.4079 181.131 249.255
101.097 140.832 320.192
21.2988 132.729 238.892
22.6254 129.588 275.108
85.841 124.851 214.014
38.9468 33.3591 174.041
20.744 135.86 208.397
63.305 209.934 250.858
48.1883 139.727 176.289
102.929 133.32 321.904
95.5658 158.73 203.851
95.6725 137.968 304.325
119.26 55.7976 39.4047
78.7593 134.895 192.786
38.9465 164.484 291.098
84.2863 84.1186 97.6913
79.0412 202.101 225.369
18.7276 200.523 221.8
31.257 112.828 191.161
88.2927 138.951 198.936
51.183 216.968 227.505
99.7381 163.411 316.539
88.2642 114.645 303.229
23.0195 154.206 280.495
83.0455 99.7225 318.36
96.1766 107.518 329.864
87.0932 133.427 299.614
118.264 62.5863 71.6953
47.7067 168.312 290.8
38.9984 38.9699 168.542
16.2072 119.793 248.553
25.3446 174.622 237.804
29.4976 33.1678 92.8016
28.3114 22.5344 163.518
47.272 46.8553 166.638
53.9878 26.887 157.088
96.0571 128.789 324.537
119.428 76.298 25.9475
80.6753 138.634 330.424
35.4938 186.106 284.423
104.553 159.877 309.998
60.084 3.97154 127.22
95.2121 137.194 342.474
50.8171 149.022 174.072
100.953 129.356 314.441
24.17 12.3103 72.7731
33.152 113.257 271.203
89.6775 136.112 309.583
84.2135 127.659 202.281
15.1152 129.334 187.514
43.75 104.075 264.476
22.5699 182.171 238.496
71.4873 106.906 245.909
16.8122 163.428 202.834
90.7843 130.566 343.903
47.1406 196.306 276.806
87.195 108.439 305.211
96.5254 43.8378 48.9802
36.2688 36.4659 140.287
42.0625 17.2395 146.157
81.4214 137.512 321.749
82.257 90.9555 29.6738
81.9397 155.207 186.31
31.0709 217.698 228.062
31.759 20.3152 150.815
22.3674 149.012 173.2
45.2716 218.01 235.273
25.9871 183.556 271.462
55.4139 214.083 245.529
16.0079 179.795 198.568
89.394 96.9215 319.293
95.7924 167.676 264.301
47.0395 32.6299 167.607
105.466 106.781 92.2214
22.9697 106.274 235.761
96.2589 189.466 240.332
85.6993 159.349 313.251
41.2509 49.3268 157.531
84.2868 80.0366 30.5882
88.01 70.1574 62.2705
108.302 105.988 311.869
85.0937 118.735 340.426
100.279 160.844 216.195
81.6487 75.165 88.9915
43.7446 152.691 291.316
49.7803 132.988 179.379
69.8074 210.107 246.036
70.521 124.392 324.676
99.1548 113.148 304.318
38.7706 24.3218 167.151
68.0036 111.803 263.066
26.2756 141.381 249.911
71.3065 119.451 312.2
31.5913 37.3681 147.461
37.4898 95.8808 238.153
70.3579 206.742 224.326
81.7606 162.973 326.331
17.3787 131.331 199.613
20.3134 129.051 204.943
112.131 105.716 76.7204
21.4295 205.378 210.439
89.4078 155.324 326.841
26.3186 12.3469 90.9278
107.288 125.232 312.649
105.272 119.433 328.989
70.2055 128.812 274.63
20.2657 207.658 220.895
104.841 131.366 339.694
101.742 124.304 341.456
53.0045 204.237 267.803
18.0161 119.506 188.459
70.4 106.831 231.053
33.6912 169.444 289.986
24.1716 38.0229 153.284
100.371 106.449 25.986
77.567 125.997 196.343
78.9173 138.423 340.112
91.9772 174.435 266.754
95.2686 148.194 341.704
67.1543 148.538 180.662
44.5101 23.3236 147.94
25.4547 162.417 173.547
57.0158 183.377 282.735
81.2279 118.539 315.176
54.79 193.114 277.505
96.3627 147.216 241.299
110.797 131.138 317.592
34.5651 214.876 248.903
60.3143 167.012 288.27
105.116 146.965 326.651
51.4207 22.5483 145.26
91.5587 62.3008 49.3588
90.434 141.249 258.729
85.3449 106.196 336.664
102.493 105.635 309.718
91.6909 151.715 251.945
108.031 138.923 332.167
117.338 66.2812 29.9709
70.8669 139.239 335.379
41.9553 125.802 180.558
43.8284 17.7922 157.992
76.9954 144.77 186.744
47.0626 24.0111 166.743
94.112 102.247 328.539
27.8618 132.217 177.133
100.974 161.221 323.073
42.6909 217.864 222.393
92.2627 162.58 324.906
84.1156 158.83 277.514
88.7449 120.697 296.594
100.994 122.366 312.443
91.2192 153.924 336.089
76.6817 140.361 269.559
32.8972 28.0647 164.791
88.0042 70.9241 22.7879
16.5984 120.987 203.332
82.6294 128.13 318.861
33.7543 29.0126 144.193
94.3787 127.483 303.578
72.9963 127.949 336.117
35.9371 119.116 185.104
100.181 118.29 341.149
104.148 145.723 333.737
32.5768 178.3 287.264
76.7335 197.685 260.303
100.859 196.786 242.049
28.0243 161.766 287.833
121.463 85.0977 20.4724
106.533 131.499 313.515
89.4635 141.53 335.794
90.4917 66.8203 40.3149
71.5243 124.635 318.195
83.2154 151.402 327.372
24.2101 167.166 163.33
115.82 102.443 84.2123
48.8094 42.1181 150.016
67.8438 210.449 231.75
64.8494 181.902 195.151
108.227 107.934 324.387
79.81 143.867 337.726
88.7615 161.752 336.504
23.5728 173.496 231.193
22.4378 116.035 263.271
47.2054 186.815 284.056
90.7559 104.234 308.352
99.9157 113.243 332.556
84.1941 138.005 341.128
111.002 99.5595 88.0248
92.8567 122.346 312.836
60.1318 127.071 187.131
90.1267 189.603 220.296
84.1982 145.865 257.07
82.1907 144.667 342.914
89.4051 118.861 347.23
74.87 131.761 332.718
116.333 43.4664 53.8851
45.8825 116.691 187.905
94.4372 114.408 301.191
71.1924 103.319 239.842
55.3493 102.934 264.241
98.1146 149.735 301.444
97.1767 87.9898 16.45
21.4966 134.144 214.865
80.1816 115.484 325.531
20.139 183.587 231.138
54.571 114.316 192.799
99.5099 147.775 339.667
84.9284 148.092 189.876
71.0702 134.89 187.724
78.2436 122.248 340.323
59.4138 200.76 269.687
106.706 112.688 332.569
33.1972 147.924 290.556
108.075 151.177 315.153
59.827 209.813 219.367
29.3525 40.5378 143.93
44.4079 21.073 153.052
88.6705 114.631 337.428
89.637 148.907 310.029
99.9566 101.168 313.657
48.5678 28.4178 153.882
44.1869 39.2363 163.053
96.9783 102.411 323.184
96.9922 118.427 46.1181
27.755 27.2869 169.108
95.6481 151.043 310.844
66.0328 164.919 179.491
89.2101 103.526 330.751
113.393 116.431 324.642
98.2781 150.373 215.399
77.9204 131.051 257.791
78.6418 131.257 339.86
87.5452 125.929 326.674
97.4938 152.907 337.054
84.3443 114.516 308.039
65.447 193.229 207.439
78.3189 104.963 330.876
34.9336 97.6152 218.234
24.5175 185.437 242.136
60.9555 154.739 175.785
80.6321 110.973 312.056
108.275 44.8327 44.1616
118.192 89.3238 38.997
39.4772 102.354 203.439
43.2689 180.619 289.151
80.383 157.989 316.952
84.2194 106.834 329.445
107.681 115.276 318.238
74.4834 117.659 320.326
98.5737 119.291 306.714
75.5021 111.825 218.993
84.9902 144.663 310.846
92.7569 101.087 311.431
99.9954 138.483 339.84
88.4649 91.9284 21.025
37.7952 43.8939 143.592
98.0377 121.799 344.824
108.486 120.097 316.676
111.422 49.0984 87.7503
26.689 208.327 203.448
76.7546 164.469 183.535
111.169 108.308 27.9287
60.0958 97.7004 239.201
35.2415 106.932 260.057
93.6251 119.456 302.32
39.8615 152.192 172.072
86.8593 162.094 325.508
62.5342 99.8798 248.047
41.0378 201.896 273.631
89.9041 132.888 321.499
76.5499 180.711 200.112
38.1331 195.049 279.18
91.7555 110.709 37.3131
62.9105 175.717 284.08
87.6749 161.887 319.729
53.1611 95.1136 239.157
103.736 113.162 87.5821
96.0938 142.218 339.735
76.6394 170.563 278.548
32.8589 104.956 199.583
78.8396 126.758 343.278
46.9981 45.0905 157.475
51.0743 32.462 143.631
106.641 115.475 38.38
55.3538 185.238 194.511
68.8374 158.081 179.91
89.1925 93.4181 56.3984
88.3939 119.412 330.121
52.8408 194.974 200.441
118.456 108.521 39.0914
38.2203 27.599 144.248
95.8882 148.628 320.955
85.6313 120.146 245.636
119.889 57.7483 93.5548
83.6227 126.385 345.48
96.783 148.256 306.47
113.44 73.8129 17.4951
74.708 129.977 323.282
68.5324 172.587 283.16
80.9976 157.131 323.082
39.0391 213.23 206.673
114.585 94.2828 17.0663
98.8241 108.758 307.054
89.6088 137.866 317.833
62.6388 204.946 260.736
92.6233 69.2389 55.5999
94.2792 114.022 334.168
64.0242 203.926 213.437
34.3591 20.3674 171.221
84.6307 84.1575 82.3764
87.3896 148.466 338.137
48.5378 109.055 274.499
84.2726 149.341 314.621
84.479 108.424 309.555
96.0609 164.396 322.227
76.7548 105.991 317.583
85.7677 147.646 321.304
106.966 95.3861 103.03
50.1902 94.5311 231.996
102.138 111.017 326.48
108.114 116.42 46.0727
98.8005 116.241 38.4249
53.3729 203.191 203.784
88.5021 139.199 344.507
38.724 208.335 199.848
106.839 70.745 16.5364
75.0531 154.57 182.994
109.264 109.359 316.734
35.4729 22.9599 156.069
27.8207 33.9255 159.775
75.5195 118.285 202.549
77.1564 124.837 323.233
81.2937 141.987 318.489
54.9031 114.23 279.215
92.2789 159.298 308.955
93.7774 67.2402 19.2047
65.4828 192.024 274.366
73.0825 115.724 327.043
86.7333 133.26 251.342
109.325 66.0932 21.0731
108.733 111.532 320.971
83.9858 113.095 331.789
61.6642 145.636 290.709
89.7252 105.872 31.8891
92.5111 101.044 316.528
93.6109 58.6999 25.5767
73.2188 188.154 271
109.415 57.5453 27.5771
84.8402 112.403 48.6877
46.4572 172.448 178.165
58.4496 105.631 202.949
98.1853 99.7179 318.772
98.1325 120.463 70.3314
81.5378 155.761 333.829
53.7199 216.953 231.732
91.0516 159.558 329.559
86.9196 125.701 350.015
82.3187 149.241 339.026
91.7743 119.445 58.3578
104.599 80.6686 109.066
54.2791 132.334 289.43
45.3674 186.531 293.273
67.0649 105.758 255.126
103.353 81.5103 13.9034
99.5832 55.1502 96.9553
78.5656 146.798 322.647
93.6076 119.639 343.179
86.5971 144.06 316.091
95.5782 127.581 343.499
105.632 67.2992 106.277
85.9001 122.357 309.55
80.8342 196.686 218.49
97.4327 141.784 331.428
77.0539 112.308 233.891
64.8056 119.435 194.172
37.5336 23.9895 174.193
28.6348 155.745 173.653
81.9846 72.2834 77.7335
100.42 96.382 18.1541
91.6142 183.046 259.291
93.6405 115.554 341.048
86.0233 92.2531 86.4432
94.0252 72.1839 105.741
100.69 128.647 335.229
104.051 143.452 301.848
94.2716 148.647 315.218
94.4315 163.164 314.113
68.0549 198.197 210.981
92.1064 157.63 313.375
109.45 43.068 76.5209
90.9862 107.531 332.863
28.3161 169.888 173.584
111.323 107.492 87.144
88.6338 126.953 320.519
52.3545 99.3152 256.449
26.5544 75.9528 357.169
37.8145 37.9017 147.223
34.778 122.321 280.574
96.3575 42.2563 66.2529
109.052 114.165 327.01
70.9175 181.064 277.259
47.5615 96.664 249.318
98.0163 76.4137 15.8981
89.0141 149.304 315.45
77.4656 117.703 332.513
87.8182 154.369 316.182
46.7747 160.567 173.102
99.5474 43.8486 79.4146
102.889 40.5715 59.1597
71.458 143.599 184.21
101.54 116.972 310.319
109.704 87.7722 106.085
95.8194 110.105 338.583
80.0229 82.8228 31.3956
67.0187 173.533 184.716
104.252 108.877 314.245
97.2499 162.085 253.962
119.156 101.216 23.1443
70.8366 161.268 283.736
85.467 117.064 321.52
89.2694 96.6604 101.533
92.1363 162.549 318.528
43.1353 190.292 189.007
73.5734 126.711 260.857
84.9138 134.423 325.824
81.6043 127.588 327.165
119.546 91.7657 32.8883
28.5495 39.4512 157.176
45.7487 145.636 293.553
93.5443 59.7242 98.0479
86.861 188.564 260.572
55.9499 221.903 230.308
82.9681 152.453 318.319
53.2649 95.5747 221.332
92.6947 171.036 202.738
82.8837 148.639 331.658
75.0881 206.676 228.895
108.89 125.24 332.125
43.9863 31.8376 149.249
34.9916 184.039 180.084
74.0182 176.319 191.859
86.576 142.985 339.839
104.292 125.477 331.071
79.9413 121.497 326.66
106.631 97.8303 19.147
86.2223 152.541 334.524
34.1626 138.712 288.976
79.5128 121.411 253.535
48.309 124.063 285.622
69.1783 153.331 284.943
114.489 41.8581 65.5201
37.4104 154.099 290.871
29.1656 188.989 182.473
114.762 102.54 21.2038
53.8759 177.489 182.281
81.679 136.11 313.282
114.947 87.0281 13.9529
107.594 55.2467 99.0603
86.5964 102.126 97.4196
78.7987 122.153 319.506
82.4605 82.7563 89.4372
47.9872 186.85 189.802
111.98 91.5193 99.7802
42.114 38.9354 155.267
