ply
format ascii 1.0
comment Created by Open3D
element vertex 235
property double x
property double y
property double z
end_header
67.4314 47.3786 52.7411
14.375 100.959 105.528
34.7127 26.8722 36.1935
54.6 94.8629 104.094
64.7242 56.1559 53.2104
22.1428 107.953 89.2432
38.5104 84.3168 77.3804
33.7014 113.58 119.482
16.7087 42.8111 45.8116
23.6292 101.091 79.2799
15.0197 59.848 54.5226
64.3391 58.848 43.1313
65.8391 34.3633 50.9481
44.0188 83.0969 86.607
52.318 103.337 96.0133
31.5292 82.2785 89.6857
48.045 111.935 97.0085
27.2929 115.281 105.192
22.6784 70.666 46.4324
37.5012 29.032 28.1111
16.3629 47.5235 54.7028
19.6109 40.3754 36.6298
50.4938 51.8488 22.9647
55.8114 80.8405 142.919
21.3616 35.4797 52.9164
30.6981 77.3497 83.1687
17.9614 53.532 63.2707
22.1661 105.166 119.926
24.6706 84.5012 84.7546
19.5594 107.733 169.074
41.6581 63.4203 76.7759
65.8806 39.8461 59.6688
50.3117 82.7707 132.956
16.2662 64.287 46.3114
24.1451 51.6722 24.5289
53.2814 32.7694 23.5551
61.2687 95.2284 143.681
15.4797 97.293 96.7594
32.7841 66.3763 35.6767
25.1139 76.3782 91.9947
25.3469 77.8974 106.204
14.8524 48.7123 37.8988
30.689 73.3526 64.5645
13.9763 53.5302 45.9344
31.8823 42.7828 22.3603
15.9642 57.5504 38.3797
34.3613 75.1208 153.199
18.4978 91.005 80.5051
62.8216 49.5139 30.2463
43.4918 90.9874 81.9493
23.1242 45.7586 68.422
29.0534 39.2228 69.9572
39.7554 76.3352 89.3771
46.137 106.281 143.942
28.0526 33.4909 59.3247
52.9447 86.0343 97.4059
36.6593 116.941 106.392
47.5994 23.9783 63.2971
14.9624 79.5046 95.3746
64.7439 29.3177 41.2217
40.9886 29.7524 70.7494
45.9904 111.763 119.59
47.5887 31.5304 75.4124
46.1403 76.1379 150.106
42.7596 41.8366 80.2952
58.4176 87.9224 140.524
49.1836 57.7834 78.8931
33.1343 58.0127 77.7257
22.8116 64.659 65.3462
23.7613 44.0844 25.3187
26.6522 75.8747 158.186
41.9596 67.2196 36.2627
16.8599 90.0938 112.31
49.9223 20.3933 45.5685
67.65 39.2274 41.1048
61.1471 32.5875 30.2936
21.1826 102.938 96.164
40.7369 48.1886 19.7374
56.052 70.2529 55.8506
32.511 27.0314 44.2731
22.3672 66.0816 37.7279
53.6323 94.8401 94.6851
58.7639 54.7908 69.6648
26.453 32.0264 37.8421
46.1961 85.7223 169.441
65.2369 41.7662 33.5879
48.6018 27.482 29.1641
64.0572 47.22 64.7818
32.7749 74.6481 103.94
52.8823 59.2911 29.6416
51.419 88.5333 88.7272
39.2534 116.91 166.509
37.838 95.5166 136.083
25.2664 91.4696 121.42
12.9195 86.7756 81.8181
32.6404 27.1928 52.1587
21.0765 114.021 155.843
23.1462 71.3305 56.4202
31.0162 56.2653 24.8667
25.799 55.1035 72.8613
38.6812 95.3699 77.4615
52.6568 64.1901 73.0748
37.7207 26.3422 61.1185
28.1828 31.6874 30.3521
21.2605 42.3103 60.8086
16.8144 81.4323 87.8085
17.8823 53.2667 30.6041
35.3055 76.8188 56.0357
31.2175 66.0589 72.9912
48.7805 73.3607 65.6916
61.6126 59.0173 34.5195
32.8216 82.6249 144.873
43.2885 115.741 112.101
68.5424 50.742 44.0798
32.6342 116.413 112.941
34.6335 99.7316 75.1161
34.1409 89.0675 71.7893
15.5795 98.5966 116.855
43.6949 35.1057 21.6044
18.6864 82.2018 101.687
42.6234 72.6249 45.1793
55.3324 66.3509 36.5959
48.7516 107.374 167.013
43.8466 24.1424 35.8313
39.4148 108.671 148.842
60.5938 24.266 48.9426
14.4164 86.9623 106.641
49.3741 80.4996 93.2946
56.4663 31.7004 72.2583
36.2667 74.5628 47.5471
49.1422 49.9578 80.4214
30.3459 108.566 93.7533
66.9597 51.2916 36.7371
38.1819 50.826 80.7089
31.7685 79.4525 116.469
16.705 90.0312 95.7337
30.3542 92.4647 142.043
23.1565 60.4797 30.0509
13.0276 96.0916 88.0692
38.5883 71.8781 70.4617
35.6291 36.5209 22.7974
40.2661 22.4957 46.4742
27.275 110.465 119.478
46.036 69.7023 72.8237
53.9842 42.1436 78.4946
48.5783 42.5298 20.8033
39.2329 56.3369 25.1259
20.0357 36.1875 43.6557
39.9866 75.048 111.948
31.2144 117.928 154.5
17.2322 86.2963 162.413
52.0288 21.2928 54.759
48.7025 90.3425 121.271
37.5687 115.57 98.2068
50.5404 107.335 154.14
28.1689 94.42 82.5095
18.8831 111.04 109.197
53.9059 103.627 109.008
44.1714 79.2976 119.567
41.3535 76.6817 144.805
54.0959 26.0067 68.0407
33.697 90.0564 82.9924
31.6844 103.76 80.529
57.0445 49.2299 25.5082
41.8359 76.1639 62.1748
43.5504 77.6417 95.965
44.9834 59.0274 28.9179
49.6754 114.178 106.482
29.2141 110.305 147.457
52.8583 99.2977 115.359
47.0055 75.1717 53.7898
60.5589 25.9422 58.5995
36.4602 36.4893 75.9245
17.8909 100.016 84.8687
44.9168 97.6942 82.7976
23.7763 31.1309 46.1928
48.8226 68.9575 39.3381
37.379 75.722 106.105
49.3686 78.2749 159.853
50.8988 96.7431 167.666
47.3506 75.4943 111.881
42.3164 22.8993 55.1803
60.9654 63.8165 52.3489
24.0379 111.874 113.342
39.74 108.844 90.6288
59.8458 66.1204 42.7212
50.7828 109.825 112.854
29.8633 45.5355 76.6437
60.7292 38.489 70.6339
40.208 80.0748 137.163
39.7109 84.816 123.491
32.7315 32.8542 66.4562
27.7235 106.147 84.8131
59.449 63.5103 61.3425
27.2957 102.029 125.514
55.3187 67.599 65.7377
64.0569 31.4022 63.6193
51.8094 22.4962 36.7056
47.2181 77.5896 102.183
50.9433 88.7936 115.641
58.7379 23.3769 39.6494
47.9749 101.084 88.7085
24.1232 114.261 172.8
44.3228 88.0432 131.487
22.4254 92.3058 181.546
42.4061 110.017 174.89
54.1197 71.2569 46.9706
25.218 80.1714 149.312
38.6658 76.5679 160.709
29.8613 73.4427 47.7171
54.1142 86.3914 111.038
19.3206 110.717 97.9861
57.1752 40.9924 24.981
20.5381 42.2796 29.9895
26.8838 77.5055 98.5419
49.16 103.314 122.852
43.9951 105.09 86.3854
40.3081 109.194 125.866
27.0858 94.2495 89.9412
29.8548 119.852 166.327
26.1607 112.615 97.6237
14.8174 35.8377 2.46261
50.3299 83.1328 106.73
51.4215 75.9453 144.443
30.6757 100.025 185.923
40.6871 97.1203 124.773
32.4055 114.551 91.1305
16.9138 110.003 134.175
33.939 92.9551 183.427
28.9145 80.9903 175.101
23.4113 81.8675 175.78
16.5793 92.5651 152.561
45.9755 62.3329 107.299
44.8178 54.7226 109.99
49.4447 63.1661 104.787
