ply
format ascii 1.0
comment Created by Open3D
element vertex 197
property double x
property double y
property double z
end_header
17.6241 67.2205 56.6683
39.4144 89.1589 28.7927
19.6608 38.7073 68.2263
18.3297 47.1065 75.3237
41.2112 55.7869 34.0098
35.4799 46.5929 88.0797
19.3544 74.7136 51.8835
36.4098 73.635 26.2236
37.2891 61.0122 75.3047
42.7026 91.4052 36.7857
31.9873 59.7184 53.2621
47.5604 73.8651 61.1396
42.8356 49.0955 85.8008
28.8296 78.3198 49.5368
27.2685 86.4348 39.2893
46.5753 86.2302 31.646
44.5969 29.6202 57.0682
31.9472 90.7044 35.6881
30.8331 50.0503 36.4948
40.561 70.3266 36.1524
23.2738 68.7818 28.4471
46.795 58.4558 56.7335
25.6023 48.0524 54.6019
33.5234 64.0981 68.2991
33.9554 39.889 65.5095
39.7822 70.2463 60.484
44.8518 41.6535 80.5122
41.2547 43.6576 66.2039
33.0165 76.4519 56.4842
47.4311 62.3444 73.9966
21.1966 38.5142 77.888
53.2881 45.3617 78.0807
41.0874 59.2383 68.9924
49.2295 45.4817 59.6056
45.5189 29.2027 65.3647
40.485 79.5609 53.4414
50.8849 81.0185 32.7831
46.826 40.3317 45.026
45.1337 35.0829 55.8583
51.4683 62.1383 63.0608
23.0926 76.5669 32.2153
34.4233 45.0185 36.642
35.052 82.2257 52.2004
26.5969 49.0331 80.101
30.5571 40.5192 71.7166
19.177 61.994 35.2547
37.7132 41.34 84.2176
20.4168 78.2163 38.6055
46.379 79.4501 52.1304
44.3028 84.6883 47.4305
30.8078 71.9397 24.5391
26.3162 84.7361 45.1333
52.307 33.1911 67.6885
23.2956 39.5545 59.0583
46.296 75.9814 33.686
52.9269 53.2349 60.6583
39.3136 50.8477 71.9957
25.0568 61.5007 33.5953
35.6192 56.1155 27.0413
20.5413 56.5953 38.9694
33.982 68.6902 43.4027
42.2882 54.4149 79.6354
30.4528 85.9614 51.045
30.0297 65.0514 27.0395
52.9988 37.9009 55.1762
51.9534 61.2243 40.9202
36.0879 80.6889 26.7777
28.6509 34.2077 51.4298
24.7472 57.4512 62.0541
32.7493 87.0718 29.9547
32.6395 77.3587 32.3145
53.3515 72.9188 36.2399
49.6055 43.3733 72.8677
49.3264 53.2979 39.7958
41.2115 62.4125 29.2032
17.4606 55.1975 56.3435
46.9092 39.2455 68.4608
26.0411 75.3092 55.2501
20.8417 69.0325 34.29
21.223 60.2984 71.6148
25.0467 56.2759 33.6044
48.0158 48.7097 82.1145
37.7214 71.6609 54.3173
36.4711 41.5209 42.5905
34.3999 65.1787 61.6133
27.3138 74.3497 29.8265
44.8264 69.67 46.1588
29.4192 68.4915 54.7796
49.3118 87.0835 42.9849
36.7087 95.1862 31.9595
30.6396 54.5941 77.4375
30.081 42.0276 83.3491
19.3398 56.9467 49.6649
31.6682 39.9143 55.4578
21.2992 80.922 48.4515
37.6701 30.7996 77.4441
17.8713 59.1712 42.4999
29.7752 35.2305 62.9804
23.1762 51.2249 36.9572
31.3882 63.6568 73.8995
27.6627 42.7691 48.0226
17.7715 66.2184 38.7616
24.6398 53.4127 43.7174
36.8542 47.3392 41.955
18.707 53.9252 70.1329
26.844 83.3471 32.6087
46.0063 50.1476 76.4973
18.8551 45.2404 60.2359
31.013 81.9323 29.1267
42.5955 63.9917 59.5786
24.7169 57.4295 55.2557
32.5613 38.5741 45.4006
29.6856 58.8293 27.2295
40.7378 43.1873 46.5629
30.48 45.0417 43.6927
47.7436 29.5204 76.4832
20.5014 51.3862 53.7463
37.1613 91.4191 39.7437
38.2663 51.2208 46.3549
51.3056 73.7964 44.2542
22.0382 66.5116 64.4498
50.1638 79.3396 47.3749
31.9779 55.4003 33.5045
48.2046 37.9048 85.2335
41.2333 89.1619 44.4967
18.0823 78.9292 43.1955
52.8107 50.2995 73.9625
50.4918 50.2498 67.4946
39.4706 58.5469 39.5608
51.5229 78.9077 39.7935
35.5645 51.9188 34.8223
50.2653 47.5944 51.9324
38.1293 36.7621 80.6898
37.9789 86.4338 47.0033
20.0947 51.1677 64.0925
18.4077 58.5048 64.2392
37.6107 65.9492 26.3678
29.8858 73.879 61.1871
47.0736 72.8038 26.8121
46.8696 51.7914 53.7739
21.747 68.1632 43.1354
19.9743 53.0895 46.6303
53.6524 58.3205 51.1466
41.494 75.8543 29.9118
23.7185 71.1219 46.1352
49.9323 56.4586 75.4911
49.4092 74.3542 49.7047
34.3605 70.7791 58.6578
53.7335 67.5798 50.8362
39.9972 51.1564 30.3884
43.1765 37.8149 49.5748
17.6547 63.2402 44.7041
58.1273 52.3839 65.7317
20.9337 74.0227 43.272
21.3856 47.2363 47.9184
43.0752 73.6373 51.6935
27.219 56.549 72.8073
46.3177 63.4114 46.2639
48.8015 56.0363 48.1868
23.1663 62.5184 49.7579
42.4985 49.8786 40.826
41.7384 68.3766 51.8822
27.6248 65.3215 67.1493
32.211 47.8366 79.3046
42.2056 70.4602 29.2774
26.9501 49.3771 45.5573
23.2307 66.5825 47.6947
23.7469 53.7533 75.1844
41.929 79.4046 27.4556
46.2951 70.2085 38.2783
46.1549 36.1793 73.1341
46.6093 68.2787 55.9832
47.8386 35.3607 78.3563
52.9369 46.5737 65.5354
36.6975 28.1664 57.9096
48.6522 50.7559 47.602
26.3451 60.9725 69.4943
37.1123 48.8913 82.7394
41.7054 44.5623 52.0445
26.4644 66.62 59.6898
40.7585 35.9985 72.4215
52.3072 57.3596 66.8974
33.0418 90.5066 42.9583
47.2219 39.443 61.6069
34.9372 54.0982 81.1733
33.3698 88.2473 46.9788
48.4947 66.0578 40.5705
48.1032 63.497 52.7863
43.9412 61.7937 35.2162
31.1577 53.4258 41.9418
46.7808 69.734 52.0535
47.7519 41.9524 53.5577
48.9152 36.5065 64.5214
25.9981 42.2403 87.642
21.6585 62.6405 67.4414
47.4414 58.7728 41.5659
31.4799 31.6714 75.5037
