ply
format ascii 1.0
comment Created by Open3D
element vertex 368
property double x
property double y
property double z
end_header
16.3208 60.8659 67.9328
31.5456 82.2726 88.576
15.9331 57.4944 62.2789
26.9922 60.119 70.9668
18.2091 49.2015 59.0956
58.7219 42.9585 92.3587
60.0723 80.2857 90.8396
23.1812 40.5341 97.4581
36.3214 82.1659 99.6241
47.219 44.5012 39.3283
42.0797 38.4288 111.807
58.3283 79.5039 75.2087
62.2057 70.7199 19.9015
38.1734 85.2292 50.9896
16.498 62.4597 101
40.5168 83.1643 89.3021
67.1753 65.1154 51.3394
34.6041 73.559 60.2782
21.2331 46.2087 53.1325
53.2967 65.9889 43.8025
36.7775 83.5994 60.0266
30.6116 75.488 38.856
23.2348 40.0354 88.8725
28.6351 76.0348 97.6052
32.023 48.8673 37.5814
51.7474 73.4995 22.2328
29.0888 53.5787 60.5443
53.7474 37.5061 108.136
25.7506 47.5734 61.9167
18.2784 75.2194 69.4328
68.6881 72.8882 70.8218
65.3652 48.1574 31.9651
47.7144 85.2234 100.406
48.8891 41.7882 91.986
53.5593 60.5673 55.0215
26.5235 59.8881 51.3172
22.9236 57.1737 93.9236
41.2881 65.631 98.3925
47.9071 45.9843 29.2675
68.9213 46.9779 95.795
64.9716 78.8034 63.3097
30.8905 40.5211 73.3949
63.8891 48.3844 89.3931
25.7885 60.7773 99.6606
50.4364 62.2472 21.1316
51.9177 72.7018 105.836
50.8151 53.8434 111.237
61.7875 44.0531 49.3008
71.5828 33.0752 59.4909
20.1699 78.6841 60.8092
64.1992 53.0729 26.4389
21.7875 50.2235 87.4784
45.5604 66.6038 28.7491
42.5718 32.3123 55.3641
21.0079 67.0274 49.8183
36.8197 45.7655 113.339
42.5438 76.4023 89.2488
29.2033 41.1273 46.56
36.1256 64.132 48.4967
48.1298 34.3454 47.1992
63.173 31.2412 58.3566
44.467 55.1356 19.3313
39.5479 74.5815 46.1667
68.3632 34.0613 94.2186
27.892 60.3752 32.3862
16.1095 67.9894 57.7263
18.0068 51.8528 92.7283
74.7434 51.8202 91.6577
40.0906 90.1304 91.8458
27.7158 77.7065 88.841
22.9391 54.6334 43.1875
37.3619 87.5156 77.5483
32.9654 44.827 78.5778
51.7772 83.5164 68.2655
25.1157 63.3133 109.453
24.0964 52.3353 66.714
49.2126 50.9189 25.1079
33.6731 31.1701 95.3711
22.638 44.7085 82.819
34.4457 35.4075 69.7543
33.6794 41.1659 101.561
27.8802 82.7734 81.1552
28.441 66.7532 78.7277
22.2646 42.4604 106.133
33.4323 74.9011 86.1038
33.4416 36.8033 107.18
28.2663 57.5139 88.3196
27.0796 65.6524 36.2375
49.0075 76.9335 97.6101
20.6552 70.904 102.514
67.9354 60.2101 115.469
61.2543 37.609 85.5056
22.8289 77.977 55.281
56.2264 80.8587 100.386
47.7228 87.1113 47.9084
32.8717 36.2817 78.493
60.4168 79.2519 48.3718
49.9311 29.1951 55.684
72.8036 60.6084 59.4168
12.1403 63.0047 95.7002
44.1406 31.8914 103.786
66.984 35.8399 85.0334
33.5285 36.2816 61.1579
60.7623 73.7063 96.9303
37.7416 52.5804 24.9561
22.9756 55.8555 115.869
43.3275 79.8917 41.191
29.2624 32.15 88.5117
62.9288 60.7502 41.7177
45.3683 38.2021 50.4767
14.5088 50.0332 86.9303
76.8583 44.9481 62.352
54.3125 80.0055 26.2347
37.4606 34.1084 85.5822
48.5555 29.3888 68.1827
67.9121 66.1554 24.482
52.1381 83.4198 109.724
64.8049 28.9127 66.4725
49.2074 76.9516 47.367
31.7069 81.3978 46.8249
62.0287 29.5425 89.3089
51.6706 29.3172 76.7555
53.4825 75.8751 37.1712
53.6715 33.6328 102.497
26.8043 49.4474 41.897
27.7294 57.3581 119.447
43.1587 77.9857 34.9641
18.4223 76.2842 79.7357
35.3996 63.4649 33.1366
43.7409 29.1521 71.6886
56.4507 60.3195 17.9066
50.7943 56.2319 21.698
26.4912 75.4312 50.069
36.6288 66.0069 39.1697
15.3924 50.9675 102.304
75.6142 53.4283 72.1544
57.7841 80.1441 63.8527
29.1907 57.0841 43.5809
23.6155 66.014 73.4631
47.597 72.181 37.6316
32.5353 82.7787 52.9281
30.8593 31.3219 82.2436
51.6815 34.1441 89.0414
37.5691 55.4165 85.9697
16.7452 49.9311 77.8042
73.579 32.9099 67.0638
47.7975 85.7666 59.2901
40.9736 34.5133 75.0032
77.7555 41.1026 86.194
55.9942 59.7384 111.738
66.2595 55.3392 46.51
39.0791 67.6039 26.5868
36.1739 79.5054 37.0044
50.7651 43.2087 112.925
77.5817 59.0087 76.5924
49.5213 79.1724 41.5355
44.3734 69.3744 21.1185
46.3378 57.4304 116.592
58.5077 55.1818 20.2699
51.358 48.1491 46.5385
68.8205 60.4464 26.3035
41.8651 80.4797 50.9728
24.5531 42.9609 69.6989
28.2345 45.5142 117.005
58.3727 33.2999 62.0325
49.0008 48.0247 110.531
17.4137 44.6682 97.5844
56.9701 79.5953 58.2172
20.6531 58.5064 56.8224
45.0566 75.2814 28.7948
41.3461 28.966 95.919
70.1422 49.7723 49.8677
38.1543 68.9622 88.8757
47.0518 55.7323 89.5119
66.2379 62.6174 95.9468
59.5524 31.7309 99.7612
36.7516 33.8456 54.8332
51.2049 73.9865 29.8736
42.9255 67.5998 81.7544
42.7697 43.376 104.943
28.7963 40.7578 81.964
42.6141 51.0767 24.5824
77.2412 58.2979 45.1338
54.2997 59.9939 91.3347
35.5134 59.5506 92.2252
55.819 70.6057 94.4547
37.8374 47.1634 49.0914
37.9271 36.9489 46.6704
31.0685 39.4689 64.9966
63.3862 60.0049 19.5704
48.9285 33.1926 81.8096
58.072 31.0049 79.6737
73.8575 61.5793 70.7145
28.1893 38.9751 106.87
39.8962 31.0475 65.7588
23.1783 53.788 108.371
26.1974 66.9105 59.7908
37.3725 90.0837 63.1111
28.0271 66.4495 50.8403
32.6677 86.079 73.7279
68.308 57.3404 39.4201
18.2021 56.1964 74.2819
50.4439 43.5462 104.321
68.5016 42.1966 101.044
29.4371 36.891 97.3202
40.6561 83.1428 75.0937
49.5442 67.4923 17.9765
47.4757 37.1935 105.859
60.0056 78.3231 28.056
75.683 43.9933 93.1056
79.1128 39.7457 78.3337
39.8393 41.8226 36.8095
58.0381 78.1786 36.2615
25.0135 50.8151 47.7549
76.8545 55.1652 59.6793
59.3331 43.5872 37.1876
46.7758 32.7059 98.8517
18.1906 48.3277 105.189
27.1382 48.4409 19.9684
40.3933 36.2966 91.515
33.4374 57.6569 32.6045
39.946 58.4096 22.8391
63.5166 68.5129 85.0288
66.8888 41.9149 53.9221
76.3756 57.664 65.0002
59.2842 72.9674 47.8289
52.8745 46.523 34.2873
61.7894 40.9242 41.8367
74.9733 64.1389 66.6876
38.0496 79.9061 70.3772
54.9498 47.3575 40.7599
67.3644 73.6529 83.9299
59.2533 30.237 73.2983
24.7362 45.5113 76.6928
69.4861 66.8401 35.3758
59.8096 54.1931 43.302
61.8413 36.1221 94.1573
31.4549 47.8994 83.9563
59.7197 79.5992 42.0428
31.3118 71.2135 73.0308
33.8666 69.3903 31.6134
35.4434 63.8944 88.696
72.5328 62.7563 94.9144
24.3448 80.632 74.8585
70.5039 75.2605 49.2383
75.2217 50.3549 56.2022
78.651 50.7861 80.7925
58.8795 30.9212 67.4924
30.5339 83.4877 58.8356
46.5352 79.0445 53.0293
66.7567 73.6658 27.3683
64.52 74.0009 50.8772
65.8762 48.1411 44.5068
38.3873 32.1417 60.5221
57.5232 49.8011 25.8955
52.2064 81.9545 90.3936
23.9668 63.9094 41.5669
62.3729 42.2645 102.599
35.143 40.5441 48.9503
68.187 78.3514 44.7492
50.5259 82.763 75.8541
66.7355 53.1558 34.7015
55.7331 67.7433 20.5876
23.9075 77.8914 67.2663
47.9062 80.291 30.88
50.3101 75.3706 84.7906
22.4505 60.7029 44.6889
39.8777 51.3004 35.3044
62.2401 56.0937 99.3132
24.6515 70.532 40.4104
44.7768 33.158 84.7859
37.7523 47.9022 40.8159
54.5019 32.6126 83.9016
52.7678 34.7972 95.8242
66.8238 37.1039 73.1877
57.1014 51.1714 106.905
29.5275 51.9858 77.1936
72.1204 71.7999 37.7064
74.3602 64.6661 42.4567
67.8139 57.3508 31.245
54.3743 41.5382 45.3678
58.5901 37.8238 102.386
53.485 50.1087 23.5302
67.0441 36.7562 78.8328
68.25 40.2467 93.8406
70.6545 62.635 84.971
45.0661 30.8353 90.6882
43.2893 89.6649 72.6415
67.8228 78.5714 55.504
29.7723 71.8321 44.5072
58.8715 34.9366 51.5055
16.7192 44.1442 91.8326
36.2798 30.3965 74.1201
40.1569 63.1241 20.6413
45.892 29.7477 61.941
75.1522 46.9044 72.181
26.7088 49.604 53.3232
54.6897 77.8698 44.2932
54.7621 32.7814 57.1431
59.6607 50.0852 36.4172
71.9478 34.8239 83.4223
73.7392 40.0477 57.83
49.7035 81.0059 80.8709
22.3263 53.2499 74.1777
54.8869 47.5423 114.703
55.8344 55.2689 99.7002
38.4165 73.3539 29.5346
37.746 57.3308 27.679
65.5514 28.5685 73.8296
28.9127 52.7481 105.865
61.4181 56.4631 108.099
52.0027 76.0449 52.7986
79.0017 41.824 67.6106
45.1312 84.3933 68.0548
71.9963 63.865 77.2922
65.6536 77.0828 36.0744
56.9434 63.5344 105.667
76.7354 57.1625 51.224
45.2604 61.5697 111.819
34.0769 42.4136 38.7957
63.6356 74.9065 41.8551
80.8024 50.8119 73.4936
29.6341 60.7726 83.24
23.1975 71.6991 51.2531
54.7188 43.5662 98.8682
74.9119 36.4444 73.8087
43.1578 39.5647 85.9646
61.2937 47.4541 99.6735
61.8589 77.3025 54.6801
40.6724 78.7432 63.9368
41.4846 30.7123 80.2823
29.3655 59.627 39.3597
27.1273 81.9744 63.2987
59.1189 44.746 108.921
38.028 77.4438 79.2389
28.7778 60.5999 94.7505
63.7806 67.9204 93.6585
42.2262 76.5238 98.7994
35.899 73.0379 93.9631
66.2099 36.5476 54.2699
37.466 71.3402 35.5606
41.1474 61.5807 104.663
47.7046 86.0539 86.3703
40.5011 50.6133 29.5568
57.5045 46.5208 30.1026
53.0831 35.4411 50.7629
72.8565 49.6669 62.9098
65.0278 53.4017 105.351
35.6078 65.5085 93.8371
71.4943 44.3853 57.8034
75.0151 71.9961 50.9317
75.1677 56.2591 84.8987
76.0657 68.4329 46.1436
71.1399 59.4464 49.1737
70.685 72.7488 42.4575
62.922 68.4172 102.607
46.0034 42.8778 33.4782
54.4308 66.7928 91.4697
34.7794 54.9412 111.672
56.8284 51.7042 112.621
69.7769 65.0862 30.2381
76.2064 68.1471 58.3756
58.0636 77.7178 84.4973
77.5365 50.3614 67.2173
73.112 32.1285 77.3488
63.0289 76.4271 32.4141
24.6351 35.0178 95.1892
25.3523 83.1534 68.1011
