ply
format ascii 1.0
comment Created by Open3D
element vertex 591
property double x
property double y
property double z
end_header
30.5721 105.676 47.3968
64.8993 62.808 93.2975
20.5524 145.161 247.872
65.726 61.2062 80.7502
48.0731 200.053 196.964
45.2154 250.285 225.545
50.41 127.545 83.124
19.2281 194.221 228.239
16.7496 58.8097 58.6293
83.9568 116.04 80.681
18.7384 61.2102 71.6115
53.0362 113.681 87.3999
84.9887 149.727 82.7801
17.5507 223.211 262.345
18.4575 200.442 254.867
18.0517 70.7464 63.6133
79.8092 125.245 70.6625
16.73 171.265 96.0671
32.9823 188.43 237.17
18.5957 153.901 243.195
65.4157 45.5238 68.8931
66.2749 46.4662 85.155
18.2233 186.701 224.828
57.8727 140.783 82.9989
17.8173 50.2206 62.1962
29.4773 38.5285 71.2839
73.0562 92.5538 104.66
56.8006 138.707 68.2045
19.7656 82.3122 74.4175
21.1559 205.939 209.949
26.7321 39.2454 63.1205
36.6141 108.607 51.0898
44.6934 146.091 231.341
17.9593 178.703 252.11
54.8048 128.259 95.4789
19.3616 202.665 235.567
18.1819 178.057 216.459
17.4966 228.757 248.591
40.8309 94.3234 25.6309
33.7975 107.33 66.9458
51.9717 135.475 77.6006
34.8016 30.5488 68.0063
30.2138 100.949 74.9704
50.559 178.402 90.0332
16.7877 50.8628 51.4398
33.6867 160.928 253.439
24.2992 97.9262 46.9872
20.8011 52.1831 73.5238
23.9023 210.974 246.284
17.1392 66.5359 43.9657
20.6619 51.0751 45.1231
55.707 25.0864 74.2251
66.888 81.3239 47.9822
88.894 103.381 99.0145
17.6305 166.294 246.516
44.3264 25.1977 72.303
65.3863 30.3856 62.9454
42.5678 149.368 255.702
30.4976 234.951 207.646
65.7618 63.4227 51.7556
51.9705 109.507 67.691
25.5057 39.0644 53.2281
56.6406 97.8227 107.058
65.1102 70.1075 53.3393
51.6494 225.958 272.316
87.674 109.308 86.0721
24.3268 82.8206 81.4625
64.3523 88.4374 114.265
52.6275 109.685 56.4765
19.2302 85.3312 60.3335
18.1154 75.7772 54.2944
63.0772 89.8355 41.6878
56.0307 189.684 291.715
24.6679 92.5648 42.696
33.8987 70.6456 93.7353
17.5073 80.3335 47.562
30.5496 101.253 40.1897
25.3789 51.1815 37.517
20.3996 224.113 223.205
18.1527 170.151 218.761
31.7316 31.9857 54.8519
19.2726 71.8526 76.9844
61.6271 146.999 72.5573
72.0062 181.633 86.4295
17.8255 189.544 239.903
21.9064 43.7793 45.4027
58.7801 137.739 91.8191
62.8245 83.6754 28.3434
17.6047 170.497 277.423
57.5107 41.574 24.0357
29.2199 200.919 234.386
18.8678 72.9452 35.8892
22.1218 191.478 196.651
48.9483 195.516 190.427
66.5502 75.6864 50.7819
40.9959 179.275 277.75
32.3294 106.711 58.6747
66.4543 48.1288 56.3534
19.8167 179.2 203.39
57.938 57.4622 101.082
48.1043 209.14 192.658
18.065 181.772 243.452
25.7405 47.6773 75.3459
87.1995 106.21 67.5103
21.7749 64.4415 81.3365
55.4518 206.845 289.144
22.0305 91.968 65.6874
71.8185 78.8029 118.1
32.0743 134.416 238.005
19.8018 144.793 257.777
65.2505 84.6066 83.5658
28.6739 220.409 199.847
59.0544 85.24 111.72
40.2603 64.892 17.6314
53.2271 167.219 288.709
25.3132 155.713 110.876
66.9878 68.9394 86.2239
46.6292 84.6516 98.1035
34.2902 178.726 236.68
28.2244 39.6055 44.6304
58.2734 173.505 102.029
61.296 70.6705 18.9248
28.3001 52.4276 84.0148
20.6453 44.4607 53.6897
47.5825 161.651 218.262
59.5893 59.6887 19.1795
24.406 76.0284 85.6062
43.7534 108.661 69.9047
42.4178 98.1259 87.4723
39.5776 78.3424 98.171
75.4715 180.387 68.5246
46.9033 179.707 112.35
37.5343 137.104 225.141
45.829 179.451 212.006
67.0963 68.9014 60.1481
66.6953 56.0407 87.8105
40.5565 170.415 226.433
83.5138 126.218 84.4426
58.3677 97.9004 78.3643
65.1701 39.0974 51.212
24.7252 94.0784 56.2887
61.9241 40.1428 92.109
17.8176 166.035 112.36
43.8291 252.225 216.458
19.5164 213.119 231.61
45.2973 63.28 99.8359
63.8802 55.3795 44.7169
48.2502 188.265 207.663
67.4919 82.2473 74.9075
63.4686 73.0897 28.7948
41.6736 109.144 55.7097
38.5735 103.244 33.1453
84.8013 163.209 42.7639
65.0344 43.5305 58.3567
69.9857 181.531 101.717
16.8777 66.8901 53.9721
28.2298 101.243 65.4191
68.692 190.081 73.8234
49.9202 167.811 276.956
72.3984 94.2374 112.979
41.0623 102.611 39.6913
65.3783 82.9308 108.008
46.7777 151.585 269.405
37.5022 183.034 97.6473
65.2863 144.777 125.966
64.2804 69.7364 35.4514
92.0949 111.765 97.529
50.1427 154.347 282.603
46.4205 221.723 190.838
48.8279 180.107 196.485
68.4704 87.6055 52.7506
49.6799 187.219 279.763
35.6647 85.625 25.5388
62.9367 98.9571 44.1815
56.5886 180.34 111.22
17.5339 187.132 208.002
53.7144 106.754 42.8695
45.3099 159.859 226.829
32.232 230.744 227.513
62.3949 78.6576 22.9606
42.4165 240.603 218.858
57.0935 105.233 50.5528
63.1321 153.302 111.864
18.7491 80.5882 40.1469
60.2724 33.2816 88.5872
63.729 74.7098 111.106
35.8407 179.413 118.71
34.5727 138.686 264.859
19.2318 86.3765 50.8178
49.5031 68.6743 14.7755
61.5916 29.8728 81.3506
61.5691 154.913 85.0843
58.5006 127.948 64.7314
18.5489 155.635 232.272
66.199 136.264 101.144
81.5135 153.478 74.9619
51.828 92.7436 92.7574
63.781 32.1077 41.367
37.591 236.003 222.264
49.0674 108.897 49.2698
33.8864 251.917 249.657
90.9072 129.427 94.3345
28.9758 80.4853 24.7606
47.4042 100.896 29.3795
64.7278 54.5611 96.4765
67.8611 142.431 95.0443
36.088 220.326 215.353
38.5605 188.048 224.718
71.166 87.9349 117.71
21.6395 170.127 204.182
65.5368 40.4351 81.0441
54.9919 23.0233 59.6424
49.8079 105.408 36.375
44.2501 179.959 121.222
43.9015 225.874 203.373
51.1109 195.55 296.791
17.1479 189.144 277.641
49.3524 165.258 211.988
49.9369 249.248 259.564
37.8822 105.177 74.3546
17.1886 180.47 278.837
50.9295 33.8903 31.1876
89.6578 127.996 103.909
61.5855 129.325 102.3
64.2023 63.2582 29.9689
59.2598 85.2081 34.4791
17.5896 205.175 281.168
39.3318 174.192 237.857
56.6814 192.508 68.7879
18.2227 176.996 132.768
25.4383 237.352 219.134
73.3756 159.529 88.6741
27.998 72.6044 89.74
29.7314 86.6977 88.254
56.3523 101.561 33.7548
19.9259 233.87 266.141
65.8707 37.6988 61.4147
34.8069 47.3294 86.6501
58.1725 105.433 63.0565
50.6114 151.262 118.532
56.427 170.527 72.8245
56.3076 89.0513 20.9746
64.3722 52.2126 65.7118
62.9478 89.8495 31.1415
26.3925 176.304 264.712
17.6033 217.011 241.545
29.278 180.468 116.267
24.6179 96.365 71.1382
16.6587 182.036 126.322
67.5376 87.9075 63.7815
64.685 98.7739 60.8319
38.5828 62.9036 96.3116
25.9835 179.267 191.785
44.2006 102.93 82.1965
19.5209 238.386 241.619
20.5296 184.894 217.712
59.5185 77.5528 112.022
28.2199 73.04 29.7464
47.2139 217.904 198.182
55.9665 83.598 19.0614
61.4963 96.0015 35.3697
23.9317 161.031 112.289
15.8228 191.912 93.93
21.945 66.5058 30.709
83.3305 117.261 67.4907
32.6858 241.89 242.67
89.4437 138.234 96.7736
53.5253 25.4645 49.7861
29.0458 94.6665 82.7149
30.3622 154.814 277.586
46.0877 246.298 217.022
61.1214 34.9272 34.8886
64.9472 83.0458 38.2773
35.6114 31.3658 46.8972
65.699 54.9551 52.9272
40.3578 53.7417 22.4709
57.383 107.137 84.2775
54.9997 83.7091 97.1507
39.1042 190.668 94.0492
46.1859 109.608 60.1983
45.4462 171.79 218.627
40.547 29.0032 50.9222
24.3097 86.0026 33.7212
42.0984 48.259 93.807
58.4945 102.218 71.7311
22.7124 167.274 127.042
26.2871 245.576 251.233
87.206 106.769 78.0201
52.1764 149.558 112.42
52.7563 179.001 115.74
22.8372 175.423 196.304
32.3599 58.8516 24.1118
42.6754 83.9988 17.6235
48.509 231.935 263.088
90.8288 110.395 104.534
65.8384 57.4185 37.782
43.5291 193.683 277.274
64.5454 90.6813 100.734
67.9562 79.4666 61.2184
56.7886 26.8905 39.1048
25.9255 244.287 242.559
45.3324 165.935 134.484
34.9883 186.628 277.103
18.1957 190.509 288.007
27.0934 59.4235 32.0733
67.3337 47.1801 37.986
49.931 148.898 100.998
43.2253 219.275 266.142
49.9173 71.3374 101.819
43.7905 76.3136 15.1918
65.6011 64.2541 68.1986
41.5102 42.927 29.15
87.5731 144.702 96.4891
54.9663 174.414 282.958
93.8944 121.144 100.758
30.2255 97.5747 32.8014
37.9525 31.7526 77.7989
61.0688 77.7213 95.2557
42.0623 191.674 297.346
44.0815 33.3324 37.0362
18.9236 61.2805 35.5095
72.4055 132.305 108.553
32.7546 93.8189 34.5743
21.0322 87.7227 40.807
42.8591 191.989 85.7248
44.0103 138.178 233.418
27.0824 65.9698 25.4962
65.8859 146.995 83.5946
41.0265 247.383 238.206
50.8707 58.3024 15.8133
67.3355 72.5133 78.4166
77.2832 82.8145 116.82
30.8001 156.99 114.333
63.2221 134.919 62.414
57.6273 94.3998 25.107
17.5581 192.833 111.008
65.9282 34.8896 69.6173
79.1048 85.9842 112.112
35.9658 159.957 91.9876
60.1848 23.5796 65.8184
24.0381 191.585 258.745
40.1315 161.201 286.394
65.0498 38.5919 43.3005
49.3509 96.3954 24.163
19.0392 169.106 209.743
43.8728 152.348 122.507
37.2496 242.038 205.582
23.8039 147.272 268.894
78.3926 87.7979 101.096
87.1845 137.308 78.208
35.1749 182.501 129.545
46.8232 149.397 106.803
55.573 76.573 15.1042
41.5049 202.225 183.075
26.9325 188.981 189.804
25.594 185.04 124.101
71.9455 156.237 117.337
45.5268 213.698 271.241
18.9136 148.856 237.303
42.0178 180.08 135.104
55.7534 117.498 97.1502
42.836 192.205 215.103
21.4163 187.933 116.869
42.08 91.7083 93.851
76.0864 109.547 106.229
65.5456 68.9692 41.0733
44.394 149.3 262.733
41.3622 177.317 112.314
31.3572 185.073 187.068
37.5811 208.566 272.379
30.7881 213.082 225.32
63.2401 27.0606 48.0259
57.2626 150.455 103.877
65.0648 75.5526 42.7171
68.4947 56.7083 46.3607
35.5899 152.036 109.102
66.3121 39.1391 73.6209
58.6221 69.3957 100.191
27.2135 157.08 101.909
33.1581 180.283 137.642
79.5736 157.095 110.376
84.4674 138.97 105.426
54.2921 98.7932 84.8804
82.4297 172.231 121.226
50.7062 43.2326 22.4789
63.4678 122.551 54.1357
74.6765 169.759 80.8088
63.5631 80.8572 120.678
74.7955 160.246 142.138
61.1341 48.2238 24.5068
57.751 43.188 97.7602
65.7775 96.8213 68.0514
33.336 74.7155 19.229
75.1125 184.754 114.596
66.0322 74.7215 103.957
34.4624 166.33 83.2818
59.3546 185.683 74.7551
81.4941 162.993 94.7226
45.4251 178.294 64.9122
32.9667 194.129 87.7121
46.7033 213.757 293.85
31.901 171.817 273.353
67.2633 163.452 77.4154
66.281 50.2835 47.076
26.4475 197.779 86.0869
72.9466 158.028 101.938
43.774 190.559 78.9306
39.6552 162.771 272.786
66.4831 75.2552 117.885
19.0777 179.842 83.2817
49.7602 186.614 215.236
61.0059 55.4151 22.5695
36.1097 27.604 59.1808
91.3166 117.65 92.5474
76.9331 191.957 71.3162
42.7534 150.617 112.363
37.5475 226.867 191.531
32.5389 51.3539 29.7379
28.2446 179.69 73.7312
64.6018 76.092 87.8227
26.1216 167.893 284.664
48.2357 46.6183 97.1085
34.3645 91.0645 90.2449
32.067 198.954 79.1555
24.3868 224.595 208.954
17.6719 168.409 124.294
72.5133 186.95 79.0887
56.0939 182.951 121.053
41.4942 197.616 75.3502
21.3248 42.9974 60.8896
22.16 204.228 291.35
34.6931 153.253 99.7415
53.2424 120.786 67.9226
27.7083 171.43 134.423
43.0608 210.586 186.572
75.8328 76.2296 112.997
66.971 84.7236 99.7061
66.534 100.104 81.7651
62.2237 100.172 55.1428
67.422 113.491 104.411
52.4567 182.812 80.3411
81.2253 138.121 80.5176
33.4535 168.495 133.494
61.662 25.6053 55.6196
34.4862 69.732 22.318
86.5238 182.222 101.893
34.2209 152.457 118.117
27.3824 85.8307 27.7843
62.0234 90.09 86.4169
73.5217 182.026 93.7381
55.8454 151.111 92.5169
71.577 160.231 78.7257
33.9747 41.8667 38.6198
42.7225 186.589 89.3874
64.7874 55.5161 59.8338
46.155 23.6032 53.2149
83.1928 141.142 65.3379
21.3561 196.926 100.882
37.022 107.76 41.4719
42.3027 24.1696 63.234
49.9408 106.243 111.111
38.2734 195.561 182.572
39.8094 204.36 297.147
73.9695 150.557 65.7133
74.3179 99.5188 69.44
64.0494 96.2826 111.161
28.2001 196.013 294.2
61.2887 158.238 128.098
38.9991 197.703 218.567
39.1721 88.8972 20.842
29.5676 185.318 100.397
69.8077 142.684 61.7628
66.5008 194.193 68.848
66.0093 60.2527 60.8633
64.1406 174.252 64.2038
39.2842 220.884 289.785
67.415 72.2301 72.4527
19.4592 156.455 214.885
50.4463 181.578 295.809
81.8094 125.336 110.177
38.7177 219.072 187.189
62.4813 88.118 119.635
34.7971 170.63 74.748
48.845 27.1761 42.9968
76.8847 155.72 52.4867
29.2137 207.174 270.592
44.3543 244.336 252.024
27.6544 166.041 86.7292
46.6616 174.103 97.1321
44.4919 163.897 195.011
31.927 230.594 280.175
41.9986 170.308 74.481
31.0168 248.088 224.121
28.2377 135.981 256.731
63.8344 103.91 93.023
36.2035 156.196 126.691
67.8009 157.566 94.5958
64.7154 177.151 85.2265
87.3253 184.63 92.9927
33.4517 188.564 294.948
78.7962 144.884 99.5164
63.0426 184.008 117.414
39.7165 197.293 64.313
48.527 23.4554 65.4179
33.0629 223.517 220.246
70.9398 103.299 98.784
33.1289 192.989 231.864
44.1641 159.587 131.311
34.4621 200.112 225.33
58.1277 32.514 31.439
49.6393 242.484 269.948
32.2225 252.098 236.67
50.822 232.05 279.583
22.3654 170.882 87.4959
59.8548 174.955 87.762
76.1689 174.742 122.011
38.1862 177.745 230.094
68.8267 107.674 63.702
27.1004 185.615 250.383
31.3666 194.026 237.483
77.6007 102.992 63.4689
65.1864 69.4959 69.2655
60.5334 163.221 131.016
35.2958 163.189 130.389
51.77 52.8867 102.17
45.9644 237.65 201.786
45.1787 158.286 88.003
39.7742 38.0357 34.812
23.1605 155.962 276.592
72.8896 150.68 84.5853
35.6666 226.512 217.341
89.0637 178.459 90.8607
54.869 172.868 94.8549
28.9593 158.911 122.854
57.6246 153.182 122.6
49.3088 34.4392 89.0557
51.2041 206.671 277.024
40.4922 174.333 103.655
72.7263 164.536 126.953
73.8144 87.0474 97.872
79.6104 128.405 54.8701
31.047 180.33 246.011
46.5305 256.247 250.5
50.3344 196.87 66.1488
25.2477 182.173 106.397
36.3193 156.013 115.591
22.5465 173.472 134.706
51.204 174.239 69.5458
63.7363 41.1644 30.5442
37.9534 230.804 282.526
31.2309 193.251 69.4161
82.3393 188.309 95.7744
20.7929 191.073 204.563
59.3085 182.669 63.0017
82.5071 106.192 60.2485
48.1483 173.998 109.513
60.4781 159.374 75.5549
38.6924 111.288 68.1015
77.8668 188.052 103.504
52.9192 179.143 128.252
62.3403 194.461 60.5069
61.3724 103.335 83.7272
62.2607 51.1983 31.5508
82.9976 168.164 109.693
72.066 75.1732 104.554
65.7025 64.0895 41.9366
47.2788 182.823 129.581
34.4287 237.816 253.964
83.8343 109.901 107.289
62.3791 178.034 105.541
59.0478 166.297 77.0191
58.5925 179.534 133.759
73.5193 188.802 63.5084
20.4946 200.188 94.6422
45.9 156.987 286.585
71.4076 131.457 59.2739
32.9176 170.751 240.615
88.1323 97.1338 90.9073
54.6604 169.279 138.614
40.3745 257.743 234.554
63.5126 169.36 134.842
84.8028 114.501 57.7149
41.9293 239.497 276.048
28.6875 191.002 244.292
80.9563 93.7928 80.5658
69.1048 181.698 119.235
77.4422 97.0298 90.479
71.1042 166.711 71.1682
40.7888 133.473 257.101
35.1997 158.148 121.598
44.7146 172.267 140.015
