ply
format ascii 1.0
comment Created by Open3D
element vertex 266
property double x
property double y
property double z
end_header
19.0348 28.4304 78.2784
19.4795 49.0794 117.725
35.5445 87.7687 150.265
19.4703 72.0193 117.019
20.2119 90.565 29.5207
17.5232 49.3948 84.6534
22.9359 33.2013 109.676
16.9052 68.5353 69.7895
35.3622 50.063 48.4252
40.7958 38.6246 75.8921
21.9598 31.0616 101.558
16.562 53.2567 62.4371
36.0399 62.4636 102.188
16.653 54.7701 52.7167
19.1468 61.7219 114.389
50.4786 59.771 116.44
34.053 62.0352 131.173
17.4576 98.4309 67.3678
16.8936 63.592 44.7904
36.5279 106.275 109.399
17.6905 56.096 73.3234
31.6742 103.452 130.965
17.6224 78.2303 29.8397
18.1538 40.3377 100.961
38.3419 85.9487 41.9518
18.1156 90.5613 38.1643
18.1324 98.4135 42.1208
42.5423 39.6858 89.0907
53.3908 47.7772 112.319
32.2888 50.6282 130.746
18.4049 76.4956 42.1432
17.0144 108.736 63.7698
17.6605 103.387 74.759
33.8871 94.9739 80.0451
43.364 93.8828 40.5026
35.4664 53.5791 185.215
20.2517 63.6629 167.034
17.3853 56.7588 100.056
18.7705 103.676 101.26
30.8159 83.2379 165.797
23.2153 85.9924 76.8825
39.7373 91.2972 53.0596
24.2242 80.5848 52.8897
30.1972 98.3541 103.387
47.2877 59.0948 138.805
26.6551 81.4631 88.5007
18.0723 108.785 112.456
50.0356 66.8557 142.807
29.9639 111.861 123.703
32.1406 92.3755 108.805
31.4714 22.9247 64.878
39.1484 74.3319 112.1
16.5621 83.1478 55.7102
27.023 63.8394 62.154
29.1732 24.0038 97.0173
30.5235 62.7479 86.1036
32.988 69.9511 98.1467
41.9262 60.7242 107.383
38.2472 40.0563 48.0781
53.289 57.7609 139.692
45.5459 66.2668 116.774
18.9978 72.6713 170.926
32.726 92.4128 133.268
18.1388 77.3335 127.281
39.2635 23.9226 104.168
20.2254 68.3364 180.841
30.7438 57.1903 44.6905
38.2241 41.0511 57.0648
17.7721 93.8825 87.9392
33.0948 81.5628 107.748
42.8374 75.7098 169.644
39.4736 81.4828 165.559
19.039 69.5689 125.856
17.2105 81.951 46.6474
35.8177 89.9149 116.278
22.5013 28.4168 133.819
43.8267 80.667 120.946
55.4557 83.7498 137.541
19.2228 50.0133 106.537
28.0267 75.6353 93.2697
21.0797 118.464 97.9479
26.5426 60.0387 171.872
20.2827 109.965 103.047
43.968 73.5347 117.442
16.648 79.7087 66.2404
21.2657 78.4357 176.05
53.8385 114.774 121.705
34.3508 77.4284 163.093
17.7367 90.2565 47.2347
21.4237 87.6881 130.761
18.8515 41.2536 109.498
54.1834 36.8574 112.609
17.5035 37.9515 71.498
37.5286 80.9901 114.18
20.5411 27.5244 91.8049
21.9539 77.3262 63.5087
24.7962 111.922 117.467
51.4933 32.5182 106.317
18.1367 77.8993 112.313
39.8767 87.8675 182.618
37.5533 38.5322 128.722
37.8996 42.208 36.1322
29.6459 80.2613 99.6246
18.9139 107.194 85.2601
22.4723 62.775 184.951
28.3739 64.7174 162.215
20.9952 70.8379 132.088
17.1463 61.7512 30.2218
30.0826 67.847 188.221
26.5698 79.8777 169.398
45.0079 48.0186 101.427
17.0811 106.598 48.8463
21.2134 43.8231 123.545
17.6309 39.139 47.5237
35.8816 71.1422 165.686
26.312 75.9395 181.432
39.2359 31.4049 49.7359
16.8404 42.1606 54.0797
40.1563 65.1208 168.11
17.3399 85.6859 72.1445
22.2358 57.637 179.14
18.5058 67.5815 100.857
33.2261 107.369 100.303
24.5378 118.868 79.0409
42.6541 95.3123 63.0056
54.0947 74.5882 140.885
56.2226 48.5177 118.889
35.0726 64.0191 165.767
37.7525 69.1477 27.409
18.8872 107.976 93.7964
34.0671 117.559 117.297
54.8656 94.2339 136.855
23.4975 78.5838 134.773
41.0987 109.845 98.1598
31.5632 60.0706 23.6105
30.0641 54.1159 178.414
16.643 50.6576 40.5716
27.5166 64.1212 49.8144
31.0255 55.6702 76.0429
22.0001 53.143 130.486
41.5719 120.782 107.289
50.993 85.58 128.543
31.5802 120.843 108.416
37.53 51.1047 94.1365
32.4733 51.6617 68.0973
26.621 71.4189 86.1396
17.5443 99.0742 51.2458
43.7416 99.4611 124.3
23.8747 68.3046 170.401
31.5236 44.2887 30.5592
23.7589 25.6931 62.0934
41.9872 59.1207 184.403
35.2418 76.6959 187.037
31.763 55.5008 59.8078
36.8442 97.3371 135.866
17.1664 46.7363 94.6767
44.092 106.037 89.1782
36.9041 53.1762 30.3481
29.864 55.742 189.113
16.9095 91.9993 66.4478
17.4213 24.4491 121.996
29.7378 117.73 84.181
51.0624 105.436 131.328
34.1942 36.023 123.209
17.8893 95.7399 57.4371
29.833 62.9934 194.348
37.0925 68.4326 140.331
40.1777 80.0779 138.398
34.2737 120.793 97.937
23 89.6681 68.0534
26.0215 102.003 85.9953
43.0065 108.385 116.586
32.6507 54.7883 83.358
35.3629 72.9159 105.156
16.7503 89.1027 79.4284
56.1947 65.5363 139.052
58.1721 59.8267 132.435
45.7919 29.2413 91.6846
52.7971 42.2195 106.237
28.192 88.947 98.8071
41.4382 66.0087 189.594
25.4425 111.748 66.1042
43.4549 70.2722 177.76
30.0624 74.3801 165.683
36.4373 55.9913 97.1035
29.0717 81.6601 127.826
27.4196 101.777 40.684
41.7465 78.2769 179.105
19.0648 60.2293 124.905
38.0668 101.052 116.973
17.4925 94.4563 106.084
37.9223 104.363 48.2704
24.5031 92.4942 89.625
25.408 118.065 107.818
49.1586 113.461 106.224
51.2335 109.828 86.7055
23.455 32.9548 45.3161
24.6439 75.5985 162.276
41.2866 109.784 73.953
42.5886 97.9218 139.475
48.4568 91.6962 141.303
30.8684 35.3264 38.2752
25.2751 67.1232 67.1238
25.9475 46.6613 128.674
45.6724 77.569 174.791
56.45 75.0225 132.628
46.3331 97.5688 69.0818
26.6399 68.7249 77.6468
46.2323 95.1747 52.0428
57.165 54.9712 126.318
21.2672 67.0236 23.8313
21.8583 113.253 110.527
42.9241 104.049 55.9741
35.9529 64.9269 33.8509
34.0288 50.6063 37.6755
47.4521 119.923 111.498
22.5265 96.0836 124.887
26.1102 55.7125 185.117
39.7806 107.197 62.544
45.2231 119.311 95.6399
29.8094 41.878 129.412
26.0454 60.7721 133.615
18.1835 53.5371 123.28
20.4446 40.077 37.2611
33.3205 62.0574 176.803
33.0828 20.5859 78.702
36.8447 98.5158 38.3467
24.5335 120.736 87.2673
35.2461 49.6959 72.1931
40.6425 70.1686 170.313
27.2725 74.8231 190.12
53.4196 79.7902 151.077
35.3466 102.085 79.3533
49.5749 72.9698 123.363
34.1456 59.5739 169.881
54.5979 64.51 125.875
23.4837 73.8764 54.4499
36.8509 56.3452 173.133
31.662 28.0603 51.0042
36.2969 78.2045 38.3181
52.6241 40.9332 126.61
17.6429 35.9579 90.8
25.2031 37.534 122.227
50.1603 119.661 118.916
29.488 87.4687 25.8331
30.8556 69.4983 38.5679
34.923 75.508 23.6697
29.8806 95.523 65.3955
31.7509 77.1413 137.521
26.8649 98.9372 123.599
35.6559 84.7594 135.921
55.214 70.4943 127.525
38.7501 65.7369 174.099
37.3633 74.01 172.756
50.7141 113.822 131.306
44.2458 70.2002 137.741
25.91 94.1997 128.806
17.1508 39.0361 80.5473
44.974 115.7 84.0815
54.8213 58.2452 122.862
30.0461 71.0794 131.474
40.594 31.2636 118.972
24.496 68.7483 55.5181
26.702 31.0809 123.657
19.7944 60.8408 130.137
37.9001 61.4557 178.825
