ply
format ascii 1.0
comment Created by Open3D
element vertex 990
property double x
property double y
property double z
end_header
64.1126 216.663 33.6969
27.3513 130.768 37.5774
40.19 100.067 31.993
30.8946 81.6292 47.5797
44.654 119.547 102.076
71.0947 262.392 70.3509
38.0814 132.306 83.7795
64.2385 263.832 74.2319
21.8754 220.532 39.2163
91.39 32.092 128.271
29.4754 72.1293 97.2543
38.4489 124.245 55.3885
87.1122 38.2376 175.961
28.5461 117.679 33.7991
53.4004 135.402 23.2925
44.2653 100.85 18.8787
28.1092 125.911 18.3715
18.9936 130.099 60.3467
55.4938 150.07 40.2441
20.7271 118.715 76.403
74.4298 23.9228 148.738
113.407 60.5207 171.733
40.5246 97.0644 41.1664
20.4666 52.9912 62.5487
52.5779 115.263 79.6648
52.0971 92.7017 46.1249
33.1862 221.839 17.292
107.184 68.2426 160.932
69.8417 118.995 47.2331
42.3449 59.5027 90.0167
28.7192 47.9888 100.656
18.8997 117.074 68.3442
40.0837 257.938 62.1695
13.7878 142.622 42.0387
111.698 45.5504 177.958
51.4553 45.6068 53.5158
105.241 72.2026 154.296
35.0563 62.2606 95.4319
31.6757 107.767 48.3632
47.6544 148.79 45.9813
40.5512 60.5094 45.5593
66.5656 55.0532 151.854
37.793 120.28 19.3634
47.1882 115.009 25.9455
35.8159 51.3316 106.276
33.5407 51.4367 90.0133
50.9866 68.1024 35.4789
21.205 127.52 26.1467
46.4042 143.483 25.2849
62.7899 72.7345 35.9889
61.8664 231.832 38.7767
21.2956 100.293 119.339
28.9836 107.499 55.2113
26.1115 223.686 58.343
60.4847 141.901 69.5252
55.7764 122.228 77.3065
81.4988 27.7162 155.346
90.4381 49.0115 175.308
54.4698 115.805 55.5893
65.8354 115.616 103.562
44.8661 47.4927 104.654
105.364 68.2233 171.175
38.9311 267.343 83.9931
27.4742 61.6791 57.5678
55.8651 215.024 46.1977
24.1612 120.673 62.6718
36.1321 77.9965 75.3409
43.1116 124.939 78.634
65.7618 135.349 76.1458
59.3672 94.2918 37.2219
69.8684 275.821 72.2712
46.502 58.6484 112.322
37.3423 39.6902 95.4013
38.6995 52.7705 42.6964
100.264 20.728 145.466
72.8787 32.7226 141.165
22.2048 63.8289 128.114
39.2851 38.0737 87.4192
40.3055 131.856 26.5107
39.7441 78.6496 30.4586
40.3444 110.239 15.0198
50.9159 97.0374 68.9068
115.47 52.5876 160.322
65.992 39.9479 150.796
37.3933 118.72 39.6991
46.8584 85.7644 116.799
22.7009 104.537 69.661
66.2988 126.704 88.1256
111.126 33.0588 161.149
104.797 39.4058 141.189
19.8384 68.4159 88.9853
39.2257 87.5751 33.8448
95.8762 68.321 161.454
45.9733 136.79 23.3327
58.3263 235.771 24.8925
95.0283 44.7593 181.828
42.2297 61.9785 117.491
31.0312 66.5447 38.3147
88.321 31.4103 149.445
42.1939 236.394 52.2591
38.7597 110.349 50.1024
50.4981 83.364 30.0015
35.175 270.552 70.1849
25.6862 142.007 33.7553
28.3046 45.2037 58.1359
41.3675 238.327 20.2916
47.4061 100.602 29.868
97.1212 32.2872 171.223
52.1349 63.0865 42.0294
100.016 37.3417 180.567
56.265 242.188 32.8453
77.9557 52.4919 174.371
103.199 27.9521 148.086
89.6557 61.27 161.275
36.7841 110.341 31.2905
43.7436 113.82 74.5978
42.3324 152.421 44.5492
30.6648 119.11 16.5111
52.5427 62.7273 112.645
25.5972 138.261 46.7654
54.9096 108.404 48.4725
45.1229 245.357 35.8345
55.6144 120.091 46.8257
92.8019 65.8437 141.172
59.7217 89.4617 31.4292
27.2343 51.3481 65.8709
56.7043 139.869 26.8693
95.9028 51.1515 162.335
37.4744 50.9299 52.7542
81.7635 60.4487 89.8874
54.0386 70.2529 43.2178
82.7368 58.0788 173.032
38.3532 119.438 72.4768
52.0547 93.7679 36.8789
58.618 236.341 46.2625
36.101 122.841 90.8953
106.751 57.9937 175.324
61.9663 227.217 26.2583
105.923 54.6429 135.294
23.9479 59.7797 93.4521
41.7959 105.637 107.573
42.1081 121.15 26.8535
26.9719 128.218 52.8619
32.5722 52.1821 48.587
76.7492 37.4143 154.179
108.218 52.6321 178.51
52.49 95.7013 104.743
39.7579 113.434 26.1177
35.4164 83.138 98.3088
45.5513 101.085 43.6604
47.8036 153.869 40.6732
53.5603 142.765 36.9845
88.3633 94.7173 81.2611
29.6778 121.457 88.4936
37.7611 149.359 45.6134
28.836 140.133 55.2628
53.6408 259.782 86.818
46.0608 250.091 64.4757
74.1733 132.024 68.0503
23.1715 138.914 38.6257
27.7035 101.653 23.3444
47.1833 35.9948 80.9204
72.2058 131.105 47.7678
95.54 26.2065 162.78
20.2411 91.3749 131.991
26.5019 80.2406 102.029
80.6549 29.4985 138.079
81.5343 21.4789 146.838
88.0194 44.2589 180.927
44.636 138.437 37.0677
87.1185 25.2964 155.67
50.7765 50.2695 109.541
42.7532 94.1646 50.9272
26.4936 233.999 33.5995
60.8759 278.42 83.1698
37.9878 142.837 26.0052
64.9643 263.646 82.3613
90.6566 26.5763 174.852
57.846 84.9499 42.9955
61.1772 58.0546 54.5793
52.9131 75.93 36.381
32.1981 81.7328 106.553
59.8377 257.324 86.741
25.265 120.136 54.2116
36.1403 130.919 71.703
103.703 71.6301 144.142
39.6114 59.6014 109.86
63.4203 92.6865 55.0517
36.3834 115.746 87.1519
66.732 33.3079 156.316
44.642 108.368 51.486
35.2906 133.295 31.7381
65.2962 135.68 57.8323
50.6733 108.882 106.209
55.6565 37.4239 60.412
35.209 51.7283 96.8484
75.7367 30.6973 158.809
26.301 127.875 22.9184
89.6303 44.556 165.852
29.9055 114.501 21.9355
26.6044 143.736 44.0436
56.8164 127.287 96.9537
65.5891 225.256 44.8862
44.1388 142.709 63.2028
47.508 66.6647 101.697
25.5217 132.461 46.0405
58.9009 37.8432 88.5962
40.4468 112.759 60.2447
45.7613 250.032 78.2152
21.9669 59.9782 72.9429
39.6965 253.871 70.8779
21.4714 64.1436 55.503
89.1743 57.2663 177.749
47.8894 80.338 39.6694
87.9073 24.5569 166.37
47.1967 100.07 100.65
58.834 58.4606 43.7134
60.2006 73.1977 46.17
32.1468 139.516 21.637
41.6727 151.534 56.418
83.5326 29.6901 145.277
61.5798 141.355 62.7658
51.6694 39.7365 96.5222
38.5467 259.174 77.2327
84.0416 67.9427 147.794
99.4259 51.1052 182.765
56.3197 42.7787 84.3044
79.9599 115.167 57.1252
30.7204 115.763 62.5093
77.0059 27.4154 164.321
41.0821 69.4915 117.211
29.1698 121.919 69.103
72.6421 28.5685 135.01
42.4409 136.755 77.7997
32.8656 137.915 50.9267
75.4183 24.56 140.26
68.946 89.7757 65.0167
63.8699 120.01 56.8319
55.9585 207.405 34.841
25.9473 113.477 66.5367
66.4474 284.796 67.3078
44.8195 131.93 16.4976
30.2639 51.8192 53.5199
70.2567 60.9111 101.052
48.5541 100.231 58.9658
31.8055 74.529 43.136
36.5969 141.136 74.5873
50.0853 53.1196 92.7272
49.2996 44.0364 84.8922
45.0276 83.301 53.466
46.9588 69.8527 116.3
39.0988 149.603 32.6174
43.4758 133.814 70.2587
52.7642 92.9015 114.235
71.8139 267.703 77.576
89.692 24.8948 139.582
40.1199 48.9561 90.5965
43.9635 44.9192 83.6868
33.0629 148.915 32.3064
46.7311 94.4587 103.817
74.5207 49.2231 72.0553
36.0762 55.1084 80.6246
55.7495 112.667 90.2575
46.4263 59.5333 43.1198
60.957 69.035 118.014
71.607 280.377 79.8138
54.4958 35.0582 80.8507
72.6882 39.2913 168.62
26.5525 131.474 29.906
82.4287 22.7609 139.604
103.267 54.148 179.346
33.0916 151.36 40.8771
47.5548 111.284 89.5335
27.8888 78.2698 67.8217
80.6633 263.705 47.7635
64.5908 56.1366 161.995
53.2759 138.538 44.1073
34.9471 72.9903 86.4145
51.4491 67.0785 117.235
33.814 52.0912 66.4684
39.4418 48.0954 70.3515
41.8301 108.992 44.5277
37.3432 125.527 79.6556
108.274 33.0751 141.162
25.5278 71.1848 68.6868
28.5401 74.3981 107.538
33.4861 47.7066 70.9578
35.7844 262.452 69.5246
40.977 39.9977 65.3502
33.5314 53.5398 60.1609
60.4551 129.913 79.577
75.6054 39.6589 148.093
59.3068 108.571 95.9987
20.2885 225.293 50.3294
99.2463 70.0843 156.962
42.2664 90.2826 104.357
68.857 67.3667 45.298
112.084 59.4203 150.428
33.5211 68.1493 102.086
52.1696 58.4179 46.6814
55.9345 137.331 34.4063
107.747 47.2826 150.377
53.2243 252.035 60.4009
67.5771 66.2484 78.3743
41.6602 60.9691 38.2041
50.644 144.257 69.7075
53.6211 52.0934 102.379
47.1406 43.8399 65.9213
51.2799 74.9703 114.436
40.4627 76.1933 110.077
72.9997 77.5371 114.007
41.3818 45.2145 51.0183
93.2499 74.7315 92.1881
17.1696 85.1913 138.94
26.3588 69.0424 62.7885
36.0812 102.975 24.391
31.2879 48.466 84.2865
64.7002 272.306 83.0462
53.7695 107.474 111.046
41.8104 107.483 101.232
60.4859 132.261 24.2918
53.7323 51.9055 86.7521
27.3398 137.529 31.2118
29.3932 123.296 27.2601
55.4948 78.9699 114.717
38.3429 117.695 33.1059
30.1572 104.143 91.2397
30.6186 58.2049 49.5522
59.9291 132.927 34.4297
89.0327 61.5177 168.782
78.4638 76.8646 109.783
80.4052 42.2601 162.471
73.8499 33.7367 130.433
58.598 134.845 54.4702
70.654 66.1543 109.496
31.9761 59.9004 73.8528
31.6826 61.1263 86.6122
70.8577 26.8582 142.47
23.0222 69.3546 53.3114
35.0946 131.755 20.0759
100.123 74.6787 161.233
68.1456 30.4855 150.339
58.8961 94.0786 46.8412
91.2029 21.5519 147.576
64.3837 280.979 73.3398
48.7403 242.653 24.7918
16.4806 102.171 112.447
68.4165 38.0305 140.316
57.8846 88.6897 116.38
28.3118 56.3229 95.5963
40.9426 66.2576 42.4704
54.3866 132.245 75.3533
111.869 53.6563 153.916
76.2573 64.5679 104.265
31.4611 57.9623 55.5362
38.392 140.053 68.0348
45.1027 50.6051 41.3182
51.633 100.771 33.7486
57.19 144.748 56.8817
38.0568 84.9818 66.8162
50.616 232.208 16.2452
94.9805 70.571 167.89
101.008 27.2955 155.387
95.583 46.8126 127.76
61.9419 147.347 46.4165
48.5697 51.4122 77.4738
46.2929 51.0293 86.5818
71.6764 41.0554 135.041
23.008 75.4785 92.6314
94.6781 24.1058 169.783
27.2107 83.1798 94.2724
57.365 230.677 53.4424
86.112 86.1755 59.7185
29.0969 127.787 62.1185
82.1077 70.4437 54.2271
30.0629 105.253 62.1542
64.1073 71.4392 109.053
36.5579 149.104 53.357
99.3874 66.9541 170.673
22.6051 53.3717 79.6347
94.245 40.642 144.508
57.2108 72.321 34.1565
47.4273 91.1934 34.845
58.3445 107.529 32.7709
41.8532 71.3419 51.4543
69.2693 124.445 69.3552
48.9955 143.847 53.9312
19.5561 130.533 47.1378
55.3608 131.18 81.8832
96.4345 72.2259 149.698
63.8077 144.055 52.4156
36.7167 46.2591 81.1016
66.8558 121.54 27.9009
32.3868 143.428 28.3252
70.7294 37.9667 159.208
35.4537 62.5275 105.169
70.592 118.132 71.7899
44.8118 142.306 56.4141
87.8659 32.9744 172.132
56.9686 250.207 67.838
65.0608 140.277 33.8831
32.2128 108.002 93.1259
35.5159 107.786 101.114
81.8978 24.1614 132.391
104.023 34.7506 170.329
46.6529 50.507 52.0348
74.2906 86.9212 85.0654
32.2486 94.7573 68.62
92.9061 26.5153 154.809
48.1793 143.46 33.1551
59.8917 124.425 26.6124
100.853 66.621 149.7
32.874 109.574 38.6086
59.8731 52.5702 101.991
75.719 54.8602 88.7395
33.0184 102.986 72.5608
53.2313 46.856 98.1749
77.3896 62.3028 82.2091
31.2001 69.9133 75.0239
98.5678 61.4167 143.345
54.989 48.5755 60.6739
26.4603 49.0906 82.2825
37.2247 67.6641 109.149
81.1326 32.2634 128.637
33.5455 117.333 27.2187
74.0566 76.3159 51.4832
113.132 53.464 172.831
96.0359 46.6655 148.278
76.9694 40.7099 129.462
37.345 103.225 66.8902
101.098 58.3641 175.43
52.1295 39.4101 76.2983
94.8221 65.8648 147.633
98.9011 41.1638 132.056
53.7092 63.7328 104.787
26.9749 50.1506 93.6331
32.1245 89.7327 65.277
89.719 66.6488 151.339
32.7634 129.989 46.2297
98.3477 30.8856 151.302
82.886 92.1002 102.531
42.6464 143.005 76.7471
42.7428 103.31 63.8683
83.8253 30.0136 169.449
28.7198 218.132 59.7464
35.1991 126.735 31.0597
47.2777 94.0589 47.4588
64.6207 126.894 53.3435
30.0872 89.169 58.4553
88.2759 43.3579 124.26
39.6655 150.421 62.2516
64.0933 126.221 32.2831
42.0726 100.755 80.7383
34.174 68.1796 90.9827
63.4293 60.1006 63.2463
104.194 64.3199 143.23
55.952 46.6452 66.2116
37.0599 70.5873 41.2881
44.9596 201.47 40.3101
28.2251 120.963 47.7233
60.3433 119.308 25.6216
42.4354 54.7765 49.6105
95.7999 62.7795 166.849
67.4503 57.9337 88.2357
68.433 283.393 49.5643
55.2152 99.8122 50.229
82.4869 25.9196 165.242
72.1943 127.577 37.8587
88.4592 67.8149 158.022
27.7648 71.9417 49.5353
33.6646 123.463 74.1338
102.177 68.0493 164.555
25.2186 139.025 61.0837
92.51 53.6145 141.577
87.8199 84.4279 70.1991
70.6242 52.2503 139.228
28.2842 115.623 81.239
63.7613 49.4267 63.5716
39.6467 96.6935 67.7654
26.0801 66.3659 49.6154
41.9567 83.8357 39.4463
26.0755 115.648 45.4553
68.7882 102.593 111.344
109.373 36.9482 169.557
44.4808 149.642 33.1574
110.971 39.0987 147.346
83.4758 76.5049 95.7353
51.7655 86.8167 109.02
25.7559 112.146 38.3839
39.5972 145.775 38.7393
61.5666 97.2571 107.091
45.4657 106.141 71.6522
62.8305 108.414 110.227
67.5152 136.275 69.1777
38.1488 92.1386 108.341
52.3251 106.486 82.1592
50.5893 43.6549 61.0518
32.1609 68.9519 45.5792
111.043 63.8841 156.368
45.3251 87.0783 28.9822
93.217 70.5414 155.252
31.5372 232.744 20.7387
59.9994 48.4895 98.6947
63.9609 288.956 61.7932
52.7504 148.508 52.0916
101.425 35.7218 164.722
43.2902 78.3727 39.9733
21.6366 81.5358 70.151
20.5652 123.721 56.8328
56.4572 40.3924 71.0982
65.9736 103.375 61.777
105.51 51.0322 145.64
32.4033 73.8778 67.2968
37.1439 112.883 42.6801
30.6192 119.908 39.749
52.5899 51.6243 49.2412
48.4467 286.402 74.0701
56.8382 96.7228 107.558
72.0426 73.5919 59.1615
114.193 50.9586 147.578
85.519 31.4881 128.413
100.808 48.9533 141.224
43.1477 50.7265 110.369
56.9511 43.4845 76.2402
116.428 46.0701 163.781
65.8998 114.455 52.0302
108.939 63.8161 165.724
53.3409 79.0869 43.7868
26.7059 209.451 49.2886
104.85 44.8744 180.284
40.6737 110.832 96.7316
49.2138 89.9817 106.453
38.4449 39.5521 74.3566
38.9174 142.542 55.1882
98.6481 52.2817 135.257
46.2354 76.5127 112.729
92.2812 35.7543 177.876
65.1595 43.2759 89.0624
68.8468 256.838 83.3971
49.6814 125.568 77.7763
73.4237 139.472 48.0159
34.3487 208.75 52.2
65.244 63.5105 109.109
107.13 33.4573 164.14
78.0522 124.115 67.9425
91.0562 17.8274 138.612
54.8332 114.944 27.8122
67.5845 105.093 54.5904
74.1755 76.6357 96.7147
80.7042 23.3557 160.118
39.9899 98.1674 107.627
61.2355 43.6158 94.6011
73.1216 82.4597 68.5614
22.3244 123.121 49.468
68.7735 49.1594 90.6455
56.1794 115.282 99.0647
62.2456 108.248 39.6967
71.1722 128.391 83.0646
23.7685 135.317 52.0121
29.9416 133.834 26.0325
57.9947 67.4732 108.26
43.6546 148.391 51.2495
46.4244 130.8 82.1856
33.7648 136.78 70.8291
48.3374 51.6283 45.7894
42.0038 99.8 99.1013
69.3003 117.133 59.2327
66.6721 278.696 82.08
23.0358 75.2921 82.2454
26.1145 123.312 37.2554
44.8078 118.045 78.3963
28.1967 84.5018 88.5894
58.3764 248.059 79.4184
25.1707 98.2967 67.0996
68.2181 57.8621 143.971
69.9353 124.304 50.9693
60.4963 111.843 51.0957
52.2597 84.1202 47.0337
78.9082 54.9394 140.507
35.599 85.9526 53.669
43.2578 92.9222 86.3225
67.1688 43.4715 73.1753
90.2264 21.539 134.198
55.9487 102.561 38.8325
46.5735 81.7178 111.289
50.4099 142.076 48.2743
102.706 24.1117 161.878
57.1711 285.024 81.0927
28.2755 75.4325 59.2273
30.1252 113.14 72.1347
39.1587 77.4276 40.7551
38.219 46.9009 58.7142
106.655 37.5269 175.259
74.1709 113.387 96.345
82.7612 58.8058 140.837
104.406 37.7223 149.753
38.7685 96.2325 102.676
34.9086 63.751 42.7009
62.6534 51.5844 85.6712
58.3091 106.14 54.5168
42.8468 38.6334 71.0535
57.5819 114.083 36.0981
50.7828 221.669 53.5496
67.3525 75.4881 115.294
30.6856 150.219 45.4136
26.5664 130.546 73.3927
32.321 107.04 83.8845
61.3475 128.075 38.4027
34.4682 113.767 93.2074
80.5691 35.5269 178.136
69.6149 136.168 36.29
30.4544 122.969 56.2791
65.9329 67.1823 69.8355
100.462 45.2998 177.945
56.7654 57.4569 112.44
58.2761 87.6331 52.1672
41.873 82.9725 119.615
31.2954 90.5862 93.2694
42.9869 40.2657 60.6784
25.4302 134.121 58.0365
106.179 66.1736 149.245
33.187 86.2944 78.1416
81.8657 74.0063 60.8066
35.352 109.838 66.1487
80.186 45.6804 168.164
61.2616 76.5527 113.301
34.8639 78.9113 58.1846
36.6672 141.5 31.2576
57.223 84.3173 108.019
114.471 59.2402 156.442
61.4344 53.2873 94.4906
33.7665 65.6149 53.1774
58.1572 45.4646 53.7205
41.8028 93.5864 60.8375
37.0065 56.6428 49.4485
59.3316 103.616 109.801
56.3729 113.425 22.5996
49.8871 104.668 99.1471
101.068 49.4157 157.676
82.0687 70.2148 100.288
40.0561 99.7008 72.7018
84.2074 65.8856 74.9028
38.9279 105.687 76.3175
28.8435 80.2842 61.8292
27.0105 80.9928 52.3093
44.3549 69.7604 40.9847
25.1947 61.9607 77.5858
71.6179 34.8996 146.392
45.5666 224.646 12.4483
51.317 44.2521 67.3119
38.0412 102.838 56.3886
38.2291 44.3858 77.121
35.662 98.8501 91.065
49.7745 42.8603 72.4577
52.6719 83.4555 114.857
31.8172 104.017 79.509
70.2956 95.2919 53.0114
57.57 100.804 32.4352
63.6831 106.053 98.0832
47.472 148.893 62.6265
26.0233 81.0859 80.0014
57.0829 266.821 86.0342
48.6202 103.714 108.233
60.067 134.334 74.5841
80.5679 47.5289 130.073
32.6112 83.4541 59.3232
34.2406 242.154 28.6675
80.1431 37.3239 169.616
61.7759 135.442 69.3691
71.9861 47.7293 145.288
31.9546 144.526 36.8598
40.8601 54.0365 83.6781
36.7942 134.998 76.6784
113.979 41.2625 166.263
103.42 55.9084 145.628
85.7778 70.9278 85.4714
41.9741 93.9315 112.978
58.1269 104.853 60.7722
27.9023 62.7752 68.3496
88.9806 59.8335 152.547
52.806 132.8 88.3295
84.6907 88.1729 85.3371
67.1921 42.5131 141.565
110.181 47.4981 158.704
45.87 112.927 84.0432
57.4146 73.9999 51.4969
62.3144 87.0493 107.021
92.978 50.4597 136.071
62.864 81.947 114.635
84.0453 79.0675 65.1004
33.7093 62.7491 47.9258
83.2585 42.0235 131.215
61.4984 120.887 36.946
114.302 49.8043 168.521
81.1735 61.6102 168.47
27.6653 57.0093 82.9629
79.5383 32.5873 133.521
76.0394 275.01 74.0876
27.0548 68.8596 80.7127
39.4445 196.105 94.0314
76.575 29.2914 149.851
82.1186 45.5966 172.944
48.591 72.709 34.6751
25.7239 125.219 44.5638
25.7935 112.88 56.2875
75.9254 71.3583 70.985
28.599 78.636 95.7495
29.0556 96.9997 83.5604
44.7306 88.0346 109.986
62.9622 65.2392 58.5803
67.8683 121.718 78.5809
73.7722 116.37 62.5913
45.7592 254.382 84.2503
63.7847 92.5172 111.359
87.2527 24.9172 160.79
67.8914 114.504 66.9825
49.0536 115.567 45.5334
34.5175 110.104 59.5705
75.6775 87.1426 95.0941
30.1907 71.9008 88.4278
48.6665 148.507 37.8441
40.2745 81.5795 49.4951
59.0206 224.143 44.9372
74.039 130.515 61.2895
53.6768 108.019 98.2635
55.4779 90.9696 60.5463
74.5235 53.2157 81.0422
84.8835 63.68 160.539
56.6317 102.709 89.4078
83.1865 37.7838 127.61
85.1264 51.2498 170.769
30.3876 77.2806 81.3311
109.172 54.348 147.301
64.1257 63.4469 51.685
106.588 62.5448 171.924
66.9698 88.8385 105.092
65.3354 114.386 91.4823
34.0503 99.7149 78.307
90.4011 67.4989 164.267
40.1249 142.656 47.8101
64.5487 270.927 55.2884
70.2546 85.6171 110.287
65.9375 130.32 62.5878
67.5749 101.905 39.0266
32.6212 79.7506 89.0602
47.5345 98.7575 111.542
56.3842 55.8279 106.107
43.924 85.4748 46.4484
77.1701 86.9631 62.4428
77.2294 44.8319 145.408
72.8984 45.7655 133.042
38.7696 76.0731 46.0833
35.0627 98.2862 85.1404
86.8905 58.0508 137.464
54.4672 136.594 68.5419
31.8787 145.107 52.2581
75.2977 37.0889 137.965
75.6645 57.5019 70.2403
74.6773 82.2492 54.6709
39.5441 48.4478 63.3452
36.2427 227.687 54.2373
96.2408 54.4119 177.854
41.915 109.443 77.6172
55.719 270.446 90.3739
66.3532 85.7462 116.578
56.325 73.0924 115.22
43.7914 149.037 38.6858
89.5896 41.1728 132.555
103.501 45.2014 160.976
62.4902 58.5013 105.254
99.4362 42.828 138.296
66.6078 142.655 38.0123
73.2522 72.2499 86.2877
29.9318 63.2985 81.2503
28.6322 70.9772 57.5668
28.7117 75.3929 53.7724
97.3694 60.1748 171.032
63.4305 72.4758 54.2638
23.2424 69.3175 84.9189
32.4432 237.704 44.0089
67.3106 94.9957 107.326
55.8861 143.662 62.5436
81.4948 88.4145 92.3896
47.4009 48.672 57.0101
82.4799 72.7141 67.259
59.7874 79.6461 42.5754
61.414 82.3737 51.1254
67.1217 137.362 63.914
71.2481 103.788 97.6431
76.8503 53.3646 75.3743
36.5425 83.9852 82.6584
33.7252 114.433 52.9373
62.5502 112.431 58.6331
88.7331 84.9099 78.0839
69.4182 88.2116 98.5187
103.875 45.8171 147.052
67.014 123.338 37.2228
77.2195 85.7935 105.138
33.9559 79.4684 68.8633
39.5811 91.2164 84.9784
37.5747 142.146 61.537
40.8705 85.7003 60.2015
73.0995 116.293 91.0426
34.8224 87.0056 87.3175
38.9119 109.52 86.2446
59.6243 98.0672 54.1624
88.7401 78.1731 83.0533
78.8667 30.8003 168.761
27.2262 57.8502 62.7247
68.6497 97.3801 88.5414
57.2639 54.5763 50.2551
64.6149 104.243 104.018
42.8635 172.22 57.9543
70.2655 108.208 92.8074
65.3731 112.706 43.4462
75.0374 58.4929 62.0995
39.0276 85.0664 91.6448
110.671 43.1275 170.507
95.5358 57.8135 174.992
87.2215 48.7652 132.979
62.5916 77.2765 53.1817
44.9433 75.0714 46.4808
31.8308 59.545 68.1694
31.5833 53.0101 72.5545
38.4902 103.549 94.7693
80.9342 52.7256 132.73
46.9215 105.065 79.5445
61.0076 48.1023 76.3737
34.5308 221.917 51.9685
67.4976 102.824 90.6533
74.4344 93.5018 100.738
29.5792 135.621 71.8385
65.0747 127.19 43.977
64.2154 81.033 57.3297
61.3003 218.745 21.5734
65.6766 94.6429 163.069
47.0764 64.6987 40.1518
67.544 54.0661 95.8574
72.5308 93.8655 80.5382
42.6388 109.817 90.352
53.5919 130.486 92.5113
38.4872 92.9822 91.6002
70.6909 66.8694 63.3292
35.7416 244.768 34.9088
113.22 61.4754 161.335
67.2565 51.7783 68.8222
68.3876 55.5804 54.5624
70.6284 72.2268 103.553
71.3252 99.9731 70.8946
57.4783 145.201 51.3245
86.5361 55.9056 129.069
37.471 75.7206 100.776
23.1732 62.8694 85.7468
74.8855 64.6333 95.069
79.8604 122.494 58.4749
76.4232 36.6645 161.142
68.1396 85.3578 48.0569
27.6255 74.8404 85.4872
80.3178 27.1033 147.708
62.3071 100.24 36.1327
44.5984 90.3801 42.4456
87.8937 78.0224 73.8429
65.3506 118.731 42.3664
87.0913 106.779 64.8498
78.2361 50.5163 156.368
70.1775 52.2118 84.9655
83.789 113.898 61.692
72.4064 100.328 49.6861
67.3152 78.4168 40.8679
62.2551 133.979 45.652
40.2854 83.3151 109.427
35.104 92.0551 100.668
58.2209 58.9203 99.5019
52.6058 273.104 85.756
68.3288 56.9312 61.7223
71.352 60.0774 94.7701
79.1484 70.967 79.2005
83.9971 54.0685 137.524
65.1851 65.8398 100.006
69.5881 50.2235 73.7031
69.134 135.335 42.1488
70.0208 94.5726 102.289
53.723 43.7105 91.9952
60.6781 137.934 43.1868
74.1505 131.667 54.2055
67.9784 125.51 74.7159
35.3088 92.6635 82.5696
58.4619 240.89 39.9125
63.2733 254.174 84.4164
31.1526 144.944 47.5223
72.2449 112.002 72.3233
58.4067 121.096 90.7482
27.1934 213.28 26.9182
33.9423 118.332 48.9286
30.329 82.0945 74.0532
64.2728 129.152 69.9881
115.556 56.8358 165.435
85.9227 83.4642 91.2993
75.5163 33.9645 166.051
72.0128 51.7939 155.183
81.7629 65.9851 152.129
97.6347 57.2227 137.869
77.9971 80.9518 61.5848
78.0492 65.8385 56.6629
38.9115 51.2871 75.1672
76.5177 114.182 86.9272
57.1719 65.3057 46.8825
66.757 47.4098 77.5704
85.433 78.6111 87.5599
46.2305 245.738 41.7749
57.5763 47.7717 71.7185
60.3237 131.402 28.756
78.9919 99.7431 69.6041
59.2577 53.1825 70.7907
36.8505 93.41 64.2195
64.6254 53.2673 101.031
67.839 80.7994 106.98
69.8549 121.216 86.4367
56.8175 138.658 76.0665
61.1752 114.648 30.026
79.0923 63.1045 68.2394
65.2206 134.034 51.9484
56.916 57.4383 59.6709
30.1738 138.612 64.7796
74.716 106.823 67.7113
76.797 102.917 90.8932
73.3534 72.9251 65.8936
46.8431 261.262 53.3836
84.5496 94.6866 93.2193
78.8496 108.149 61.0626
71.2601 74.2064 109.003
25.4029 137.496 67.9337
50.0727 140.98 59.8397
81.1099 110.051 92.5549
64.1093 58.9455 94.9133
85.0995 46.8467 127.151
60.3948 122.176 81.1679
88.1831 109.181 80.7438
47.5817 277.709 82.0771
44.7053 45.313 58.9877
68.0293 122.561 62.6882
65.0826 52.2959 81.077
55.0686 51.7671 53.8049
82.5264 73.0735 75.3605
92.3943 62.2291 173.64
80.9107 76.3483 71.0611
62.9634 44.3646 81.9229
70.8276 110.34 58.9883
77.1315 105.332 75.7774
66.5316 106.701 45.4279
62.3726 116.105 85.9543
72.8083 107.73 82.6073
71.7195 123.417 42.0512
58.2186 289.694 77.3729
101.255 28.6875 171.67
92.8925 86.314 86.893
47.2877 105.902 94.8403
45.1119 168.014 59.2176
73.7171 80.6441 102.976
107.576 60.1522 147.802
89.7319 75.5113 78.172
72.7531 114.667 76.2619
73.9256 69.0577 97.7203
79.904 114.301 80.3642
109.933 66.0614 151.646
63.9325 116.175 33.236
93.6532 41.6726 131.545
93.3491 43.7884 136.708
73.7772 100.803 84.9879
79.319 92.1536 58.4473
78.7869 73.0601 91.1292
84.9994 98.5975 99.5868
62.8242 54.8872 48.4687
58.8678 119.914 85.8943
59.6848 101.62 96.359
44.1798 88.3973 64.4906
28.6725 95.3968 75.8679
67.0672 116.534 80.9004
80.0208 37.8471 133.795
77.1088 50.8533 135.441
77.637 118.159 67.1308
82.6662 82.2412 84.3807
68.3147 55.6435 78.566
108.646 41.8676 153.975
77.1664 57.2229 94.2089
78.1904 121.98 77.6675
74.8239 67.1598 82.998
81.5114 56.5823 77.8562
73.575 100.205 101.845
73.8251 108.988 89.459
