ply
format ascii 1.0
comment Created by Open3D
element vertex 257
property double x
property double y
property double z
end_header
35.1908 52.3008 213.808
39.1792 103.226 31.4935
38.6318 30.3254 223.315
26.059 77.0021 33.2067
34.7274 114.672 91.8927
50.6741 86.7436 108.516
35.0066 59.8152 205.122
16.5885 103.682 57.6001
28.2899 109.207 99.1907
41.3612 78.9359 117.491
20.6129 47.5939 67.6587
29.9579 19.3442 208.365
15.4238 75.6751 58.4323
26.4554 30.2249 219.47
21.646 25.2168 69.5305
27.2582 107.64 31.6529
31.6135 103.936 27.8499
20.5421 104.011 33.9667
46.5615 99.8882 74.3139
15.1023 70.7202 66.7386
49.8402 83.5818 27.9263
21.7415 57.1042 103.174
26.5926 38.8443 220.734
16.4774 82.6073 89.2313
24.8558 111.726 40.1785
21.1051 80.0534 101.193
33.4231 113.149 57.829
32.472 39.3956 207.487
17.7413 67.5343 105.217
42.3362 36.0984 226.245
38.6943 110.529 77.2343
42.6555 52.4128 88.5145
45.7537 53.0119 213.666
48.2551 67.6623 95.7994
31.8429 67.8666 68.4365
14.922 91.8907 38.7752
45.8971 50.8246 205.136
20.4553 59.2003 95.0381
36.4068 105.246 52.2084
28.0492 57.0744 103.399
49.1509 30.9843 195.939
51.9542 54.0493 74.6079
38.7583 23.5235 227.063
30.983 96.7124 76.2645
34.0174 108.981 36.6001
28.3354 22.3066 69.7358
27.4441 50.2524 84.2552
43.035 97.7425 82.4115
20.3977 60.0749 85.9012
15.7252 78.3873 34.833
27.8662 59.2869 81.8834
21.7556 104.423 105.539
30.4787 65.5677 114.667
15.9503 61.6663 43.8126
39.9261 107.396 65.1607
46.9968 58.967 205.03
26.4799 87.7015 28.7163
22.5266 74.0157 110.8
57.2246 28.4833 209.945
17.5496 96.7899 75.5536
47.568 92.4838 113.145
47.4014 44.3656 210.358
45.475 50.6216 196.607
43.2719 81.6969 27.9533
18.0353 72.4543 99.2268
27.4416 29.0778 208.147
37.6772 44.9751 63.0966
21.7608 60.9982 43.451
47.0453 89.1065 103.274
19.0263 58.7492 76.0414
51.5849 78.6765 113.758
33.2164 102.91 68.8151
26.8138 66.3411 37.1973
48.4879 41.1492 199.67
49.4262 45.354 216.934
58.7488 80.5126 46.9698
37.271 22.6585 217.864
40.9777 98.8184 48.4466
50.832 87.6616 62.01
54.0328 39.3767 218.462
59.3097 73.5456 40.8702
21.6883 38.3269 211.054
43.9966 14.5101 216.977
25.7863 66.4469 108.472
23.5294 53.3224 94.5398
44.8214 40.336 222.705
33.0263 23.8671 225.546
20.1751 69.2708 73.6194
54.4064 85.6463 33.9107
36.0906 105.295 90.4388
23.7313 56.1311 71.5026
44.3712 61.3975 212.897
27.3214 96.0048 27.2112
20.1561 68.9285 43.1738
42.9048 85.4193 112.355
25.9701 106.56 62.9383
42.8169 51.9504 56.0252
46.4356 111.578 68.2086
41.9561 67.3968 102.043
40.6369 83.6538 86.4128
32.3862 109.524 76.8013
17.0393 71.3294 53.7318
45.7623 29.4102 220.053
25.3938 47.2104 75.573
46.1616 88.1693 96.9186
15.8982 74.9058 42.5941
40.679 68.5654 43.2476
20.6237 102.965 65.0993
15.8907 58.419 59.1351
44.0307 13.8928 207.85
44.4673 91.6055 67.3242
22.5888 99.0348 30.481
20.4051 102.577 93.3171
24.8216 111.65 53.9681
24.833 52.8666 43.1302
53.2815 34.1076 201.717
48.3639 98.1687 59.2851
42.6231 93.6779 27.1603
32.7615 49.9969 202.474
27.9119 49.9144 64.4297
48.4754 78.233 78.288
20.9446 74.0866 85.694
19.734 102.882 99.809
32.7232 47.7261 100.73
51.4215 33.6031 224.522
35.3546 21.561 203.962
19.0237 109.605 53.8092
50.7781 82.7307 69.6891
31.6848 59.542 43.5708
41.4588 73.7403 108.093
47.7255 105.495 78.5478
52.6042 21.8063 220.861
21.9265 98.7746 79.259
27.4984 73.5386 117.601
37.2909 13.1106 214.193
42.8187 89.9455 91.7403
20.8573 82.3397 36.0638
36.5293 16.1755 206.51
36.3662 42.1862 214.809
28.1817 104.22 90.483
19.8577 62.9248 57.4403
35.2807 54.0607 111.612
23.6403 44.7924 209.466
37.8287 97.3073 86.0271
36.4135 53.2343 92.3645
32.2731 35.3384 224.967
50.6248 73.1516 36.3421
48.8005 33.1522 213.802
21.9167 78.971 82.331
30.8704 109.044 67.8349
32.224 76.755 111.138
38.5208 57.1804 104.245
41.3553 70.8235 90.7204
41.7388 60.2606 83.3384
31.084 56.6147 96.279
37.8379 77.7183 33.974
23.499 89.2785 90.63
30.2582 112.15 44.4696
41.0105 45.2909 216.095
27.2313 56.831 90.5847
28.1397 23.2104 215.341
56.4557 40.6192 205.762
22.1714 107.255 78.2024
51.6933 78.159 103.395
30.58 79.3269 82.6213
20.8508 71.8044 91.4882
28.6953 102.977 76.2967
36.9366 58.7803 47.8379
32.5631 57.0044 79.7465
40.3565 67.4304 61.37
45.7148 78.4999 83.2802
30.9149 25.7516 220.225
23.2989 51.1915 61.6505
48.6066 87.9319 89.7458
44.5289 89.8128 79.3006
45.7812 22.9943 223.115
52.3742 58.6189 49.5808
34.5776 42.6296 193.506
48.5214 28.7522 202.662
39.0671 41.1024 203.054
49.8243 72.3065 106.809
36.9694 106.268 72.5351
35.2661 69.2991 40.8177
50.0933 19.7348 211.905
24.4935 89.326 78.6235
19.227 73.7171 31.6396
41.9981 20.1982 198.101
44.3905 98.1386 40.0967
44.6811 21.9268 217.344
31.4829 26.4203 72.073
44.049 65.4927 90.9368
46.1665 57.7396 69.988
52.8716 63.3444 67.8756
55.3854 77.3261 67.6709
43.0272 19.7799 212.412
56.2248 57.674 70.8902
24.03 70.5563 81.8858
28.8205 100.788 85.5443
19.6524 63.3016 101.344
21.9555 84.5748 83.481
39.7031 73.9043 86.2012
27.0029 108.568 81.7251
36.6996 72.8707 116.203
51.1859 91.0798 43.1044
40.6445 19.6887 224.262
37.9201 19.3612 212.159
24.8624 114.598 73.7352
48.6971 62.179 99.6823
38.8529 45.4801 55.5989
52.9008 39.2251 209.816
51.9979 75.7634 61.7051
40.6189 53.058 77.7645
34.7338 105.133 83.8869
17.016 85.6549 75.7914
26.7555 112.658 90.8626
44.1057 22.9508 201.937
51.8056 88.3919 52.245
39.0975 59.2645 89.6993
46.1639 36.3174 205.663
32.6642 57.1412 87.5768
30.6262 75.3864 64.0928
40.2512 113.195 100.438
46.7042 36.1583 200.239
47.0574 64.5516 76.8751
38.7219 114.17 83.4266
40.9945 110.479 60.5229
32.5418 20.0167 215.856
41.1361 98.6907 76.3421
20.7184 110.29 65.5264
32.0427 89.7968 24.7455
44.3943 80.0907 105.951
43.3314 29.8876 200.856
33.3377 53.9576 73.2105
37.6632 50.683 71.693
45.2164 67.9347 82.9553
36.306 62.2593 108.746
41.2117 44.5161 222.922
46.5519 78.7809 91.2399
46.7339 93.2485 84.4933
37.1552 108.096 95.8976
46.356 58.2721 80.2825
37.8629 99.261 107.187
51.2498 99.7268 66.7071
34.5924 94.6536 109.328
36.3804 96.0933 26.4323
48.2873 65.4145 105.503
34.1764 63.0963 102.128
48.4284 74.3611 94.8055
19.8524 56.1987 54.876
45.2054 101.539 65.8249
32.9241 49.9092 64.0167
43.0984 64.5161 110.352
44.7025 18.0085 204.605
46.4881 88.6039 73.9857
55.8202 65.9071 73.016
58.4204 65.2931 44.6496
55.1927 89.0095 37.7516
