ply
format ascii 1.0
comment Created by Open3D
element vertex 2013
property double x
property double y
property double z
end_header
56.2371 217.738 185.249
42.4304 149.1 186.577
42.7379 140.194 213.724
32.8461 98.6534 135.101
43.7779 168.443 194.983
57.2853 237.963 106.915
35.9133 246.242 209.412
32.6225 205.855 204.95
61.0357 224.485 213.062
31.6163 224.663 129.796
28.769 46.4742 215.466
72.0703 398.271 244.747
32.3067 215.302 134.281
34.7342 182.682 92.2446
31.2626 154.905 208.513
28.5713 60.1025 218.077
32.2508 102.632 97.7846
33.6664 213.886 170.333
28.3039 63.6767 258.952
59.8328 86.1191 196.433
47.8326 113.476 150.763
29.1747 428.042 264.916
37.6853 252.24 184.369
53.7641 109.669 213.903
28.8942 60.8365 196.129
72.8773 24.1875 169.827
51.5673 199.433 229.487
72.2482 62.864 167.964
79.0418 214.711 112.31
52.6685 205.043 222.949
33.0651 100.067 147.912
32.9004 167.669 131.355
66.4553 232.357 211.495
51.0663 24.9911 191.188
55.0607 211.329 147.85
43.2509 182.237 191.066
45.1726 127.123 143.724
32.2447 214.637 221.26
39.0593 57.3713 122.201
33.6643 216.822 158.602
34.0118 278.733 279.623
32.7064 186.307 167.217
64.3626 278.022 235.523
46.9606 99.204 153.968
31.8482 175.529 212.636
56.1565 422.957 305.803
82.8055 131.628 65.4063
30.7413 131.546 154.402
74.9468 255.248 161.015
70.8105 241.69 195.18
43.0599 177.636 219.339
59.6769 192.517 24.5175
41.5198 140.398 195.314
82.5858 158.666 61.3094
31.5294 180.133 235.215
60.7281 68.5065 144.06
32.4386 141.599 91.5816
32.0983 233.956 178.685
30.5691 220.617 248.261
31.5568 190.987 236.734
35.0971 134.211 110.775
73.2139 163.353 83.7293
48.6697 331.976 282.55
53.1066 121.587 222.547
30.7244 165.681 217.577
32.9222 221.298 257.782
47.221 191.672 39.2744
31.462 107.651 187.356
65.7169 26.0415 164.826
69.1429 257.189 199.77
30.9935 171.455 235.154
82.7556 69.6981 233.377
29.5838 104.391 211.556
68.3374 38.9744 222.815
46.2318 298.334 317.79
73.0105 239.919 111.141
30.8156 121.413 199.086
32.9418 240.884 163.125
32.6666 195.913 182.684
47.5268 133.806 157.723
33.8935 164.097 66.1086
45.4189 201.482 184.174
70.3537 247.423 229.479
29.4209 90.9836 202.988
28.3202 54.3919 224.713
58.8013 200.139 242.514
39.9246 182.99 35.8989
43.3 314.338 239.439
27.6132 429.108 290.988
28.6583 54.8274 252.392
49.6451 131.583 226.572
60.292 22.0105 192.925
77.1945 155.555 79.0618
47.6774 121.01 107.483
32.0571 228.879 190.295
61.3421 319.159 297.909
28.3611 104.084 271.56
30.7411 138.714 229.148
59.1349 218.098 221.255
53.8886 301.707 230.756
33.0376 172.886 186.902
77.0701 190.414 93.9944
28.7511 70.7643 211.545
52.2561 82.9896 168.331
33.3765 187.98 138.522
51.1837 189.409 240.28
73.4223 406.371 240.73
33.8518 196.197 145.128
64.8433 384.796 267.809
29.6505 213.233 252.2
45.0911 105.235 128.87
30.881 139.52 216.722
45.7996 314.867 312.554
79.5132 70.142 188.685
61.7271 299.148 309.566
30.9565 126.059 192.72
27.9978 62.8164 235.564
54.8527 440.672 309.438
42.0502 289.784 302.921
28.5065 196.353 261.296
46.1781 107.193 184.675
46.2246 200.879 173.377
31.409 185.723 228.79
72.7549 403.343 261.943
28.0656 95.8403 266.056
30.9408 141.929 182.755
30.296 133.565 203.969
43.6008 167.692 184.911
45.6674 199.841 201.792
55.2562 58.9661 248.671
45.2562 142.402 168.97
45.7045 186.966 126.994
56.2902 275.494 279.521
55.5644 198.934 19.5374
91.9045 73.9328 232.9
32.5326 234.434 157.159
63.9153 442.277 262.987
66.9858 268.347 260.408
28.8673 85.4012 223.641
31.9119 153.856 81.2841
66.0868 78.1588 189.37
56.0686 125.313 229.596
50.43 205.666 150.322
59.55 463.209 246.851
28.3196 74.1499 236.562
33.5969 208.256 146.43
65.1994 397.669 238.618
58.9591 180.593 24.1946
44.7991 258.345 182.3
29.4187 122.402 257.451
27.8877 68.6269 229.701
59.727 209.868 125.923
43.0187 159.443 131.996
64.8602 220.754 142.796
44.1253 158.486 189.925
32.242 144.588 190.353
75.3542 409.945 255.879
52.7934 42.6677 242.513
71.0439 102.772 218.928
30.5121 132.308 219.786
76.4081 64.7717 173.832
79.0238 90.9693 251.471
27.6807 86.5923 267.272
35.4401 241.639 149.063
58.5974 30.8722 226.169
30.5477 148.307 290.702
32.4032 89.6909 131.876
45.0157 190.436 169.624
32.7616 89.509 172.257
68.05 184.903 264.319
28.6543 136.214 287.398
30.0757 99.5012 236.17
69.687 439.41 256.542
100.631 41.6861 162.94
33.1306 244.021 179.766
39.794 167.843 60.2456
45.8393 92.4524 156.591
69.5715 232.888 182.054
28.1272 64.7384 205.418
31.9628 92.5145 122.441
31.4596 127.983 210.943
45.7108 271.343 275.448
45.5458 95.4609 136.382
37.5582 251.654 202.084
33.7236 152.779 111.392
32.6469 209.932 194.371
31.2247 143.87 148.825
31.4177 166.73 226.131
47.789 195.39 220.655
28.9043 116.651 251.747
44.0617 183.392 169.551
33.6634 245.918 190.592
31.7771 313.544 304.194
42.93 185.644 208.099
30.4998 72.6259 194.265
74.2283 251.022 177.588
29.8617 175.605 261.174
29.856 83.2884 194.39
76.0221 246.74 165.981
40.6485 301.015 318.465
47.4357 171.355 238.774
76.6795 68.3102 123.268
33.4892 192.27 129.332
55.6858 264.34 277.955
71.6181 272.014 250.059
42.8763 161.5 159.925
30.5091 131.091 138.134
31.6654 221.543 186.553
39.5187 28.6282 203.656
45.435 111.976 195.253
61.4367 38.0635 228.027
68.6554 181.103 96.3678
47.8073 128.237 219.4
62.6393 263.112 270.982
30.0205 156.681 254.955
80.1576 59.8443 139.138
82.2146 170.584 71.1475
54.4184 252.07 132.264
43.6999 253.871 158.679
75.6565 237.486 161.344
33.3819 173.442 137.658
39.7402 197.704 32.0937
45.8654 63.4324 263.847
46.3218 115.776 141.271
44.7283 159.469 122.092
32.689 230.581 234.379
43.3244 156.916 166.313
32.6786 175.584 79.9578
45.3778 166.008 112.89
55.0089 400.889 313.289
53.7274 167.26 248.531
28.3992 151.565 280.939
30.1566 135.845 146.82
32.956 192.235 173.497
30.7874 160.758 290.008
44.5787 195.175 193.113
35.6425 47.2187 150.944
50.4244 460.411 244.416
56.5551 332.776 283.205
54.7602 428.7 281.143
32.6383 106.259 124.068
59.011 262.926 176.384
57.0813 255.525 140.966
34.3491 208.026 159.35
42.8231 156.952 220.374
73.1162 217.42 121.053
31.3559 168.535 145.231
64.6166 72.3379 131.802
71.9147 441.595 235.356
33.0565 190.336 206.765
62.0833 459.176 275.629
73.1933 77.9961 193.906
34.0471 282.074 265.288
31.769 126.336 182.931
32.2936 131.949 93.3088
56.1425 50.1002 244.842
71.9987 220.582 251.763
45.9859 115.373 115.16
67.259 199.653 260.501
28.0671 96.4364 279.425
86.9564 35.08 204.629
27.9669 438.732 274.568
72.7168 239.706 180.627
71.646 245.43 219.534
73.0558 204.824 267.007
43.2291 182.744 177.689
30.138 190.985 245.569
45.0693 319.862 245.284
48.413 196.704 130.856
50.6973 178.259 23.3639
53.9687 196.043 65.624
29.588 69.3065 148.115
58.9277 221.74 173.09
48.7933 29.8718 169.7
28.3768 414.998 277.334
29.9281 99.3527 199.374
33.0893 44.9231 247.594
48.6991 205.075 207.189
67.0284 206.733 255.064
44.5474 189.583 16.9494
35.3394 200.475 84.7127
65.8288 30.5633 218.51
64.2607 215.68 236.481
53.7163 184.99 19.2047
49.0543 105.332 195.47
32.2263 167.33 207.059
32.4611 141.56 75.6179
49.0386 272.919 290.188
33.0851 216.123 180.142
67.1117 312.444 290.282
32.3195 157.735 73.2434
28.2692 52.9423 232.763
29.7998 129.147 237.286
32.0909 71.1291 120.835
33.0998 202.131 176.831
67.4568 392.039 262.676
51.9605 36.5216 240.231
30.8086 37.5148 214.329
33.1372 172.321 70.5487
54.7171 29.1845 161.861
53.0495 187.714 109.474
35.7399 116.706 65.2034
44.0719 199.659 72.4
30.366 119.235 234.48
32.1674 141.108 118.859
38.0937 178.555 65.9956
74.443 210.586 79.3799
59.6868 315.911 242.4
32.4471 189.193 22.5623
44.7407 134.034 138.934
57.2329 219.988 203.972
52.1154 201.815 29.3358
35.1273 195.022 283.188
44.357 312.759 322.08
30.2077 112.674 228.538
29.9572 91.9966 212.917
69.398 150.407 50.6708
38.5791 240.325 130.2
32.106 110.044 141.612
37.9671 184.317 19.4739
76.7658 251.633 142.936
49.6662 112.819 207.829
30.7288 155.285 217.76
46.7838 184.821 228.776
44.727 126.855 116.494
36.4306 238.968 236.853
29.208 151.35 267.868
62.4743 312.904 313.703
27.8889 109.838 281.588
78.0222 201.06 280.963
33.3062 149.152 94.5288
71.4816 250.884 212.927
51.9507 261.115 170.593
39.2138 195.575 80.1999
30.7071 290.252 259.843
30.6429 182.429 251.52
64.0863 297.551 242.421
46.0873 192.736 65.5338
44.5598 35.0105 159.648
59.898 430.154 269.239
32.1265 162.34 186.3
74.6319 158.614 243.52
45.1259 151.295 112.324
32.6803 111.343 132.395
30.2803 138.599 247.308
67.0791 274.942 282.72
32.2185 207.533 222.963
32.9541 204.74 185.919
68.1901 206.818 117.011
54.8725 225.354 89.9862
40.9416 247.352 145.38
70.448 196.952 267.37
32.0149 142.787 127.695
31.5971 81.1691 135.719
54.9316 386.61 298.087
55.4951 305.465 291.093
29.8005 173.588 253.444
72.5604 45.3322 224.351
39.9023 199.142 21.3213
45.0861 115.783 205.987
28.4867 80.3529 274.105
53.0662 322.8 290.301
29.3366 48.2451 205.339
27.8253 66.8967 222.218
44.7448 140.446 222.242
55.1268 325.198 261.59
29.8998 202.375 246.238
27.5346 64.9463 249.731
30.3452 140.739 155.665
31.8636 162.724 85.9015
43.1478 106.373 280.454
63.5155 263.607 263.503
28.3453 137.645 277.335
48.0663 84.9639 141.171
55.2527 26.552 168.533
33.612 199.851 209.253
55.8505 112.019 279.383
43.6047 25.7481 195.118
33.9322 124.972 102.706
45.2666 128.098 130.979
62.9425 304.561 259.943
45.9782 148.212 292.473
45.4345 301.969 232.589
27.4391 76.2044 265.471
85.0442 29.1564 197.935
32.5775 154.919 138.779
33.1495 177.093 121.018
32.8532 176.788 128.41
53.9023 202.992 286.596
29.4823 452.037 288.843
57.5085 275.4 236.501
75.0909 437.807 247.919
45.5215 244.966 127.039
28.7523 82.2794 205.693
61.8456 225.809 188.347
49.2442 122.922 53.6162
48.1657 252.474 233.375
69.0935 282.785 235.552
28.7052 417.786 251.337
77.6726 203.295 104.543
75.9802 444.899 245.528
49.7981 208.571 196.159
52.1894 412.267 231.649
51.8683 106.145 204.03
46.8399 193.223 148.986
55.0325 250.438 243.602
30.3089 68.3591 136.513
54.6072 177.458 251.298
34.0461 114.91 115.504
33.9959 216.611 103.147
30.737 146.595 214.898
77.5354 413.473 246.181
81.3411 213.943 100.73
81.2252 219.639 107.138
76.9695 235.466 148.158
64.7873 211.061 243.422
43.1962 166.168 214.83
59.1726 26.34 216.962
36.1424 392.575 300.216
53.8133 438.412 286.455
32.2265 232.685 146.246
28.4292 127.65 277.624
30.1868 167.88 250.36
27.7528 88.1713 258.823
69.5039 281.353 271.681
29.6163 113.345 220.181
33.4817 217.056 191.627
40.6161 189.069 33.0061
29.2345 48.8306 195.817
51.0425 155.359 97.4799
33.4405 239.698 204.454
42.3534 137.662 203.817
56.0719 85.8876 68.5533
33.5773 457.291 267.466
54.2016 291.278 230.829
57.8448 271.156 263.491
40.0752 67.5443 270.718
32.5845 236.929 197.63
70.4256 244.862 239.397
41.5491 249.429 229.88
83.9412 120.29 228.215
30.8886 162.807 246.085
44.6054 115.092 132.773
33.3791 125.097 119.846
64.6485 255.081 135.35
88.1584 188.279 268.296
28.5038 55.2385 203.068
46.9627 155.143 103.892
57.6865 261.537 268.6
35.3434 89.0448 78.4144
45.3654 123.831 136.851
42.6213 154.382 208.512
46.5688 122.888 172.168
32.5693 184.847 127.009
29.4043 420.421 260.548
61.3735 205.443 248.784
29.7298 93.0162 228.097
42.8526 165.718 173.59
57.0656 215.025 140.789
46.3259 225.566 94.1432
31.283 39.4304 231.014
35.2627 31.722 213.941
31.9633 184.723 180.779
39.8222 107.36 286.903
54.6051 247.926 124.383
33.4259 163.205 122.922
67.9953 258.148 211.439
45.1857 185.797 150.26
30.1314 70.9156 185.839
29.446 450.922 276.038
62.554 451.631 234.118
44.3195 176.287 148.72
32.9015 170.182 100.596
32.2711 116.558 136.686
47.6627 181.138 113.06
78.6577 273.112 263.217
59.384 112.7 223.333
31.9733 213.249 120.41
44.2001 188.736 189.807
34.8672 155.128 64.5183
49.036 207.395 165.135
59.7107 267.125 253.911
28.613 69.7111 264.629
46.8905 108.913 168.375
30.1436 105.115 232.445
49.6643 445.033 232.515
70.6632 50.3066 229.892
31.2492 144.152 199.268
55.4904 161.377 96.527
37.4869 309.743 245.35
51.7133 33.5129 152.269
70.889 74.7517 154.149
28.3918 115.61 265.845
28.4863 307.272 291.254
72.1916 106.673 94.1824
35.5783 306.448 312.082
35.4804 299.998 294.216
87.0422 63.9931 100.413
52.3438 466.651 256.762
70.5581 450.146 237.9
86.1329 95.2401 70.0767
29.7992 88.7673 251.369
31.4531 139.153 314.384
44.7429 159.644 144.838
47.9686 116.568 160.744
33.3975 201.329 155.642
57.8229 162.237 292.121
32.1598 152.034 130.511
74.279 210.882 282.406
52.9272 214.539 171.531
80.6952 125.469 73.5535
33.3758 130.741 125.14
48.867 327.733 295.127
54.3308 436.526 277.125
34.1505 219.1 149.166
31.8032 159.985 145.964
63.2851 98.3178 106.804
28.001 73.5071 244.36
39.6337 391.837 256.591
57.2891 80.3637 177.222
33.5888 193.716 156.162
35.26 169.037 108.045
66.5521 254.985 225.356
50.3894 114.358 55.6338
28.0386 436.562 298.12
32.7827 174.742 198.396
59.7881 404.79 294.024
28.6829 446.046 268.885
41.9797 203.406 26.9645
32.7875 312.027 285.593
44.9018 96.8856 65.1261
30.242 139.237 239.837
29.4066 59.3201 172.536
31.9973 95.9365 101.604
32.1934 206.281 73.4754
54.4841 254.419 234.468
80.6061 132.916 264.216
69.3921 81.6145 197.275
83.7229 76.9607 102.186
43.9791 166.958 227.322
45.493 181.666 143.502
33.9429 229.759 137.153
31.8796 96.7019 184.425
28.955 423.537 278.356
42.8604 43.0302 251.675
32.0334 150.165 185.974
32.6702 228.36 169.743
45.7801 257.292 171.664
67.0891 137.931 240.813
34.128 185.12 119.199
84.316 143.959 62.8816
39.2649 316.541 245.851
91.5723 138.06 268.302
37.6702 399.165 251.397
77.622 50.2303 224.775
28.8108 98.0658 258.321
39.9293 98.9575 277.887
56.9163 417.219 299.137
45.3802 151.89 140.969
58.6257 311.827 286.938
27.707 442.698 291.836
72.3924 247.547 204.069
49.1329 202.21 142.415
28.6802 161.224 272.918
59.7853 451.383 281.432
41.184 91.652 279.203
30.9973 160.106 95.4966
33.5213 124.29 110.482
60.6752 199.369 288.753
45.0399 134.621 109.658
29.0501 431.825 276.698
31.7585 173.038 87.4963
30.561 212.144 243.453
78.5877 120.633 253.552
33.5441 216.686 205.19
41.0407 465.356 268.903
59.1427 381.445 272.508
51.1263 202.917 134.983
37.1754 204.409 280.375
27.9874 55.3365 212.408
53.3015 304.775 303.146
51.9917 413.307 317.133
33.2316 197.044 108.261
62.1433 94.3664 208.956
30.7792 172.79 286.221
28.518 117.799 272.936
83.0406 138.929 68.8531
44.8128 48.0232 128.747
43.8223 160.251 200.467
53.7851 141.989 239.004
29.1881 446.852 258.336
82.8517 138.725 57.1224
49.7246 294.624 285.135
30.4952 149.234 236.685
28.1662 107.034 262.892
66.3096 306.455 312.348
29.7596 97.935 250.476
47.0626 120.23 148.938
62.6136 242.591 258.014
75.0149 275.144 273.482
33.3115 206.07 108.175
29.7124 98.3363 217.044
31.4514 89.7353 112.405
55.6927 94.0025 197.504
40.5124 27.0445 211.687
44.2978 264.373 271.868
50.6337 153.331 52.3632
60.0166 81.9745 184.615
40.9229 299.015 235.976
31.6459 199.452 223.59
71.2801 226.027 245.44
86.7013 71.21 191.804
33.3947 225.825 157.387
53.6344 154.742 243.087
33.0741 62.1587 126.621
50.3529 91.6573 182.02
35.2751 321.881 306.203
46.9942 142.051 157.589
43.2533 32.2079 168.073
34.7442 453.716 256.222
37.5131 282.994 273.922
75.8529 243.232 173.757
31.0953 218.986 231.497
66.4234 68.3549 138.162
30.3235 206.615 263.406
46.0349 96.4035 128.147
47.2139 24.4558 205.756
70.4908 233.791 257.402
51.4228 378.816 276.295
51.1866 96.7192 195.18
77.3361 56.4923 228.695
45.7668 129.961 172.504
43.981 466.7 281.688
48.2354 181.672 15.0933
29.3904 73.7254 203.438
32.6919 134.71 120.873
61.7672 408.441 230.225
52.1372 27.6673 225.169
66.1 90.3854 110.532
75.7252 65.8293 235.216
42.4847 278.298 287.285
49.8047 208.165 175.454
32.6552 138.399 68.3494
44.4265 233.038 261.361
48.576 325.397 262.154
77.9625 24.6739 200.173
95.9134 149.978 273.967
30.9921 180.796 243.811
55.2324 323.788 278.342
31.7054 132.665 176.058
29.873 126.579 250.612
64.7614 229.882 203.381
32.4976 138.156 102.792
42.8707 194.909 286.311
46.0333 90.8848 143.211
32.0435 224.375 197.057
44.2491 183.848 162.503
30.8603 196.893 274.513
85.2449 66.6133 116.285
32.5922 180.175 206.227
72.3014 144.782 244.802
42.27 412.561 230.72
57.8324 219.851 157.934
36.7172 143.731 306.336
29.9839 136.499 194.219
58.3667 454.569 293.388
41.556 243.751 239.799
32.469 54.5958 140.55
33.2268 138.775 328.583
28.3909 52.0786 241.439
34.6719 244.948 167.681
47.3534 173.605 111.208
40.7968 172.415 294.015
43.9432 135.383 129.905
82.401 185.745 76.8533
30.6633 127.738 146.265
67.9693 296.721 290.115
63.1309 220.211 228.318
55.6903 75.4218 167.811
39.6954 34.0641 237.916
30.499 53.5147 168.091
72.8422 267.968 266.496
34.7128 225.78 110.882
38.329 81.9119 279.497
40.3269 323.81 299.675
27.5439 421.077 290.757
57.3376 201.89 149.485
88.307 29.0813 184.839
39.3085 312.252 278.067
85.7568 55.3908 165.618
52.8437 262.118 263.375
89.3944 40.7202 209.526
29.0181 81.7148 246.952
33.1576 205.208 125.426
51.9244 92.2614 118.947
36.1335 296.606 243.452
52.6145 136.463 284.52
49.2187 200.261 216.893
32.401 222.667 168.841
56.166 102.468 210.24
38.8205 194.504 14.9417
48.4825 184.945 40.4722
43.8391 146.108 130.054
61.5091 180.583 259.569
29.8264 304.813 299.289
32.1471 172.482 159.35
73.568 133.583 50.964
45.0257 182.815 132.091
34.7839 390.107 274.065
44.2299 180.8 155.778
37.2612 157.217 295.75
55.9452 218.927 84.1539
29.8776 97.6795 223.167
57.107 138.413 91.0802
36.8846 395.365 308.457
67.7933 313.362 308.204
28.5628 171.386 275.498
29.575 126.672 290.165
73.6491 132.334 265.746
49.4394 295.476 259.528
69.0136 398.695 268.457
39.0965 308.798 324.7
59.7755 90.8276 113.086
33.3658 77.5115 99.6546
64.7257 168.595 257.45
32.7918 227.28 245.433
67.6067 27.4168 153.714
30.592 195.526 253.34
68.5048 291.669 234.153
59.0794 277.778 253.745
34.9973 287.209 290.933
46.5236 159.313 235.604
83.4767 129.172 233.873
43.0107 120.071 192.036
73.0619 204.165 110.064
29.015 85.0464 238.901
60.2615 300.197 289.313
66.3338 108.86 98.3033
54.2023 208.357 139.075
81.2092 200.676 80.3276
43.8177 187.992 200.534
47.5737 258.446 215.901
28.4292 83.5338 232.158
37.1005 245.76 223.049
85.2326 65.2381 181.622
43.6173 191.149 180.072
47.3641 250.57 135.491
68.7523 140.102 50.2171
55.6198 81.0626 253.848
29.7027 137.413 259.764
71.0945 229.933 235.796
47.657 240.349 115.866
29.8699 92.7365 242.02
57.0568 95.6354 204.367
45.0958 110.733 121.273
77.9976 102.87 61.1772
55.2265 174.92 291.034
33.7101 240.97 218.837
39.3574 317.17 267.133
74.2531 90.2232 103.336
50.8694 304.49 321.569
43.7759 164.418 138.078
80.9785 30.0708 206.46
42.1724 133.311 194.825
31.9318 425.28 239.087
46.3644 129.553 150.72
64.1215 103.334 102.72
35.0871 249.464 174.226
29.922 304.896 254.434
38.9928 186.532 68.5217
41.5545 398.51 314.655
31.536 118.939 145.9
87.7208 80.1418 238.456
49.2281 383.613 294.789
51.0371 155.498 294.052
31.2892 83.0128 124.123
80.8116 224.471 102.226
31.9776 166.977 77.1932
64.843 127.316 50.9007
45.6391 154.407 230.515
53.4603 214.4 161.834
73.4135 28.8304 212.348
33.2085 326.797 297.306
37.9104 225.177 104.278
58.2436 120.834 52.343
67.2922 23.4169 184.764
48.9384 451.288 235.687
48.8711 268.253 282.353
82.3894 154.491 69.8391
69.5769 239.426 204.184
84.4881 121.406 273.114
65.5847 261.668 193.033
28.8506 51.5387 187.977
28.7401 87.4695 277.967
44.9762 139.725 145.737
44.1989 160.74 56.3799
53.2252 468.862 277.476
77.681 64.6394 132.212
59.2184 326.628 284.588
69.9021 271.6 273.355
68.0766 464.012 256.267
46.5619 194.017 161.075
34.6128 212.814 98.3434
42.3002 80.9515 79.9357
42.7322 38.919 151.036
59.83 297.012 280.36
83.881 95.4771 86.0483
45.0793 120.358 125.764
46.0844 106.385 136.94
57.8957 204.988 233.818
33.4929 58.079 132.781
44.7168 28.4195 227.846
55.7313 421.996 287.609
53.7917 81.1471 130.509
33.4953 129.291 79.2695
30.6291 109.928 201.206
79.311 104.44 87.4494
60.542 150.352 50.1667
77.4903 139.506 240.768
62.786 145.107 244.325
92.5482 46.7494 133.053
31.4727 172.34 176.507
76.024 61.2859 148.859
57.5297 268.754 283.74
39.61 137.158 58.5876
59.9954 321.829 258.606
58.9523 110.025 102.972
33.2617 205.662 100.455
65.2057 23.5156 174.832
30.5595 148.065 253.602
44.184 122.387 183.268
32.4293 149.199 203.618
77.3889 431.199 243.167
95.3763 66.2076 188.495
57.9393 418.375 281.298
31.5838 213.663 237.448
55.1242 456.327 236.949
29.2323 140.562 265.883
45.3807 55.5547 261.3
49.1861 261.294 196.223
46.197 263.219 264.524
47.6086 217.419 275.55
43.0265 255.701 165.875
64.4 305.327 274.089
59.9735 69.3806 158.07
29.5386 117.995 287.091
55.687 430.835 307.676
42.9128 151.109 56.5626
69.6891 151.625 251.425
43.2476 163.203 295.604
57.7832 425.472 227.896
43.7567 174.032 178.231
31.0626 88.9367 92.1113
49.8613 264.398 276.03
49.9749 209.406 281.966
53.3424 23.6203 198.88
62.9535 265.037 278.838
32.1085 180.879 105.868
34.5502 440.156 310.452
89.3601 160.904 259.163
41.1039 141.579 315.668
46.2743 215.634 87.2667
83.2617 60.8106 228.701
64.7595 424.492 264.202
52.729 25.2932 179.448
68.2136 229.354 163.183
29.528 132.586 255.082
78.6806 141.868 52.412
40.8108 449.634 309.372
78.426 25.2015 185.215
30.8601 142.469 135.061
39.8622 455.571 247.712
59.7688 263.121 196.657
33.2436 198.473 130.601
30.8158 184.874 279.983
58.0414 287.762 254.34
31.3235 37.7075 199.296
28.285 75.0484 256.492
50.6897 112.371 106.737
81.3332 192.45 84.2371
44.2459 269.962 260.517
82.9961 120.663 69.1372
53.3166 261.826 190.772
28.3956 418.079 304.92
46.8393 144.377 100.634
49.4949 80.735 75.6731
63.8146 274.302 243.292
46.9445 248.605 243.167
36.925 432.408 237.244
40.7808 294.402 250.215
65.7566 114.597 54.1241
48.1273 170.824 294.208
49.894 284.906 234.368
45.2501 128.914 211.989
72.5719 226.16 257.216
72.9639 59.7345 234.352
74.7802 288.225 241.904
96.1172 163.877 274.513
27.8283 59.2192 242.073
35.0924 126.443 64.2591
28.6852 428.294 252.243
72.2815 426.242 232.141
53.5824 168.891 100.431
52.6118 104.53 274.196
86.4484 174.832 255.784
63.3458 262.524 165.648
62.1039 300.256 231.157
48.8849 88.1371 130.136
82.4601 58.382 150.375
28.7498 415.96 270.056
29.805 141.43 170.893
66.2655 306.904 240.356
41.6335 124.418 284.307
29.9704 152.924 227.05
41.6308 307.293 237.643
102.367 129.784 253.939
34.3224 173.102 114.617
33.6154 228.619 122.632
30.0765 169.711 242.274
47.8701 108.624 58.517
28.1989 77.1036 224.929
54.0788 117.869 102.18
38.6206 249.363 154.701
43.8463 139.834 292.035
32.0645 121.427 79.1211
46.4193 71.2102 266.87
68.8426 390.905 250.579
71.8121 235.02 247.734
43.6466 231.994 103.947
67.2687 416.717 229.555
38.0206 148.035 294.694
35.5283 80.0934 88.6539
32.6668 82.8329 116.212
31.6645 77.085 159.506
28.6999 422.215 245.386
90.1805 52.7718 220.143
85.3731 112.128 222.29
46.8318 144.06 52.2693
57.8151 409.663 302.337
79.7823 192.84 279.924
54.7832 147.249 92.7297
41.6068 283.157 247.867
31.6169 178.425 226.533
29.2609 306.691 281.664
83.1874 60.6879 129.265
61.6498 70.8675 170.681
35.6158 44.4816 158.755
63.3424 292.714 231.737
75.4796 69.2997 182.252
56.6387 447.889 294.418
63.5912 423.148 227.704
34.6137 322.523 265.677
67.8355 56.9912 236.42
52.4552 180.646 58.7993
60.1409 157.771 91.1348
44.1187 174.664 202.665
55.4434 316.92 248.692
32.6725 101.695 118.292
55.7684 310.157 261.28
31.5516 225.832 205.774
54.542 431.497 314.107
34.2662 430.414 313.205
69.5962 292.383 243.535
34.5121 413.451 314.028
34.2323 204.093 92.1929
65.4701 70.8319 77.4315
44.3625 281.196 293.615
33.4025 202.628 115.468
47.0531 203.683 193.613
60.3468 25.2956 171.094
43.3928 325.246 313.809
84.0358 103.584 79.5288
76.5069 182.674 271.155
83.6564 158.042 254.508
72.1887 24.2016 205.268
50.1574 46.8747 249.053
53.3081 313.323 283.369
73.5 164.192 54.1181
35.4601 234.102 245.775
33.3779 185.908 99.4688
47.0751 199.344 152.377
47.3404 236.228 108.598
46.3143 197.308 166.906
55.6609 106.647 107.605
30.3934 156.574 243.544
36.1811 144.925 313.725
81.9282 100.998 216.586
66.4071 284.463 290.684
46.1868 51.2217 120.545
33.1449 154.266 98.6295
89.507 59.421 177.829
62.159 26.5546 157.782
36.5767 319.5 317.192
65.3116 224.351 151.71
30.7151 117.605 206.656
74.1588 197.71 103.462
74.3983 117.77 54.5156
56.1475 424.628 294.788
73.0898 298.685 254.421
73.6804 70.6248 240.749
65.251 103.758 218.941
78.6413 240.123 120.804
51.7339 325.486 252.43
31.871 180.197 219.872
36.3172 108.542 66.317
54.7722 291.47 296.931
28.7243 77.8339 215.171
56.3412 272.086 245.9
89.0896 195.503 268.157
36.7458 389.854 266.23
74.5842 169.084 260.207
78.6368 209.327 107.394
42.949 76.5837 273.971
53.3966 283.02 299.199
47.3724 79.8727 269.31
43.0705 256.136 203.346
76.6565 100.337 93.7048
48.2436 396.801 314.006
110.015 64.9095 212.659
60.1619 63.6426 243.669
53.6202 58.1403 96.1078
60.1215 120.972 265.172
86.9034 88.8072 79.3013
105.82 54.1715 191.2
46.9407 252.002 145.512
77.9105 107.826 222.396
44.4385 148.193 226.046
50.9482 192.19 116.563
32.0244 212.101 266.39
39.8689 320.415 261.449
69.5512 405.788 270.623
30.4694 158.61 162.987
65.5481 132.138 85.1274
30.1832 40.5341 223.374
64.3234 458.53 240.326
60.4081 392.626 293.032
67.0112 100.134 60.3593
32.978 150.686 121.902
60.0537 30.3082 148.405
52.1804 47.6052 116.704
49.9905 379.539 288.636
44.4541 172.238 131.085
59.8575 324.713 291.447
89.6016 129.916 267.988
33.0319 146.61 103.791
76.0257 25.4327 156.327
58.4506 394.845 239.768
66.3214 122.128 232.715
30.5122 205.483 252.094
91.8315 100.691 255.443
32.5493 314.27 278.064
68.5707 117.159 228.567
57.9021 323.737 269.592
87.3421 78.1627 90.3259
49.2539 439.639 315.83
39.3881 424.792 318.214
42.087 281.984 261.251
34.1091 114.975 99.6731
98.9778 75.8476 198.832
68.6976 304.51 249.936
59.4309 133.618 285.987
30.4561 161.4 235.179
31.2588 218.724 122.47
41.2549 255.76 192.312
80.0357 235.81 130.27
46.753 287.387 242.343
41.0888 218.141 90.4056
28.9632 125.776 263.574
72.7327 449.844 256.393
29.2241 169.641 266.421
29.8609 51.8938 178.847
34.4109 179.152 146.025
63.6951 57.3962 90.2901
44.1567 140.093 117.895
29.6997 401.32 278.189
45.7737 186.805 140.431
33.9577 180.366 73.4048
29.2323 437.698 253.329
92.2198 50.8889 144.489
57.2789 191.952 249.433
68.8379 190.784 102.639
31.4768 93.9698 87.4809
69.9755 109.663 222.693
44.7396 393.308 247.759
77.9601 72.4754 117.05
49.439 58.8978 100.464
56.1073 86.4623 260.059
88.1441 38.1892 124.622
31.7404 300.13 283.526
50.7529 315.699 237.51
55.6411 444.526 288.216
85.2347 111.838 62.6825
60.3612 410.152 283.956
56.988 188.303 60.9599
32.4389 194.293 165.285
85.1661 175.931 272.872
61.2786 246.419 115.839
28.6988 166.944 281.734
31.0698 72.4311 170.234
28.605 45.6206 234.795
43.2943 293.172 242.019
99.831 32.391 182.926
31.5273 319.216 258.174
55.7164 74.4984 161.016
66.5692 62.9829 83.9887
56.4323 88.1506 187.362
31.3865 178.603 167.281
72.4353 64.751 137.574
96.7767 39.7666 147.444
91.5724 44.2762 124.376
50.9247 256.553 146.643
69.431 260.348 158.066
57.8735 413.862 291.596
45.2015 208.068 78.4333
56.2387 231.573 96.4561
60.1416 456.911 285.332
31.3918 138.96 140.322
88.1822 136.298 238.004
80.5107 114.433 78.3312
47.9939 468.602 268.081
60.8134 137.488 49.8102
51.4361 207.976 157.775
43.4064 163.455 207.59
32.5629 97.4214 114.317
63.6881 87.3186 250.359
34.2457 448.747 248.659
39.0373 50.3565 133.799
77.994 137.643 75.4476
64.2657 45.0352 229.896
85.8984 81.4709 199.731
109.143 54.9906 199.002
30.8587 211.167 230.958
32.4969 119.523 69.1813
32.1471 235.19 170.034
75.3592 196.121 98.193
39.4298 296.501 287.764
30.6946 138.732 208.708
43.2147 132.241 180.038
52.5386 78.6515 137.72
45.0807 292.495 234.546
36.6497 210.44 90.5745
41.7232 133.253 186.031
54.0615 92.9672 189.909
101.56 61.7361 188.613
91.308 192.401 273.722
43.1799 160.132 181.098
48.604 191.692 227.159
62.4592 312.716 262.906
79.8472 84.8887 203.151
47.6921 273.853 248.04
33.5123 97.8331 175.524
35.6838 183.081 112.528
63.5892 291.431 277.437
50.2093 84.0786 161.97
31.0777 37.907 206.027
51.3057 272.774 244.028
46.6234 106.909 144.853
52.8448 25.6761 218.396
52.9752 191.166 14.6699
28.8041 423.339 271.282
31.707 396.343 297.689
88.038 55.5164 140.239
31.9996 180.52 158.57
32.1127 109.194 77.013
68.8033 64.1189 146.164
70.8975 288.123 262.683
96.9301 42.2173 206.181
57.3208 75.4164 253.496
35.7139 400.009 264.513
41.0541 107.497 61.9465
31.0926 197.47 231.435
60.1319 67.58 151.825
58.8387 167.235 52.9421
30.9785 169.326 165.861
49.696 195.13 289.242
44.0298 208.191 281.378
67.9838 280.345 283.135
60.4192 107.092 56.6812
29.9057 126.18 244.375
45.7277 131.257 53.5484
31.1429 131.064 131.282
95.5893 80.2997 234.899
59.2326 47.0742 237.609
34.8732 175.747 290.942
54.151 213.727 198.7
29.7752 398.92 271.569
67.859 74.6169 244.778
56.1809 469.366 268.454
35.4017 309.762 296.335
68.7759 455.238 261.826
100.875 146.318 262.358
49.1361 31.5169 235.744
76.4139 403.918 250.787
59.6717 76.7724 129.817
56.6523 122.891 96.9261
61.7583 313.512 250.339
51.8946 139.934 50.6213
50.7487 193.424 234.497
98.3165 132.562 264.967
38.192 37.7816 165.749
40.2994 206.447 84.0526
54.783 243.392 256.936
35.3155 31.6066 224.376
42.1062 298.862 244.462
70.4616 174.961 91.8268
41.8645 48.8119 256.987
55.3798 103.52 265.71
56.8181 261.567 211.842
69.3672 291.914 272.185
48.6534 280.798 278.108
86.1998 57.5743 133.618
43.9335 199.011 14.6046
38.1849 288.805 282.887
81.0944 145.624 72.5861
37.2378 50.8064 262.038
56.7726 174.432 55.1338
84.0754 54.1855 224.054
56.0925 73.7398 142.773
96.1752 47.3745 162.249
31.0418 122.28 134.376
51.2391 396.521 240.186
51.8855 141.971 289.771
49.1356 52.4844 110.661
51.2385 102.313 59.5134
47.0934 390.58 308.81
58.5895 68.4556 250.863
98.8083 69.6675 195.245
28.3667 360.161 345.78
72.8198 109.546 57.1679
71.3435 238.752 228.151
52.0956 324.752 300.385
81.8263 195.961 91.4314
31.979 405.099 252.535
39.8564 46.318 140.965
51.2531 182.194 246.021
90.6881 53.4256 125.161
108.137 94.8225 224.324
79.5804 242.069 131.169
32.5075 175.442 93.7375
31.8631 40.4296 181.805
44.5228 383.293 286.144
63.1348 185.452 101.305
65.587 88.7486 203.156
30.7371 77.206 112.273
63.365 307.481 250.789
31.7421 117.641 75.3832
65.3297 395.635 275.934
101.52 31.4406 165.302
63.9968 134.515 268.048
77.0007 285.551 262.863
92.3413 169.637 282.746
32.9192 195.344 25.1602
34.3962 297.641 264.279
71.4144 87.4129 206.64
31.0819 104.275 83.2369
33.1082 199.864 98.9446
32.7009 195.226 214.104
88.2906 46.6547 215.999
60.7631 253.883 236.412
71.0584 432.009 253.346
65.089 161.137 254.27
104.662 40.203 194.532
48.9818 280.672 296.362
30.7121 401.477 302.389
65.7222 166.797 90.9313
31.563 109.585 87.752
47.2888 116.289 172.142
36.2753 389.057 293.283
58.0193 113.394 55.0198
50.3634 285.866 277.655
68.6461 197.716 108.637
47.6139 128.598 103.95
95.8353 51.0038 167.749
30.276 203.003 238.664
65.4158 89.7723 65.125
48.4173 90.7847 163.47
44.3218 178.639 30.6216
40.1644 31.4785 182.187
55.2451 286.912 281.346
45.3064 28.2659 179.407
38.1267 418.323 234.598
32.9787 211.867 112.887
31.7366 160.764 201.821
57.1345 86.3609 120.018
73.5351 27.5003 149.208
39.0786 232.951 114.539
62.0094 299.866 253.206
72.3782 230.437 153.317
71.1754 239.07 236.528
48.1279 327.693 248.159
53.0101 275.064 254.428
31.9771 87.1989 188.007
58.8366 72.2733 78.482
99.6776 38.8692 199.286
53.9445 130.75 50.7996
90.0818 65.7675 228.465
46.1055 192.629 142.236
32.0775 87.6702 180.602
43.7498 27.266 219.438
35.5475 303.441 245.958
31.5709 181.157 174.794
43.7898 176.036 183.993
70.2526 149.74 82.8438
47.7257 99.4223 121.652
71.1436 298.288 237.945
54.5775 331.417 298.885
60.442 52.4527 98.0554
40.7351 252.931 217.403
72.763 395.974 253.035
30.5106 53.9731 155.795
86.0407 105.712 70.546
43.8361 144.051 135.625
75.3276 289.108 255.972
36.1425 148.895 62.5656
62.0979 223.324 161.765
69.1647 230.284 175.17
30.8794 127.139 160.217
73.7348 413.42 235.669
96.294 57.9778 180.57
56.7675 323.91 253.09
60.7843 125.139 261.446
60.1231 243.017 135.442
53.2919 76.1879 154.247
80.23 233.665 116.735
31.871 237.077 187.925
65.2608 118.795 92.2328
71.0933 71.1561 77.1562
64.5165 81.0802 119.86
73.781 226.927 137.104
32.1435 181.22 193.028
44.0325 227.205 99.6339
63.7606 399.161 280.632
48.3664 242.384 253.178
53.609 94.4895 63.8288
68.2027 62.7796 154.92
44.6816 403.035 237.748
50.6794 42.4287 130.606
33.7095 456.305 294.912
62.8097 259.586 214.709
68.1768 265.856 276.089
68.5248 241.178 250.288
36.6253 30.6672 196.257
62.5655 99.5918 214.239
46.1824 132.271 165.285
90.1542 50.1121 113.933
65.0167 460.192 268.441
59.1984 98.6671 60.8575
64.1104 261.485 153.587
30.7805 310.467 258.48
56.8058 436.141 303.13
60.7562 246.944 249.314
44.9256 157.409 151.883
35.1814 139.934 62.8247
67.8273 68.5135 177.887
70.5667 98.725 100.49
31.1069 107.065 194.228
79.1677 242.298 150.922
43.5403 116.883 57.6531
63.7398 21.6135 204.198
52.7878 300.655 316.249
34.6115 405.692 313.327
53.4158 258.755 152.975
44.9327 37.0619 245.236
66.1184 159.036 50.9995
59.6504 202.751 69.1292
69.9681 235.886 188.73
46.5216 431.158 319.334
68.6973 243.981 118.277
50.8754 56.3889 254.595
29.5309 399.898 293.618
89.8489 89.3377 244.136
34.579 296.486 251.698
38.7717 417.451 318.404
58.1731 63.2454 86.701
42.9982 117.917 285.064
31.659 155.534 196.775
28.5818 429.784 302.114
73.5001 76.6318 238.772
62.3487 199.171 112.354
81.103 45.2917 218.499
46.1441 147.945 148.381
32.9886 205.339 134.248
46.7454 280.98 246.938
46.193 177.156 19.9666
68.1569 224.413 87.9807
67.2863 258.234 146.148
49.6339 50.422 254.491
31.6753 87.8026 164.329
70.3856 182.795 292.199
42.9779 240.007 121.122
31.7175 98.2084 141.225
35.7468 294.965 274.814
69.1311 420.667 260.602
30.2673 125.525 223.463
55.7144 432.69 228.486
61.1441 282.877 295.005
44.2134 114 184.197
53.9534 128.491 267.886
59.5873 259.297 221.753
46.6278 70.2492 88.208
31.8864 172.055 152.608
49.8396 119.195 264.153
56.8465 401.051 234.94
106.13 66.3924 219.331
27.9897 432.249 259.256
59.8653 442.75 269.373
69.8152 303.368 262.186
73.1362 136.624 80.3043
54.3966 214.776 212.017
31.1715 406.883 306.901
61.8297 154.256 248.855
34.2409 42.7447 168.46
34.8656 211.107 273.764
85.5371 121.399 255.152
33.5677 447.425 305.169
57.4131 307.385 234.595
63.8113 227.986 174.407
68.3113 196.751 290.112
103.057 47.7624 209.5
40.3109 442.381 238.019
60.2379 83.2711 71.5815
31.3848 88.8417 142.344
45.6286 139.088 152.02
77.0125 150.786 53.3676
63.5232 86.186 114.721
61.31 39.235 124.723
32.7335 163.593 194.212
49.026 90.6659 171.282
66.3762 159.326 88.4842
62.6426 172.164 94.8117
72.5857 95.5829 215.519
34.3083 190.664 92.1892
36.3695 84.7021 82.6868
83.1394 75.5626 237.559
41.1578 302.787 264.375
71.9072 127.527 235.554
48.2959 280.354 240.019
51.7444 75.2859 78.4431
66.0626 51.3641 233.232
32.5872 392.718 279.198
50.8786 382.253 263.344
31.2361 88.0261 149.104
43.7396 132.584 287.489
44.4396 140.913 140.141
52.9861 97.3089 114.531
81.2115 27.832 146.999
33.2624 45.606 174.717
91.4072 52.9811 156.658
45.9077 446.884 313.421
30.8663 298.882 256.287
109.269 45.1023 192.8
76.1569 420.664 237.239
33.5229 188.887 107.092
68.1251 21.5628 196.111
42.2589 460.906 252.031
33.5878 315.685 263.594
28.7098 107.46 255.026
36.1107 285.985 251.702
50.6891 209.202 186.444
65.8347 271.664 250.605
50.3744 95.6209 250.278
74.2951 89.6362 65.6434
91.1429 116.27 254.867
51.404 186.8 11.348
61.2139 386.212 284.777
54.3111 321.596 306.877
61.7764 309.945 244.879
38.3306 233.353 120.847
31.5376 421.842 311.461
29.7957 105.447 242.457
45.3346 138.512 174.968
51.22 174.126 104.992
72.587 394.915 260.492
64.2755 32.83 137.487
74.5776 117.975 83.8083
46.4345 280.534 256.27
43.8624 173.084 138.179
64.1317 172.319 32.9309
57.841 385.117 290.668
94.3109 37.2805 140.14
44.9915 147.543 162.614
30.7101 166.849 260.492
32.6578 100.932 128.518
42.1426 388.681 302.767
40.256 401.049 242.272
46.4163 196.872 139.852
51.8818 438.105 230.701
45.7895 113.595 177.435
43.3076 150.991 215.173
31.2183 411.094 247.083
73.0995 123.396 52.3622
34.7196 165.748 94.874
34.7998 37.7735 240.465
93.2409 50.0141 150.794
91.9521 83.2495 202.71
54.0643 296.738 300.483
47.2035 107.175 159.452
67.5545 247.511 123.275
50.9098 459.754 303.386
42.739 168.201 166.445
71.1477 259.527 189.04
48.0472 25.0165 214.137
66.5963 235.603 263.973
58.906 262.065 159.999
58.0945 215.332 277.555
97.2089 52.901 217.4
31.2487 161.327 154.112
56.2725 449.427 302.842
78.6475 92.413 205.87
44.3489 191.138 156.487
34.153 289.311 266.695
57.6681 381.1 282.504
84.3476 80.5021 77.8679
43.4942 278.942 278.114
46.6655 255.977 224.207
49.789 80.8863 151.249
42.7463 175.86 161.429
64.0633 68.2118 165.709
77.7218 280.084 251.352
53.5683 161.808 52.6536
31.2251 143.641 309.383
46.4581 407.427 234.959
52.7759 449.788 309.426
75.9869 78.3576 72.3446
64.0777 144.9 87.3277
44.1486 86.233 274.718
74.9221 245.782 126.733
58.4486 23.9827 183.058
76.5117 252.754 152.616
44.1036 112.31 276.89
31.1944 60.2395 265.831
43.629 455.644 242.121
83.3872 112.564 72.8682
74.5294 283.395 247.587
31.4509 146.016 162.778
73.3156 257.499 176.494
77.0016 227.651 131.4
43.9226 157.113 174.486
31.4955 414.145 241.693
52.7995 112.754 257.048
56.1711 294.157 291.142
98.7349 95.2694 215.652
47.6075 200.452 158.253
71.4462 74.614 122.03
70.28 82.3891 68.8314
66.8924 389.943 273.264
103.004 52.8561 180.848
72.1148 243.689 188.362
57.2128 407.726 309.26
28.7361 441.662 261.106
56.5052 237.527 263.869
76.614 174.25 83.4586
106.444 87.5039 229.624
65.9484 417.633 267.547
38.2565 58.7204 267.049
100.066 47.1801 175.296
66.235 250.24 236.492
62.8199 169.614 291.229
44.8573 324.549 269.335
48.8396 38.2562 144.607
57.4411 96.7805 244.786
67.6465 232.291 194.663
36.4845 248.305 160.961
84.8284 138.225 269.449
73.6811 216.802 266.764
74.4331 64.9675 81.7281
59.6694 175.663 98.6487
57.3458 21.9569 203.378
66.9616 29.1375 145.857
73.5476 78.4004 112.956
40.7997 437.027 316.275
30.7422 432.709 241.475
84.9488 410.509 251.984
68.8528 223.808 274.42
54.97 182.564 103.985
70.8645 177.402 264.439
72.5054 294.948 261.553
55.3362 461.783 296.905
33.6547 290.185 253.569
98.7277 140.992 263.2
30.5365 71.1975 129.611
44.342 165.263 147.558
34.5156 317.252 251.306
49.0553 309.82 315.683
57.8535 182.821 290.605
67.62 234.421 100.014
54.215 135.136 275.02
30.8656 105.719 286.957
51.8119 320.92 241.457
70.3701 236.877 170.253
90.1401 63.1231 239.855
75.5274 146.919 78.5818
65.1395 295.119 261
51.4916 76.5507 261.472
78.7361 38.3676 215.773
48.2065 134.556 99.2984
38.5252 288.447 241.514
33.4816 182.422 138.623
61.9083 90.5157 257.059
33.4073 458.607 282.665
40.5449 183.933 290.198
61.8065 399.727 290.051
63.5317 269.957 282.649
48.5506 227.109 269.579
38.4343 139.042 310.093
50.8707 407.773 300.004
59.6813 232.236 269.509
79.4017 175.679 267.925
35.2097 90.8371 283.145
76.1624 183.611 91.2687
39.9019 39.8455 214.786
67.5001 130.83 261.165
50.1364 65.0686 89.5102
77.1495 179.1 87.0934
55.619 130.71 93.5409
102.599 74.4199 224.449
56.8519 119.958 258.557
79.2838 58.689 159.213
55.327 432.872 293.639
67.9836 427.236 257.837
32.9204 203.537 168.208
58.655 37.4992 233.863
81.1223 227.365 111.784
35.0746 123.59 291.807
73.0923 61.2086 158.364
76.9901 201.927 73.0182
31.3309 180.162 185.916
50.1197 213.22 80.8928
73.3568 453.724 249.115
41.2014 59.2645 108.929
76.2885 115.21 226.077
42.433 177.743 25.5118
66.9939 231.312 221.217
28.8592 184.465 268.981
43.2781 61.1075 103.237
42.4614 89.2884 71.6039
63.6899 56.6673 240.172
54.7187 35.9216 140.007
74.5346 144.863 281.886
75.5967 76.4687 244.744
54.394 262.438 203.155
30.7203 162.395 256.029
60.9922 468.024 258.252
80.6879 71.107 78.6205
102.536 58.3025 218.216
64.1708 124.656 89.7282
42.5379 381.684 275.136
48.4288 120.368 214.265
79.5632 110.269 57.469
54.5945 319.304 319.213
32.629 49.6329 257.328
57.3786 463.848 289.918
58.2547 397.505 302.575
52.5134 77.4168 145.711
32.0171 392.826 285.777
37.1691 64.7209 108.537
40.5291 384.233 290.743
70.6273 148.411 286.248
103.591 33.4955 175.766
50.7326 54.0174 105.243
73.3154 34.32 217.065
42.2654 289.234 247.393
62.6072 23.5227 210.957
43.5731 169.615 157.885
84.0985 50.2052 102.875
48.2509 87.6408 70.2336
90.0166 166.188 263.843
49.0748 273.107 259.329
60.4895 448.311 271.975
43.5404 386.138 260.335
71.6759 124.328 83.7822
48.729 199.959 19.1411
85.2615 170.368 266.446
38.5787 120.862 59.7742
52.7424 164.456 293.984
40.5911 114.83 288.679
32.2877 224.439 232.748
48.183 133.548 282.68
97.6256 26.743 171.907
59.9559 107.098 219.554
62.8268 114.335 96.8311
53.2162 383.922 256.507
110.132 71.2097 209.335
62.7811 199.411 251.631
83.6282 121.056 60.8189
58.344 55.8535 241.268
61.5866 45.4428 108.295
76.4212 437.457 239.072
56.4834 278.168 267.46
55.5638 418.929 314.205
47.6718 187.746 120.026
65.9845 228.252 157.243
34.3436 194.59 99.6431
69.2211 125.111 256.011
46.3094 332.568 298.432
41.2774 240.583 249.888
45.904 104.127 175.989
49.2265 97.9996 186.623
60.1706 436.4 268.495
44.621 126.349 289.555
50.6104 380.095 269.562
96.9688 102.811 218.941
67.1457 262.179 172.071
43.7139 166.774 124.216
29.682 112.937 240.276
42.3496 463.86 293.904
45.9788 173.878 58.4031
69.9945 98.8113 239.841
92.5183 54.601 172.642
37.5053 312.451 318.358
60.6265 150.178 288.837
71.5583 139.371 283.764
33.8952 308.151 271.244
76.7415 53.1616 93.5924
89.1132 106.923 246.825
30.3063 147.435 245.806
68.5793 370.199 285.864
32.098 163.364 158.372
72.531 250.215 131.3
72.8509 223.186 263.383
49.4784 260.154 207.839
59.6377 308.543 240.141
54.4551 80.531 259.931
90.3016 174.398 277.896
76.9979 421.719 243.784
50.013 424.266 319.249
94.7162 148.5 253.452
37.6229 459.683 259.746
80.8201 86.939 68.3282
57.37 446.566 278.587
75.1969 110.819 87.9596
40.7855 276.919 270.924
32.1512 185.293 155.263
70.6133 72.7348 186.81
68.7717 118.734 273.961
38.9205 287.726 269.615
57.0928 409.264 231.481
53.3307 116.551 267.244
42.2395 122.884 201.361
31.2903 129.251 83.8724
30.4829 123.431 228.439
42.8142 434.523 233.166
69.8051 460.326 248.831
36.3782 65.03 117.549
66.3089 52.1167 95.4062
59.3863 212.833 229.867
32.4561 105.286 178.617
55.9873 432.446 299.011
55.7896 148.039 242.33
70.9425 213.076 254.633
40.6848 329.068 271.663
65.6667 172.839 54.309
36.8551 219.216 267.261
33.5703 108.9 157
44.192 137.891 123.716
79.0437 163.984 257.335
56.6634 211.512 76.0322
65.4968 206.435 286.978
96.3367 111.064 222.668
43.576 152.355 155.215
59.3388 314.851 257.227
53.4302 270.548 302.809
82.2784 132.972 272.117
50.8944 61.9315 256.844
67.0626 143.247 285.032
91.9337 75.2564 196.613
79.0682 24.4733 164.5
70.7294 168.677 291.448
37.4567 326.123 278.527
70.6651 229.607 93.872
63.3563 72.7619 247.601
62.2055 411.944 276.565
47.7099 187.252 291.027
49.43 114.434 286.542
65.0917 85.1949 243.639
47.1052 105.829 259.088
33.4224 198.346 119.533
64.7564 67.8054 243.833
71.9639 85.5948 250.612
63.7877 308.349 268.135
62.1241 225.453 180.209
80.1606 128.986 53.1799
57.549 399.987 306.564
56.7603 468.046 284.083
38.1137 191.282 73.2066
78.1425 248.032 134.76
29.6431 151.725 171.947
44.53 154.549 133.556
54.4025 257.426 224.806
46.1956 290.335 253.054
64.6007 209.05 73.5793
69.8915 114.316 90.6489
51.2432 194.605 22.2151
44.601 428.655 231.4
65.4279 249.768 128.324
34.6897 71.6873 108.133
75.123 29.8148 139.749
79.5825 80.6572 198.477
29.9501 115.905 213.808
84.8378 92.7411 245.747
57.8111 279.163 287.16
69.6779 35.1493 126.275
52.9038 260.987 181.027
38.1794 75.1218 89.8492
38.1373 68.3428 100.56
39.7803 31.003 231.011
62.9676 191.259 106.111
62.6948 227.257 195.119
58.1274 227.065 273.528
50.7268 103.187 280.627
74.2513 125.107 277.229
54.224 65.833 254.836
64.0934 412.483 271.855
87.6286 104.888 219
61.0138 140.066 286.234
44.4868 172.875 122.993
32.6224 152.638 153.277
60.1353 155.125 291.821
52.0135 387.774 249.616
63.2546 73.5106 177.094
58.7893 294.774 252.973
34.1993 194.259 87.2703
47.5605 102.319 169.699
33.6931 317.006 327.178
78.4065 151.393 283.786
87.7385 180.054 282.749
63.3528 303.762 236.203
29.251 105.337 247.65
66.1059 214.018 282.955
64.8947 289.077 262.011
78.7221 93.7731 95.3922
31.6112 79.0656 104.797
57.2491 99.4558 110.063
65.3297 126.764 265.996
92.9923 129.725 233.798
35.5261 104.505 288.056
62.6415 466.674 270.956
56.4244 145.937 290.664
78.057 220.736 92.7757
39.097 96.2429 70.0476
65.881 385.964 260.334
52.8449 305.525 312.977
66.9461 63.5025 239.45
73.1152 416.411 257.97
29.5933 405.531 287.83
94.9375 26.7826 157.205
73.858 229.089 142.467
99.9444 68.1875 224.853
81.3957 148.229 247.209
73.1316 258.284 167.848
50.9214 328.389 270.467
49.693 83.0436 264.85
65.1451 225.864 167.449
81.3281 181.724 277.284
77.7686 80.4499 239.716
37.0195 411.718 238.454
49.5739 69.5749 259.54
79.8339 142.769 280.959
62.9817 290.885 251.709
73.527 234.089 102.304
53.6326 390.313 303.264
54.6455 285.432 287.865
98.3122 130.837 257.836
33.6665 96.7938 285.797
70.4386 83.2918 243.759
60.5627 387.976 248.83
60.4708 308.602 254.768
84.0891 29.2818 139.608
30.4943 440.385 248.512
47.5317 106.731 154.466
45.6037 380.44 281.296
45.6511 94.6375 150.473
97.5646 158.618 266.456
47.008 95.8255 167.885
33.0977 227.618 219.049
85.9074 66.6711 93.9685
74.449 194.863 67.3363
46.9248 411.283 320.759
32.2408 309.712 249.314
84.1593 140.365 277.208
102.156 133.886 248.673
68.9883 340.006 338.92
50.8396 299.677 322.91
33.6113 440.652 242.69
94.0198 85.1434 239.123
63.3405 188.823 290.219
61.5965 76.35 181.516
36.0802 59.2145 247.306
60.9295 113.386 275.074
58.2732 302.743 312.599
61.2502 297.754 247.597
43.7045 406.321 318.515
65.9787 158.805 290.494
29.6428 412.185 281.639
56.535 221.123 277.363
67.2687 219.804 82.9546
68.9657 262.318 179.028
69.0997 78.7623 248.33
91.8218 59.3237 224.374
83.186 159.419 286.24
47.5598 333.784 264.996
51.3482 273.717 283.451
74.9248 423.948 249.29
46.973 99.7365 178.959
86.5991 40.5452 116.651
89.3579 152.539 251.85
40.9504 449.469 239.797
64.1388 283.385 277.377
79.2725 206.46 92.2923
74.5799 85.0442 242.64
30.8543 86.4683 102.975
92.2489 156.161 280.444
68.0537 294.759 257.055
66.8634 197.15 65.119
41.5858 69.2428 93.5126
68.1572 293.2 252.682
65.8177 226.679 225.985
78.5372 34.4433 125.65
83.4275 83.9857 99.498
77.1546 124.654 78.6918
100.135 57.8899 184.978
89.7707 144.729 276.406
74.7184 32.5057 131.462
102.525 124.263 248.056
100.307 142.362 252.808
95.0475 66.6622 227.787
62.4276 145.603 286.635
28.8667 192.745 265.144
48.8403 105.6 114.505
59.0705 83.0371 247.216
52.3178 297.577 310.423
54.9396 283.877 273.385
104.306 110.676 239.261
33.3603 137.483 294.298
56.1757 197.755 114.926
50.8093 279.85 262.651
37.6236 129.205 292.404
51.8625 86.1747 179.828
48.8222 86.3818 176.452
40.1876 457.917 301.933
55.3417 314.649 238.662
84.8091 93.2278 211.96
43.8139 325.172 277.203
106.026 100.05 229.446
85.8192 55.4906 156.229
31.5781 98.9182 76.6753
71.609 252.281 188.397
97.5448 111.768 255.198
64.008 385.826 255.303
76.3878 227.976 96.9457
35.2454 211.524 79.2627
103.517 37.5613 187.592
102.538 82.8132 231.525
70.2541 285.485 267.152
76.2323 136.409 281.295
42.4541 168.895 149.408
74.7028 199.698 289.101
107.797 88.2901 218.054
80.1492 41.6191 110.098
33.2813 69.679 274.871
51.0463 286.864 266.832
75.4596 189.126 291.646
59.508 287.702 281.761
42.0605 175.523 171.591
106.293 62.1297 195.2
72.3869 139.274 266.946
34.763 185.863 82.6617
65.4376 116.156 249.518
73.0725 292.259 248.408
29.1413 412.976 291.905
62.885 404.736 282.126
82.4616 87.7862 243.256
36.1498 307.423 264.074
74.0124 234.315 157.123
70.8365 57.6333 90.3347
73.1369 157.825 288.56
35.1269 130.609 69.0163
76.0158 112.519 246.095
99.6141 136.933 255.559
54.2139 277.342 263.611
99.383 154.217 267.086
92.4441 164.566 268.843
82.9004 62.3071 175.239
77.0355 182.683 62.2404
75.8186 176.065 292.185
82.6285 37.8925 211.122
65.6971 437.989 229.717
104.895 120.12 241.763
80.8051 126.932 275.353
76.9251 215.425 84.9515
90.4985 98.4118 249.053
105.941 81.3684 224.862
35.0938 102.104 74.6053
87.2165 64.4546 109.448
85.5556 60.2921 95.6459
56.3457 292.677 282.735
78.9324 76.3095 110.396
28.912 411.103 301.733
43.1154 331.709 265.676
77.6201 215.556 91.5153
28.6662 110.022 160.64
49.0617 282.456 271.581
72.8597 245.608 180.168
36.0889 230.659 214.219
92.4297 117.391 264.769
63.2698 107.535 245.534
62.0368 292.097 288.528
84.2385 31.8942 130.386
53.7264 81.4365 185.595
92.3395 99.5538 244.534
85.5114 151.244 281.341
30.8581 109.384 165.174
60.585 78.6945 248.727
