ply
format ascii 1.0
comment Created by Open3D
element vertex 894
property double x
property double y
property double z
end_header
59.6395 150.122 33.4117
49.6549 56.3503 95.7928
21.3419 112.101 88.6107
51.6895 169.507 95.7553
26.5822 131.852 156.595
46.4898 129.956 37.8308
29.9956 126.597 116.215
35.437 106.92 65.9624
28.1379 31.8505 117.292
21.5448 62.2059 153.678
50.326 85.0859 134.701
47.0668 147.872 37.8166
45.8422 58.4952 132.497
87.5206 119.723 61.9865
37.3322 36.4891 103.776
29.1395 123.309 56.5604
40.3116 81.8176 91.5751
46.0049 118.273 192.96
37.2842 139.987 180.093
34.1177 69.1053 185.515
59.9052 157.39 157.886
24.0989 111.01 167.619
25.0137 65.0569 116.331
46.2578 33.354 135.494
54.9308 91.5367 122.746
29.9145 97.258 169.97
39.2893 113.214 198.19
53.5982 162.517 153.547
23.3719 130.44 79.1525
23.583 91.7604 66.397
38.1272 147.669 52.3528
51.1279 155.554 111.334
18.6149 141.503 133.819
47.7099 137.646 181.014
38.0544 48.0127 94.21
53.8161 97.9969 96.3417
23.033 31.0041 126.912
41.3051 92.571 140.705
55.75 177.025 111.272
66.3373 123.991 184.757
44.2014 77.6134 59.9483
32.7566 72.9101 115.002
81.3732 134.922 29.4499
68.8351 113.936 75.3225
34.9819 37.4354 138.652
64.3343 145.717 97.0096
31.5236 24.9548 123.721
49.7345 169.225 118.435
49.0569 106.94 145.922
25.4102 40.2528 129.087
18.9488 52.3232 132.352
56.1158 34.7704 104.426
27.8758 148.979 156.281
46.5414 91.3481 121.738
39.806 95.3115 53.4007
76.6273 115.572 127.573
77.1958 96.7638 184.35
47.4286 92.2845 50.3962
38.5334 113.054 175.373
77.4993 152.581 74.1536
72.9102 106.457 39.6133
54.6364 76.8193 64.2221
33.7402 80.0318 139.16
54.5321 71.9878 96.0042
36.3852 129.539 191.185
24.3933 124.106 105.791
35.4362 130.491 171.196
20.5397 86.7077 154.97
26.357 103.4 79.3564
28.9025 86.2929 71.0198
37.3554 121.128 150.962
55.5992 85.1932 49.0023
38.8709 143.386 169.025
35.6583 156.799 105.179
41.3264 77.3616 83.2816
22.6441 117.363 121.628
58.2674 87.4674 199.495
22.5405 93.6469 154.08
55.1106 78.8605 126.251
88.8832 155.693 63.1002
63.3911 91.3913 61.3687
40.1746 82.9126 44.4781
40.0846 57.9396 168.689
36.4777 51.1422 176.67
59.776 65.0261 188.439
38.0601 91.3029 102.09
38.0171 71.8711 170.927
74.6471 75.0489 99.9937
80.2594 125.618 186.865
91.3301 138.65 79.7564
59.7763 56.1679 97.4877
28.2695 90.2148 161.71
47.3031 164.751 132.293
53.6061 77.395 118.568
26.2069 153.772 133.067
44.495 119.538 75.0494
26.789 114.13 150.609
19.6873 117.393 72.0689
23.9992 146.127 146.8
45.8476 119.855 43.5909
78.4358 146.924 83.7604
27.3729 89.3435 90.2313
33.9847 94.2669 90.428
37.7306 160.279 115.77
65.9567 168.031 60.3031
58.7546 142.22 187.702
40.8955 63.303 122.198
72.3763 93.5947 43.5203
32.6179 144.965 83.8299
40.4051 163.695 141.03
32.1051 124.023 142.741
49.9439 151.763 92.2434
67.1683 89.0139 170.748
23.7409 45.6912 118.331
59.4607 101.571 203.447
34.4635 115.62 81.5085
34.2323 77.9111 73.5771
82.7921 129.787 33.7755
80.7971 160.205 82.845
30.2916 53.889 143.25
22.4379 141.82 125.57
27.1055 124.235 178.627
33.076 64.9196 147.045
38.2508 88.7549 85.7979
29.961 38.7335 144.811
51.4684 89.4404 95.0854
38.4674 168.045 114.436
61.1308 74.657 179.38
62.9859 153.375 174.061
59.887 23.4606 127.333
25.8179 64.9764 170.011
42.2777 31.1061 111.877
49.1323 101.299 202.912
34.1909 98.3596 64.2083
49.2309 154.832 170.808
27.3533 142.944 129.68
47.6092 76.7141 92.1528
34.1832 162.057 130.616
77.3303 33.3766 128.603
42.2721 55.8424 98.816
67.4131 118.656 179.076
18.2091 122.609 139.229
57.095 104.466 109.196
47.7457 95.3818 196.753
31.2092 105.7 165.572
27.5936 111.821 53.1109
82.96 107.379 51.9584
58.7664 129.335 183.842
68.6834 99.3925 93.6884
47.4373 96.2118 146.457
33.2193 147.309 116.334
45.1412 160.969 102.347
25.091 88.7152 130.353
28.6056 131.058 130.98
34.2315 135.822 59.4561
75.5156 117.546 176.409
60.2034 166.934 52.8216
73.9127 83.5067 172.971
75.7761 98.0812 87.5457
78.4129 112.651 58.7477
25.417 129.389 170.63
24.0297 34.7802 136.4
45.6196 166.874 147.827
70.3634 128.215 190.76
50.5812 44.9287 132.364
34.6304 109.098 144.706
65.9221 173.988 121.228
66.408 104.162 142.331
51.364 141.083 80.0752
83.9495 152.883 72.7703
49.7975 83.7278 84.3514
51.3778 138.127 32.6912
46.1793 45.1566 147.046
57.5254 92.7226 93.8801
47.1422 27.5942 138.792
33.9198 133.941 83.6707
47.7555 165.568 157.095
27.8348 90.8976 116.9
58.8974 97.6981 106.618
81.9091 141.695 132.122
54.1647 163.174 140.839
54.8992 143.461 178.061
54.7074 79.5435 92.5786
82.5774 134.037 178.787
75.639 51.4979 146.362
36.1168 58.7784 125.948
38.4732 84.5934 124.673
74.7521 137.919 104.789
68.8089 96.8444 192.254
23.8773 107.965 158.496
38.4329 91.4782 41.2372
35.9607 99.4696 146.346
74.8862 42.3684 147.571
68.6972 123.93 64.3542
84.12 86.156 154.332
81.5477 75.1162 164.595
76.6603 160.753 134.978
32.7234 92.2209 174.866
68.5869 104.236 191.823
49.6421 46.544 98.2967
33.8999 104.557 96.575
59.2477 138.094 176.14
20.0158 124.356 91.1138
34.891 135.442 115.306
62.8298 87.7917 153.283
24.3911 151.677 114.884
76.9151 122.427 76.4587
35.998 95.9449 157.138
64.4313 111.273 47.1998
19.8796 127.61 143.143
41.1652 133.975 82.9208
36.1941 28.1725 111.372
54.2221 168.635 130.932
50.7537 65.2137 191.132
50.0331 88.381 200.769
41.4209 121.969 197.233
67.3024 101.297 173.404
59.1236 115.578 203.485
37.2663 127.317 79.0734
54.6282 148.013 166.645
57.048 98.3804 195.142
47.3658 175.901 126.999
70.4696 161.377 84.4903
44.1361 31.0683 153.386
33.7638 83.3978 181.038
60.3602 168.983 131.768
56.7571 60.1224 173.206
87.4977 121.288 148.781
32.5035 81.7808 128.232
86.211 112.584 149.411
50.965 45.2928 168.42
33.3629 113.198 152.883
57.031 91.6222 45.5769
39.7352 60.9981 136.098
64.3258 176.186 100.946
34.3889 158.488 145.916
35.9292 118.431 163.381
39.8282 105.862 125.27
54.7236 38.9326 157.936
63.4429 81.9095 100.932
96.0655 128.076 63.7593
33.3934 130.982 99.1024
37.3565 51.0895 145.419
62.2647 90.5381 70.0257
47.7936 132.722 53.881
42.7193 98.8869 129.412
74.3335 99.3335 153.366
57.8098 148.383 88.6973
41.8468 48.0964 167.666
49.7192 43.1227 160.026
71.1765 109.906 80.3418
25.8252 137.7 171.207
32.7304 88.496 61.3916
64.7936 68.896 174.081
40.3125 145.137 60.9119
56.3573 99.8335 28.7597
45.7438 102.449 117.539
39.9484 94.9818 193.552
88.3006 136.173 170.171
26.1261 138.068 84.1502
72.6368 157.584 161.321
52.9941 39.4407 149.95
29.6321 62.5032 124.664
41.3213 170.129 125.635
20.9245 134.891 137.102
50.2438 38.0097 102.571
45.2043 90.6509 41.7001
37.0466 117.067 186.067
22.8222 104.192 97.9818
74.0598 115.478 186.712
80.8374 139.884 84.9753
72.5888 36.2156 154.517
48.937 128.723 70.8002
56.6345 113.686 72.9832
75.5063 103.422 51.5769
38.428 86.5349 189.087
66.4426 75.4033 147.05
22.2168 94.1026 111.984
27.3886 54.948 110.824
60.5025 73.4946 100.015
31.6266 96.4873 46.9042
62.6576 162.13 143.648
49.5748 155.627 159.441
49.034 34.3309 156.1
76.3411 42.4057 125.856
60.1308 49.3343 106.62
71.0201 110.203 105.238
32.0108 115.381 121.642
75.7624 98.9975 104.026
74.7472 143.495 158.608
38.8665 138.483 91.7259
30.6971 122.714 153.223
68.8058 43.675 146.11
29.1731 106.55 151.037
64.381 142.434 103.025
79.8294 103.968 126.824
74.1271 71.5193 124.134
74.1311 76.3774 116.434
46.7606 52.1656 176.148
59.9042 107.981 199.173
42.4647 114.461 142.884
57.493 78.8712 73.1596
24.544 139.233 106.655
31.3679 104.053 192.794
88.703 134.467 68.2409
44.1993 41.2535 166.674
40.81 79.1297 141.505
34.5322 117.394 98.1122
69.5384 81.3941 65.7707
43.4299 41.4819 155.203
34.9976 56.0145 161.051
73.6677 139.477 48.9619
36.2847 93.7364 118.213
37.6421 86.8124 197.651
42.1361 151.779 106.279
74.6912 111.366 72.6038
32.1368 105.845 120.847
60.364 98.7975 83.7177
69.3087 139.8 162.868
24.6969 135.057 143.65
67.4582 67.8377 91.726
27.6622 107.847 69.6479
47.6641 69.6992 82.2868
53.4347 50.7736 175.643
28.6972 119.204 71.2666
87.9698 146.487 65.6649
48.9603 153.596 102.963
49.7384 156.523 82.5631
50.1007 43.2318 92.9235
82.2959 123.458 49.9291
30.844 98.4096 107.456
35.1978 104.079 180.368
69.5552 100.935 41.4133
64.9604 81.5324 58.713
20.3036 134.388 159.545
32.6411 82.5048 51.056
61.4068 108.098 191.066
35.6155 104.007 156.38
68.5622 82.5601 126.665
51.9844 110.948 196.438
62.3683 100.086 151.918
50.9897 67.1963 179.402
59.4298 106.087 98.998
27.0575 121.127 82.4795
52.6721 96.7466 48.9922
29.2633 98.1369 59.5047
42.8685 36.3074 143.744
57.5127 30.9828 148.306
27.975 119.251 164.972
62.002 104.15 73.9309
26.7982 64.2179 146.684
21.9463 126.638 83.5143
31.3926 86.4371 190.213
75.1961 110.282 146.295
26.9286 54.4047 124.962
28.3138 136.325 115.616
38.142 109.567 190.28
59.7251 158.397 32.8103
47.2038 33.1699 106.585
19.8527 43.4766 129.462
54.667 120.498 29.1301
73.1336 159.257 73.9011
24.6526 79.2819 176.571
74.6007 160.102 144.233
31.8657 102.617 114.237
53.0375 57.8409 184.319
26.6893 115.375 99.2881
19.0439 96.8741 88.2343
71.3069 137.731 172.373
60.7519 129.457 69.5335
76.2976 154.027 122.841
52.1093 154.699 54.3335
68.0439 47.9253 173.087
77.5223 101.985 169.898
73.5732 59.9236 108.684
76.9256 151.871 152.391
60.2537 81.3454 93.465
35.0693 87.7242 152.376
55.1331 75.3092 79.8879
44.3152 140.115 82.761
25.48 151.885 141.831
31.4317 85.1772 172.396
63.8719 91.4043 194.31
32.22 113.862 178.672
47.7202 128.935 191.906
77.8209 117.152 165.634
67.2979 101.144 62.3652
46.1435 113.98 34.5891
31.4282 39.5622 105.888
47.1025 23.3755 124.069
21.8645 134.945 116.073
59.3837 143.907 44.5148
38.5769 47.6112 155.556
69.2128 155.678 143.243
33.723 54.8815 113.492
59.7724 37.3019 162.74
91.0651 138.895 96.9468
76.2699 137.428 93.1857
90.7019 106.849 162.86
55.8079 43.7059 104.718
26.0829 97.356 102.811
27.581 58.7555 158.816
51.3938 121.557 203.093
27.7911 78.9263 121.109
77.2263 99.9419 161.648
35.6842 109.464 74.4573
75.7124 134.741 122.64
44.3295 118.837 60.6316
45.4192 80.3214 75.7988
77.8785 54.2505 157.252
78.5843 90.7713 176.556
67.0622 56.7869 178.243
38.2526 130.747 160.916
47.8423 83.8152 191.975
62.136 71.6145 80.894
43.897 108.994 60.1859
42.3439 95.5092 36.9545
67.4711 72.3805 99.7748
78.3837 54.5146 121.089
32.137 110.675 129.438
78.2529 154.846 38.5817
20.5827 46.1373 109.77
72.4965 147.16 126.923
27.894 64.2561 175.069
51.5715 64.7571 100.539
42.736 84.4244 192.956
39.6974 63.0292 110
69.9546 44.4118 159.366
65.8503 85.4183 69.6319
74.3807 153.713 31.6711
39.6329 79.66 131.487
31.222 109.94 185.593
59.9675 132.233 196.098
65.7913 141.739 171.371
54.7151 159.757 45.7041
87.8471 106.513 143.731
46.3285 110.536 203.219
67.9917 155.062 126.543
41.7746 102.105 195.991
39.8564 147.434 93.5852
87.925 95.1811 139.92
57.3249 46.7447 170.139
77.3022 63.0819 165.476
80.67 121.143 148.354
40.3176 59.4518 177.424
23.3145 37.2761 121.931
68.3797 42.9861 100.77
51.94 160.604 122.687
32.9621 51.5614 102.077
34.0533 92.57 127.197
46.5943 143.01 92.4062
76.4046 155.227 64.2753
55.2481 133.728 54.8017
37.0183 57.6074 102.067
61.7626 39.014 116.109
28.9954 110.477 108.961
62.2051 84.5877 162.879
70.529 128.562 177.627
43.0257 151.408 163.094
67.7594 154.256 150.189
45.2768 141.53 170.624
81.6595 88.3373 137.777
76.86 154.561 113.696
48.9415 134.4 189.255
69.7557 35.4419 115.636
67.7837 94.1583 116.145
58.5963 156.055 82.1509
37.6871 122.796 66.696
68.0184 166.676 124.077
79.1043 141.897 116.963
66.6938 151.292 160.971
30.0609 153.709 120.373
51.9495 148.83 65.7605
67.6909 111.403 64.8777
74.5969 93.8882 164.178
78.0469 95.65 121.934
45.0619 70.3184 182.342
64.4997 95.1918 106.996
66.8161 158.436 67.9837
77.3421 118.556 81.4962
54.6408 55.1228 104.42
41.7764 83.2763 55.8879
56.6474 53.5767 112.058
66.2364 85.9592 187.964
81.7741 124.935 173.126
74.1886 109.145 97.2922
79.1194 41.2063 133.628
82.5663 157.826 44.0868
56.6207 118.79 189.121
84.5279 51.2669 138.216
81.9763 92.4529 149.569
47.1085 60.567 178.439
59.9549 37.5635 153.909
61.4645 100.307 49.6941
63.5306 91.9844 86.9028
39.7091 67.9011 137.629
40.9461 74.0629 76.1241
42.2507 163.951 126.956
45.6601 65.3722 102.448
38.6038 113.898 50.0242
57.0948 67.88 176.556
46.5003 46.6281 178.464
75.321 163.012 126.898
29.9876 111.315 87.6962
41.3054 70.8319 120.601
50.6199 75.3404 188.902
69.754 104.739 198.378
61.2435 111.367 28.15
81.4434 146.588 99.6035
36.368 71.4165 90.7152
73.289 146.021 94.8187
70.8855 95.5554 66.2988
54.3034 83.5692 193.033
64.6027 73.5712 164.032
47.3895 129.128 61.7793
90.8035 111.351 158.103
27.7023 69.6184 121.846
49.8363 64.7892 118.053
92.7782 121.406 73.1217
35.3227 135.053 106.629
67.2632 89.8533 162.56
23.0806 142.526 139.551
34.219 66.181 160.667
48.0982 97.9425 30.8985
59.9988 119.53 195.091
31.1227 130.841 90.8874
68.0703 71.3981 154.379
73.8284 111.476 112.881
70.978 139.098 180.369
43.5512 154.258 95.4361
67.6777 151.365 34.1984
70.0275 157.834 46.251
53.3402 142.128 45.6247
55.3232 111.648 30.3679
40.4857 85.0738 146.823
25.7246 113.904 136.151
58.8415 31.9604 140.762
78.6696 139.514 141.846
66.301 118.665 29.7176
63.5191 92.9297 128.613
68.0039 156.083 40.2604
76.4952 159.521 92.1167
61.8519 149.577 165.494
37.0344 78.5577 65.8198
47.5129 29.6842 126.27
67.7426 45.3771 116.442
33.0464 140.14 92.7981
44.1108 59.8365 113.358
47.9971 72.6326 101.727
78.6063 117.815 94.3344
67.7649 98.9367 70.5623
29.7563 121.848 126.213
32.0235 101.565 137.459
71.7516 149.643 52.0761
79.375 146.122 125.517
63.8776 83.0481 175.475
71.4725 89.4916 181.135
68.8461 78.7155 109.216
76.462 133.308 172.155
48.7139 144.24 52.2191
75.6566 61.3386 116.129
76.657 149.721 170.476
41.6611 155.194 169.782
83.5013 145.076 109.73
28.3822 92.514 78.2552
85.2751 147.345 84.3845
67.6605 139.18 117.089
30.522 95.3834 132.197
66.4233 37.9469 157.222
65.5955 105.272 92.5927
11.0419 123.095 164.762
73.155 67.0793 147.994
59.4031 83.0036 57.1997
55.6836 35.2251 132.291
70.0012 59.8298 102.519
75.628 47.0646 119.925
47.4705 124.88 50.8783
29.6116 72.3306 142.349
33.4626 153.594 157.74
88.694 147.593 33.4697
72.3555 82.7944 145.54
78.0937 148.194 110.193
69.4041 112.8 34.3237
88.9966 140.355 139.769
58.2749 86.6678 62.8909
38.3413 102.784 187.254
59.9928 90.0736 36.2962
81.554 144.255 158.266
83.5911 112.176 135.287
29.6047 85.1293 153.41
85.3623 123.216 39.4122
56.9328 34.383 125.823
72.077 35.2214 143.347
96.5949 124.292 152.854
50.2862 24.9616 116.771
87.0722 105.268 174.416
36.1092 147.624 162.501
74.1951 77.7109 159.326
72.8273 114.13 163.435
73.1537 148.187 115.24
63.9694 118.786 67.7982
28.0661 47.2552 107.628
86.8354 147.36 121.232
80.4832 116.57 72.2967
26.7747 93.6379 53.8443
65.324 92.7271 199.91
69.2363 104.176 161.426
87.0467 114.133 168.363
68.0822 83.4848 116.781
66.1292 94.2734 137.348
57.4313 157.293 128.734
75.6333 105.993 185.739
29.5549 66.6245 134.499
29.1435 74.7561 154.461
24.4479 54.6194 135.442
56.9565 39.271 96.6802
41.2731 37.3982 149.454
84.639 100.115 149.624
52.5035 85.0077 58.3078
70.9112 155.693 135.111
31.1146 54.3108 151.105
36.8651 37.5139 153.567
35.6097 148.035 60.2939
31.7944 105.084 174.36
73.339 156.812 56.7762
67.814 75.9435 137.771
80.1561 60.1381 124.924
62.4488 79.3731 186.757
68.5576 42.7212 108.732
91.3914 148.356 85.403
63.107 35.5862 148.191
24.2282 35.6703 107.315
35.7483 117.519 134.571
65.5281 52.3623 106.779
88.4126 117.495 71.4049
73.4793 37.2787 121.014
60.1863 121.742 72.0551
37.8599 128.73 48.2172
65.2359 77.6815 78.3194
65.1256 57.2747 100.732
85.5444 137.252 93.9429
94.8212 146.113 46.206
65.7547 60.7896 168.317
39.9251 129.169 71.9271
72.0675 145.411 71.2442
31.7615 29.0769 134.01
90.4165 152.707 52.9381
74.2083 51.8446 108.973
40.4415 141.141 107.095
79.5917 106.466 114.336
71.1429 155.225 64.0758
36.4221 137.329 74.5529
64.5108 84.7268 84.9578
29.9974 71.5051 150.497
95.7711 132.25 82.2779
72.1497 70.0925 170.135
30.4826 113.435 63.2383
62.6998 158.023 53.8219
55.2226 132.4 70.0552
74.3794 59.0898 151.368
49.7414 35.8613 145.808
50.2631 94.3002 33.78
33.8205 65.5962 111.466
53.5238 32.4177 119.52
68.1253 79.0399 157.338
36.5305 72.2281 151.068
30.6572 119.367 88.9519
44.8036 61.6305 89.9169
89.0001 131.946 135.614
75.8979 122.47 88.303
67.1305 116.838 86.0234
61.877 109.605 36.3254
74.1615 109.214 189.982
72.7893 64.3063 99.3067
69.9176 35.8605 128.462
80.8624 54.0181 128.276
66.5721 131.088 25.4239
39.364 100 117.491
93.3928 111.286 127.518
58.0414 60.8245 103.56
86.3967 124.514 124.578
87.639 122.794 166.269
90.6477 133.006 126.027
31.5528 134.803 163.665
56.0391 134.293 29.7765
33.2701 84.8306 144.979
79.8493 118.947 47.6255
94.9738 137.764 35.2213
64.9964 111.676 193.92
63.8569 46.0234 163.86
69.1704 52.4147 164.404
34.2378 91.0956 183.447
78.7726 102.22 42.8532
52.2984 29.0188 111.65
41.7934 113.05 39.7263
91.4933 122.314 96.0371
36.7155 72.2345 142.639
70.9408 103.339 112.999
61.1262 160.647 91.7071
85.122 153.328 57.3927
62.2303 81.9605 122.394
54.0434 149.361 72.4876
59.9462 85.4472 190.387
52.8505 67.0272 127.173
65.156 35.8104 132.596
85.6316 118.593 111.228
30.1277 166.508 129.808
71.2749 33.5395 136.891
65.1347 35.7956 141.032
50.8301 135.683 64.2639
94.0408 142.176 59.061
83.9881 132.529 157.132
54.8581 39.6455 125.09
87.883 128.884 144.981
37.1819 100.822 110.205
68.6928 96.5974 158.413
64.2889 89.4998 79.786
34.928 112.128 159.684
65.4818 32.2856 125.62
72.7588 84.7101 104.408
48.9902 83.2589 52.113
26.8397 99.785 69.8971
80.4157 47.247 126.442
66.613 159.049 60.3659
81.442 66.2884 104.683
71.3238 89.544 133.832
95.8114 71.479 132.874
83.1537 57.6804 111.483
83.6316 123.184 107.629
71.3234 140.689 99.9807
60.222 52.2676 175.306
41.825 149.08 44.7123
37.5234 67.5111 175.87
62.7859 150.792 43.5214
75.4506 123.77 97.8864
57.4171 44.8476 112.271
87.8015 123.711 115.581
91.6935 124.906 41.4723
71.0043 147.694 80.311
45.3308 69.0255 92.2979
56.1386 156.469 67.0081
19.268 108.552 73.89
94.9217 106.439 150.018
78.5568 144.118 150.616
72.1527 50.5236 156.934
65.8158 99.3989 124.664
82.0944 77.1943 142.766
85.5609 120.855 135.376
76.2296 117.148 114.77
59.3633 148.584 76.811
29.9882 71.1316 129.032
25.9631 51.2466 147.444
88.4081 130.452 100.77
71.0047 110.412 89.444
38.1995 105.315 135.627
80.4314 49.0468 149.989
35.7149 73.5515 133.489
61.7327 135.791 76.6376
79.7977 65.1928 151.823
67.0178 103.407 83.1038
77.7533 126.124 121.563
87.0497 136.133 152.567
52.9473 36.4836 139.329
65.6299 138.801 57.6096
62.9281 106.895 42.3573
58.7942 82.0377 85.281
78.5846 75.5882 130.735
29.7207 78.9803 167.173
61.2938 100.681 35.671
60.8178 35.8083 134.773
78.1024 64.7186 141.641
54.6695 106.049 32.7668
46.2488 145.872 84.9738
83.2222 130.978 136.656
41.7498 77.3672 182.385
70.2868 58.3956 160.833
84.2269 124.024 155.304
74.4011 134.152 112.744
84.478 121.603 85.2221
79.1348 65.7874 122.229
76.1855 61.7689 158.066
78.6264 146.908 90.4026
74.1003 100.682 136.332
48.7947 135.626 76.3513
24.2502 60.0182 138.264
66.5725 104.129 101.279
35.119 64.6051 169.918
35.1624 97.0343 184.469
91.8954 127.944 86.1476
40.3443 123.829 43.1173
53.5755 140.884 38.496
56.834 65.3075 98.4005
81.7742 141.629 165.106
65.0065 112.975 60.2917
65.5475 135.709 182.591
80.2009 113.883 150.545
45.3143 74.2519 70.8622
74.8634 153.197 84.3972
31.1269 57.0733 133.003
52.4365 101.375 111.685
78.4684 107.228 137.649
82.1592 149.751 62.1547
77.6114 50.8434 133.1
69.3158 152.51 73.6317
89.4598 135.712 147.562
89.6825 116.931 90.0236
39.2641 160.299 162.204
75.4015 112.189 47.9019
70.4054 65.8945 161.888
45.0553 76.5586 125.797
64.4826 167.998 85.4003
52.8559 83.5044 204.453
61.3019 33.2331 108.166
28.743 93.2543 69.0205
70.4318 50.4095 98.0032
92.0377 147.795 73.062
85.0105 150.659 43.9086
37.2936 89.065 132.758
63.5663 52.4432 165.125
85.8774 129.57 151.266
63.6565 153.558 75.7686
77.9714 127.726 105.774
75.4265 42.9484 139.638
39.6212 70.2287 129.107
82.731 90.7636 128.347
92.6283 118.177 141.174
77.941 56.4611 142.111
78.5852 111.394 171.545
75.7918 43.631 110.704
11.3967 152.526 155.578
92.9845 122.843 161.442
87.3865 141.83 48.8368
82.2412 119.933 118.675
45.2682 75.597 65.8834
45.0249 53.2624 102.764
94.4382 119.824 122.293
76.0864 115.969 137.728
76.9569 116.871 107.059
60.4961 90.2393 114.526
67.6636 143.052 68.3774
80.8121 131.575 128.343
33.3172 67.8099 138.805
78.0728 59.2535 132.051
37.4218 74.6183 125.713
76.8869 66.3131 129.779
83.6211 128.42 79.4606
74.6854 108.807 154.99
58.0741 142.784 80.4351
87.336 134.13 141.924
87.677 123.646 139.659
57.4399 105.273 45.0162
69.4122 109.72 154.525
61.6812 153.346 70.9122
54.5083 179.439 122.912
50.6317 144.766 56.9805
48.8651 67.9683 111.016
70.1534 125.247 92.801
78.1798 60.9616 137.304
63.7801 150.994 81.1066
88.2985 154.185 75.5035
56.637 104.36 52.1466
25.0114 51.6656 130.552
70.9799 109.692 51.2509
78.4032 51.2036 115.556
80.4922 150.877 49.6844
59.5792 140.453 58.3954
47.4205 71.1789 115.331
73.2025 74.5142 139.564
23.1071 157.552 138.475
66.4046 39.1002 122.775
96.9748 124.818 142.245
43.5155 107.212 198.573
86.1444 144.719 75.5342
48.6249 157.497 63.3878
11.8257 122.481 168.97
92.135 151.342 43.0595
61.2815 145.263 61.8276
28.259 48.7684 133.593
57.4077 133.656 63.3327
95.1842 138.108 66.8411
85.4505 132.707 88.7635
85.8457 127.727 160.911
81.3001 125.885 163.865
59.2242 145.084 50.566
73.5377 149.381 45.2793
76.1506 69.1265 111.096
55.8003 161.728 56.4147
90.3347 108.169 124.459
58.8816 156.304 58.2207
78.4043 142.982 49.4926
64.5863 102.993 106.704
92.6386 135.722 106.347
81.039 129.279 88.8627
58.6481 119.782 64.6191
