ply
format ascii 1.0
comment Created by Open3D
element vertex 1153
property double x
property double y
property double z
end_header
18.5805 118.258 279.962
64.4132 204.111 315.067
35.4435 288.002 305.605
59.7444 248.544 58.5752
21.6023 144.835 216.961
67.1928 198.242 295.918
44.127 299.071 308.27
27.6479 258.89 355.738
18.638 96.6496 212.69
30.4265 148.188 278.989
33.1024 255.578 33.8639
42.7828 163.64 260.105
31.0961 280.623 298.609
95.0266 124.522 285.345
18.3799 88.5057 211.276
20.2619 90.3424 295.323
18.6703 139.622 227.029
19.2013 73.783 230.307
19.245 197.105 184.492
30.0655 323.624 312.411
23.0079 138.569 281.177
19.5132 113.58 289.129
38.2915 291.644 266.979
41.5882 192.599 316.686
18.4603 205.397 178.605
39.6219 117.834 238.234
19.0158 281.178 309.431
48.6227 269.096 331.175
18.465 224.019 322.108
19.9402 270.246 341.921
94.899 117.354 287.809
65.6338 49.5286 217.704
44.693 134.486 233.623
46.1118 94.2811 251.123
35.7954 160.659 252.353
53.9835 166.953 272.807
37.6371 253.891 98.1689
56.4338 223.863 86.3342
17.915 67.2671 248.684
40.0126 100.514 315.411
42.4453 128.458 223.659
18.8379 88.7296 202.139
76.8384 191.081 292.545
28.5758 267.34 279.906
21.0992 232.014 283.401
19.9054 296.679 329.446
20.7796 237.093 265.773
29.0892 169.186 193.472
81.229 286.674 77.0897
48.7906 313.106 282.376
19.4529 287.157 325.506
20.8053 238.669 345.317
19.4408 72.7485 285.049
18.7688 132.513 232.713
64.1673 200.597 210.243
28.3419 263.971 293.614
18.4364 242.887 303.027
20.7601 318.247 283.583
31.1483 158.241 246.44
46.7468 202.245 174.045
63.7653 222.701 95.7706
85.8675 205.231 348.918
20.436 107.077 296.192
19.3163 306.253 279.004
17.9165 109.546 227.586
40.7667 170.04 220.417
41.5841 102.858 198.516
19.82 279.54 52.3455
41.3202 116.725 210.927
18.9113 291.101 270.1
35.9397 202.355 212.026
73.4449 158.816 293.095
81.661 187.096 305.776
42.0411 250.661 364.099
48.3551 99.9351 211.725
35.0379 271.351 312.796
20.3742 316.455 295.203
57.7905 144.859 233.673
18.9764 92.7484 239.885
47.1421 126.252 204.858
32.2748 268.829 263.304
59.6958 244.673 69.4753
38.7115 107.396 252.762
47.8215 269.364 246.517
30.1967 277.41 274.877
42.8758 306.494 276.76
30.4166 98.2803 311.331
19.6042 260.284 278.07
22.2187 142.127 265.431
34.361 256.791 51.4212
42.1034 94.8181 207.192
69.7136 216.374 248.924
29.7275 190.411 202.184
48.9458 87.7656 240.789
62.9145 149.518 209.766
42.8222 109.303 240.503
19.1639 122.031 205.649
18.55 272.771 293.292
41.0702 190.524 298.084
21.5227 314.932 267.361
18.913 62.4478 269.8
53.5411 260.228 241.013
37.9635 96.9306 189.779
28.4271 325.027 285.989
39.4457 243.718 361.153
40.4726 139.056 299.437
19.6264 65.382 236.042
18.537 270.615 329.409
33.6417 245.547 31.2958
35.8397 121.763 247.012
18.3858 76.4789 218.063
28.2765 265.612 46.8468
56.085 123.629 271.823
42.416 74.0737 191.095
67.4136 121.356 270.701
20.9943 58.1961 226.072
58.4962 147.607 199.309
94.5516 132.229 284.391
41.7982 119.219 187.156
18.6702 234.701 309.425
19.2562 225.887 303.492
70.38 188.742 340.436
19.4787 84.1202 234.816
26.8079 170.409 183.806
19.0994 218.251 332.394
49.6104 84.0794 249.946
18.9794 105.01 251.801
35.9962 120.333 308.488
70.4426 245.471 196.918
25.2939 210.86 273.608
28.0153 260.578 270.98
17.8505 122.678 225.42
73.3095 207.396 260.203
51.7515 97.0968 229.084
21.0205 68.6597 259.429
35.2868 106.504 263.128
26.1031 247.398 239.597
42.1283 259.382 322.924
24.4512 248.428 352.553
32.0314 42.8276 269.591
32.6633 115.664 264.356
34.1447 168.583 201.483
39.4401 318.996 262.285
49.8417 191.119 264.417
23.5982 61.1403 292.218
39.9726 131.806 260.444
39.0542 94.3245 256.858
54.3822 306.039 260.43
63.3486 95.8421 225.692
34.5452 203.85 261.969
20.3609 195.052 163.651
53.3961 284.472 62.4841
65.0365 253.761 113.077
44.0267 71.2639 257.558
81.2329 298.033 72.5203
23.7043 277.475 349.59
64.7913 223.771 246.519
58.8188 142.96 208.168
50.3421 310.791 294.35
42.1458 283.54 258.35
46.8666 170.506 235.419
18.5291 120.478 270.362
20.9911 225.5 292.21
18.5268 263.933 332.507
18.1965 87.4992 221.668
67.1388 261.374 102.432
20.0895 304.733 262.184
61.214 174.492 233.198
20.5189 138.53 271.303
63.7889 312.509 327.976
35.1034 240.091 177.707
42.9939 221.137 62.2288
78.3774 99.9952 198.65
58.9527 48.299 205.761
25.052 148.935 253.387
59.1788 244.044 342.597
36.5677 329.008 297.179
18.9808 236.159 335.718
19.588 212.788 176.928
48.3263 87.1333 229.867
18.1916 193.352 197.021
35.2348 196 156.492
59.8663 143.568 219.406
40.613 158.315 275.686
52.2363 81.1011 231.575
18.1506 114.685 216.525
60.429 203.571 303.449
19.2835 115.491 201.072
20.4485 68.0704 211.246
27.8756 263.488 104.624
19.9769 306.313 321.501
19.0522 255.523 294.79
33.2169 166.266 221.618
63.5643 222.654 74.6681
40.0543 111.571 201.945
22.9186 57.7388 282.969
71.6 252.217 353.964
20.1647 98.2723 286.492
18.6325 98.9527 200.238
69.6501 137.723 270.059
51.7015 327.772 267.18
65.5635 234.942 234.091
43.9886 87.5697 262.634
26.4087 317.535 318.899
21.5264 277.468 98.9338
59.9057 248.141 197.246
32.8191 54.6304 294.409
88.4298 91.9658 291.528
61.2549 322.849 262.069
54.303 138.691 219.73
41.5801 50.2411 295.647
20.1807 210.437 299.372
19.1849 230.164 328.689
33.1161 245.214 357.635
27.0469 148.642 270.203
34.4938 167.31 169.076
22.9991 54.0668 275.389
31.7353 205.372 332.778
74.773 71.7264 227.559
57.8611 309.398 316.585
19.2704 108.629 243.672
28.9053 246.611 287.556
62.2599 108.944 316.083
83.5648 124.606 272.059
17.7697 288.468 68.0255
49.5756 50.366 212.916
28.7072 180.17 203.312
75.983 66.6692 233.629
48.2756 212.073 175.343
59.5291 88.8198 232.165
42.7084 227.111 167.206
18.8668 242.666 334.103
19.0383 215.596 309.447
19.0711 211.854 317.489
54.0501 303.159 320.68
31.6067 99.6283 186.708
50.5891 96.2812 198.363
43.3446 56.3648 302.693
87.2887 196.999 341.1
45.8754 45.6486 249.745
49.5421 161.977 278.798
86.1528 187.189 315.889
82.6954 118.646 310.952
60.8795 115.142 272.535
38.2417 287.783 312.111
18.9839 83.6906 286.072
20.4732 92.6939 194.966
45.201 218.058 292.765
80.3073 174.779 266.358
19.7605 304.154 308.984
60.2989 235.515 58.4136
28.0094 160.734 215.781
19.871 129.913 277.622
32.2343 248.192 301.146
22.5277 226.008 174.252
21.2563 147.855 238.622
53.4266 98.1907 279.878
27.3086 239.275 353.807
93.6481 97.8711 296.948
62.8268 315.395 319.237
37.8172 227.89 298.506
18.5356 264.138 312.285
38.6905 127.329 306.885
19.1881 279.759 320.259
87.1944 182.759 193.63
71.9002 162.349 197.305
21.2652 287.201 340.694
54.5104 319.683 286.759
54.6898 209.712 242.278
56.4194 214.596 327.889
59.613 255.727 46.2261
42.1415 155.578 283.369
20.0665 106.892 194.898
74.611 193.888 303.506
25.323 219.964 187.794
32.4524 177.913 159.22
46.3718 333.255 295.644
59.5944 67.1803 309.551
79.6719 208.544 343.851
21.6311 131.926 203.937
19.392 264.272 259.139
44.1028 119.721 199.981
23.3987 89.023 305.815
19.7167 311.575 313.023
33.8373 252.181 56.3849
20.7682 105.081 277.726
23.388 320.474 305.571
35.9813 253.241 114.265
54.2914 59.251 235.388
19.385 273.167 267.696
25.9305 154.216 243.215
19.2066 109.744 261.144
72.9566 239.429 357.093
53.1423 70.4693 243.187
31.9079 265.379 306.764
17.464 57.3706 255.738
40.3522 161.56 194.57
41.8251 76.4834 283.589
42.1301 113.047 192.173
22.9842 151.254 224.03
64.2034 252.441 346.521
21.6838 211.166 327.418
45.2717 283.877 323.07
48.6639 282.785 98.1033
53.2242 66.0858 228.733
26.3968 173.089 171.093
19.3808 278.303 250.394
59.2918 255.278 371.545
51.619 108.233 274.819
76.5232 210.392 189.077
37.1006 240.726 187.133
36.0307 193.297 304.308
20.6386 149.041 229.946
56.4395 183.22 286.047
55.5948 101.488 209.488
32.4037 236.004 59.0903
80.6256 200.707 333.362
83.0733 183.849 296.089
28.514 43.4159 256.154
28.1029 233.397 177.936
47.2503 44.5444 242.143
37.9283 28.1002 253.747
44.1557 325.889 270.94
19.0398 254.447 264.644
57.3784 239.41 32.2757
33.9668 281.83 268.182
49.0334 254.156 367.584
95.1286 144.311 290.304
45.7985 201.388 341.761
18.2897 251.229 315.246
68.6166 67.8278 223.819
81.9744 180.127 282.909
46.1908 110.564 316.255
57.279 269.307 368.24
47.4338 186.12 305.711
19.7714 134.117 212.038
19.0712 125.161 239.368
27.8912 253.588 280.391
34.1245 258.283 22.6735
26.2492 146.134 204.089
20.7241 311.905 300.402
57.6217 164.902 281.127
27.4638 159.131 235.227
37.5028 198.713 326.739
20.7399 79.9639 263.596
56.7935 226.372 258.919
44.6647 66.6744 308.402
46.9048 102.155 236.823
18.673 293.01 304.225
48.8852 172.34 226.457
39.1622 129.696 246.345
40.1719 328.692 284.088
41.87 113.513 218.99
20.279 78.3324 277.879
30.3683 128.528 299.995
48.8148 223.24 171.287
18.7468 109 206.359
36.4532 116.579 184.228
40.5569 103.705 212.553
62.1452 91.435 283.191
55.931 233.331 247.767
70.1408 180.796 183.17
56.0251 101.788 318.393
52.7191 156.121 181.449
46.5887 126.675 191.293
41.7525 200.736 219.31
73.7759 258.908 359.978
24.6032 119.253 191.543
29.5076 280.103 286.181
41.9891 245.087 109.779
39.8123 201.688 162.044
18.6805 192.188 178.973
65.9182 71.8234 228.473
44.6712 174.705 156.659
45.4073 228.156 214.7
28.7972 213.962 342.024
55.1427 87.2258 192.916
52.5057 220.902 180.187
70.7539 44.7682 288.158
33.6981 228.922 56.7926
30.2703 231.806 44.8422
63.2217 79.1081 195.57
58.3042 78.0188 238.005
23.69 310.608 326.979
19.2424 296.502 291.349
60.883 214.87 218.183
76.1263 238.429 199.86
22.2694 222.968 279.487
54.1954 230.492 108.071
32.1824 155.432 205.235
51.5789 66.6984 248.594
63.7978 312.21 78.2554
34.9854 61.5356 302.729
19.4636 185.513 175.501
62.0394 276.44 113.424
19.0349 103.054 208.853
55.6857 317.993 298.398
53.3314 264.186 336.83
18.2165 251.459 322.241
72.4942 196.41 257.995
56.0602 66.0936 221.839
33.2812 223.017 246.016
35.5364 164.083 209.752
50.7895 258.07 332.34
47.8808 158.882 191.091
44.345 137.1 244.286
73.6897 48.5502 295.553
25.2865 110.343 188.484
67.4701 154.951 229.248
75.12 200.684 326.406
49.1167 158.57 169.561
96.3987 137.644 292.973
88.5844 154.25 276.652
18.8675 237.157 318.131
22.0586 269.531 240.232
67.8639 59.2516 197.461
76.1618 173.22 252.118
40.7968 228.194 275.905
73.2235 198.501 317.079
43.9043 182.06 159.083
37.2603 252.952 66.0778
56.4585 182.522 324.563
38.6229 249.522 318.84
43.4638 120.11 312.349
85.0324 195.948 351.045
36.7887 147.888 288.09
50.7236 128.884 311.427
48.7272 184.578 294.29
47.7815 41.1873 235.971
70.1099 102.652 203.97
33.374 200.485 270.417
37.1222 236.576 269.993
26.6322 122.053 301.723
47.2623 251.725 329.761
19.0728 63.8299 242.94
26.538 47.2837 268.413
22.5906 124.557 197.298
33.5812 293.14 286.715
60.5992 59.0895 202.808
23.0001 287.978 42.667
76.7743 95.3802 210.575
78.4338 243.098 368.415
50.4696 143.121 189.999
69.6711 170.865 232.384
52.3527 156.395 288.766
38.576 43.118 283.397
24.4643 50.4539 232.662
29.8026 37.1732 224.374
35.29 219.827 159.98
83.3575 174.323 299.944
60.8982 290.219 343.113
42.0036 330.581 308.613
67.9843 176.568 262.175
96.2633 105.428 300.982
78.4702 188.753 282.58
53.8948 85.9094 315.905
20.914 222.437 341.672
25.1018 114.81 304.186
36.8992 85.493 195.979
38.1547 221.148 209.275
26.8058 204.172 323.031
41.3024 162.637 169.952
52.6146 304.187 351.074
69.7196 230.221 349.296
30.346 74.9745 307.654
45.5518 104.881 227.244
32.5153 316.54 329.643
23.5825 274.723 110
22.4234 127.192 287.641
64.8121 182.67 210.421
36.1127 230.908 355.964
42.7838 78.5677 262.202
19.67 287.781 260.102
81.4173 141.713 303.083
39.6175 300.737 271.672
57.179 47.4605 275.227
52.2029 51.4765 236.592
51.8372 49.3275 197.571
44.1761 300.06 64.4795
52.2684 186.028 272.911
83.0222 174.397 309.367
37.293 194.264 278.292
73.2072 246.742 93.3821
29.3191 140.381 286.86
18.8088 253.882 338.226
24.1277 289.13 61.0034
69.0573 214.078 258.524
23.525 203.576 298.708
96.1931 212.847 190.828
84.7464 231.369 197.925
52.7376 135.478 193.306
46.4448 69.7709 210.365
58.8827 178.885 293.512
47.6326 79.2461 255.464
60.7591 305.095 250.708
66.9247 99.2115 218.995
24.6685 202.284 192.999
55.2596 92.9511 318.054
60.9522 244.264 237.081
88.9837 117.846 277.032
57.8086 235.406 340.45
20.813 266.203 247.939
71.7834 280.586 35.4859
23.9034 98.8432 188.365
71.2338 173.227 177.138
56.6941 137.214 202.845
25.7318 201.762 313.027
63.3553 228.224 80.0269
37.6541 262.856 125.386
63.7768 285.546 229.019
45.3528 126.996 213.301
38.9317 125.46 183.752
88.1779 95.7302 310.793
43.105 57.2057 194.282
51.7595 247.038 199.607
19.2869 286.162 245.063
20.3781 77.7961 293.762
64.864 261.13 371.615
46.1238 275.441 326.68
60.2011 40.1215 276.697
76.8471 96.7559 203.821
79.1723 270.866 85.4796
19.2881 286.154 288.271
37.2585 208.832 157.474
38.6802 278.781 318.142
73.5007 144.702 304.052
48.4189 60.8216 306.449
39.8019 68.3342 194.046
67.6411 174.143 240.318
58.0723 129.397 269.989
72.7606 83.2968 315.034
67.1317 233.638 90.3124
21.5907 243.96 246.547
18.8894 309.31 287.103
40.8676 230.581 312.761
63.4399 280.126 348.046
21.4279 45.238 260.269
59.1412 203.026 290.207
37.0155 279.181 262.015
93.3757 93.5051 304.168
29.8104 37.0869 233.196
21.0655 283.614 92.2718
61.2696 328.346 292.764
30.0232 78.3295 190.725
84.7287 108.533 312.441
34.5322 162.446 184.335
34.2792 162.989 241.107
76.3194 154.111 298.365
49.6971 236.676 98.9298
74.0289 124.462 268.542
51.9446 140.676 233.225
68.1972 54.6513 228.145
58.9887 188.466 335.653
66.1159 175.24 299.74
64.1294 166.783 283.794
26.2219 224.945 261.846
55.1349 144.698 262.525
22.5837 132.586 290.123
79.8691 115.895 272.033
38.094 228.656 38.2005
81.1622 94.7291 284.408
28.8779 323.217 276.821
66.1032 225.976 210.889
46.6719 292.813 258.469
49.6682 136.861 264.519
29.2522 327.012 293.34
62.9843 215.015 191.447
30.6482 114.847 184.107
51.1088 215.331 62.3974
42.3136 179.481 214.875
41.9878 301.675 300.121
64.387 152.453 236.628
74.5945 93.0611 197.239
39.292 273.484 254.998
22.1036 304.312 252.405
42.4507 47.6045 196.047
38.5775 41.2035 212.391
82.0935 170.969 192.974
31.4166 230.64 192.889
31.365 267.183 91.0592
64.9433 272.832 103.899
20.1561 296.428 263.042
39.1361 45.3755 289.93
53.9326 269.839 340.31
56.7537 140.048 195.592
43.5504 279.081 361.347
44.1361 314.697 336.924
35.4089 269.722 19.0362
50.7174 214.104 314.208
46.4464 189.58 323.497
64.2636 205.926 353.522
18.6213 201.339 170.344
96.588 130.354 294.688
25.8165 273.131 85.9816
73.6176 103.364 276.485
91.8474 149.304 281.274
77.4515 218.789 352.657
51.4732 313.497 248.092
44.8834 189.645 273.568
66.8501 167.839 221.395
94.5867 143.28 281.692
53.2766 149.635 194.941
40.1447 237.301 318.935
20.1835 120.637 289.892
38.6117 296.559 295.834
72.5152 195.1 281.191
81.7508 224.852 363.117
22.2176 182.865 193.855
53.6392 308.555 76.8769
77.0447 195.185 272.607
25.5971 218.772 264.823
40.2175 285.12 357.519
26.6276 257.885 235.362
60.2718 60.5812 234.728
61.582 331.61 300.236
67.4401 246.121 349.989
68.0486 184.942 267.264
37.9572 266.431 363.922
21.7604 263.469 349.985
39.3227 36.4076 273.786
65.941 60.9431 307.403
70.0739 94.3092 317.016
50.4886 145.493 255.631
56.9144 219.505 359.281
48.4418 133.588 218.819
50.4468 184.001 282.997
61.2919 218.645 264.573
64.8085 177.283 315.776
31.2005 230.007 166.17
30.9335 47.666 281.44
40.2244 196.713 265.327
63.9381 226.83 341.033
47.7482 96.213 317.209
29.3052 134.466 192.489
42.4163 242.02 75.5257
25.9061 301.806 339.704
60.0813 199.47 218.587
49.1701 226.61 328.749
24.2488 271.174 101.995
47.8575 28.4992 255.429
33.5893 195.214 208.082
28.1399 195.811 154.211
68.215 283.576 353.961
67.1067 162.178 215.973
39.2233 216.315 243.969
61.7401 236.829 211.473
79.1892 184.26 339.433
42.8484 111.555 224.254
26.0135 226.917 349.211
48.7812 330.911 312.589
31.6072 163.091 230.959
38.2973 91.4532 263.573
62.472 242.171 371.624
52.6564 280.06 337.194
72.2056 264.812 95.5599
53.1924 236.058 179.592
23.6494 274.497 56.0886
45.575 87.3838 316.816
47.013 118.901 271.44
36.8292 111.957 246.6
57.2 252.331 340.618
58.8804 174.706 249.611
20.5298 77.1493 197.916
42.0337 259.458 249.868
70.708 159.986 231.616
26.6537 151.281 213.637
55.5313 54.537 302.923
69.5056 94.887 190.291
39.7149 240.349 196.237
54.9718 241.34 367.452
42.8321 166.587 244.403
37.4278 238.982 231.991
61.5798 51.6538 302.693
25.7002 182.449 160.29
24.8466 218.682 162.291
75.8519 276.583 68.3541
28.1547 270.153 356.208
62.7363 142.745 305.452
48.9019 70.8558 284.909
62.0024 296.716 341.466
74.474 200.833 268.494
51.4378 247.568 336.418
19.4927 186.381 186.229
72.1225 84.7187 186.825
89.9922 81.7795 297.165
46.4826 152.539 290.887
50.8559 79.3303 287.141
52.5888 69.6168 310.453
53.3722 102.906 219.672
43.161 61.5017 274.681
43.4792 191.823 219.378
71.2735 161.33 246.475
49.5971 291.762 72.7705
81.8321 208.397 361.483
64.2351 314.994 335.372
62.4044 93.0439 316.981
87.9451 216.914 199.617
30.4501 154.224 260.421
57.214 261.83 342.663
51.4911 281.632 227.31
53.0471 284.713 249.651
61.4697 104.962 275.01
73.4462 264.169 368.059
59.083 232.168 185.82
30.8342 244.06 274.238
45.8325 230.659 266.107
38.5987 188.529 155.71
48.6332 235.422 332.789
53.7172 251.852 124.402
35.0827 105.374 190.348
71.1923 180.585 204.352
88.5771 173.721 189.317
79.0358 193.33 317.72
71.2362 133.776 310.151
64.5073 241.18 110.029
56.5661 334.528 285.759
35.9873 216.026 348.571
60.2819 132.005 312.479
46.6982 156.723 221.848
63.0022 148.858 224.997
60.6337 156.439 190.515
72.7015 174.692 245.008
61.6929 321.127 307.859
19.9503 250.368 347.254
30.9278 205.5 154.092
52.0089 275.546 245.828
47.6969 274.868 20.0094
21.885 207.425 286.067
43.5946 253.192 227.102
73.021 50.2416 223.943
33.1842 48.191 201.729
63.1711 206.183 243.224
36.5054 112.194 312.725
52.918 45.4367 216.209
19.4612 291.977 253.371
47.9076 61.8196 213.823
44.0826 135.33 185.103
57.415 59.901 220.471
77.5928 292.636 84.4365
38.0372 31.3435 236.748
92.6065 88.8171 299.074
26.0071 107.146 307.429
29.0374 224.796 189.812
74.6082 192.006 263.948
61.007 85.8385 183.871
76.4798 198.216 188.224
62.4499 256.289 75.5016
33.3058 55.5061 203.833
47.9761 35.1878 215.086
39.3449 72.8922 311.21
43.5977 144.411 297.545
95.8413 197.896 182.971
67.718 83.3561 288.307
59.2483 71.5763 286.419
51.2989 315.639 273.256
55.3122 181.121 182.027
89.167 188.761 328.633
60.956 247.095 186.97
96.9319 113.924 297.905
95.5898 119.774 301.057
44.405 219.964 237.392
39.6783 227.445 69.3153
73.2239 63.7992 220.535
80.9268 84.007 289.469
74.702 166.028 258.848
29.7937 41.4398 205.079
57.6785 157.182 204.511
38.3916 169.297 160.322
60.6612 182.996 272.686
49.5541 53.7163 302.065
80.6866 229.733 187.828
30.3364 42.2032 216.928
37.3618 89.6649 279.288
62.4171 237.697 76.3779
58.2854 38.7335 290.145
60.4369 172.217 223.797
76.7986 125.304 311.769
33.6784 312.017 334.646
46.9012 190.387 172.198
54.1402 277.539 365.881
72.9621 155.857 176.348
42.1368 100.389 279.574
83.0026 63.044 297.082
35.1756 312.907 254.981
57.5212 330.146 317.32
50.4775 215.529 281.315
59.988 330.309 273.654
33.5896 67.5968 307.664
51.5438 33.877 281.57
72.1482 95.338 280.647
63.6586 77.2038 288.443
69.073 234.908 373.356
55.8477 63.6642 283.064
44.0529 45.7667 214.298
59.873 217.456 234.897
43.835 159.187 179.765
78.6547 54.9017 297.3
62.0478 157.345 167.679
54.9488 173.26 225.645
46.8137 306.376 304.217
41.5155 135.182 304.008
72.9402 115.318 315.409
58.1655 215.553 272.678
95.1831 178.396 184.436
47.0668 41.7343 217.977
53.9825 85.8052 183.836
58.2882 116.042 317.503
36.102 53.0924 193.678
31.3644 124.891 186.396
68.1421 217.581 340.979
40.5462 303.921 286.425
51.2801 302.855 85.2948
54.0047 38.7456 269.506
60.128 50.4239 197.54
53.8067 49.645 228.627
54.3351 311.089 309.35
39.3542 115.24 229.527
55.1136 312.625 345.78
64.9289 199.54 249.381
80.5393 94.6389 315.166
84.6284 193.684 181.792
58.9227 85.4139 284.984
58.4237 287.42 363.111
44.4703 61.5058 209.375
72.6281 224.412 371.09
38.4236 210.479 250.295
66.7377 214.224 237.442
18.867 105.505 271.059
43.3196 238.562 205.965
36.1333 293.234 48.4279
61.0714 255.872 223.491
49.4635 104.617 229.869
79.2183 177.326 197.715
83.573 167.135 270.057
50.4176 333.803 287.638
50.3935 44.0045 293.765
62.8443 305.902 350.748
31.9847 303.543 342.462
56.9451 268.051 223.868
54.6404 196.605 252.814
83.2002 169.122 281.999
71.0418 87.7651 195.685
55.059 289.961 229.056
58.8292 206.947 280.074
34.008 36.1186 261.229
33.3673 284.487 67.2529
39.7478 37.7096 227.136
67.2053 166.719 170.813
39.604 164.706 231.961
85.0098 212.427 186.02
60.5047 180.387 217
68.7739 63.094 215.646
18.7729 292.283 311.783
34.6116 84.5959 312.685
84.6026 181.536 333.076
44.0953 57.6517 254.239
77.8801 160.482 187.933
72.6515 220.775 190.322
19.544 90.0194 280.259
40.4996 172.261 209.842
41.9507 245.857 102.195
75.7346 250.619 367.903
61.2878 315.669 250.248
63.6062 270.457 29.2137
32.2348 35.4453 251.309
77.2967 298.786 44.9339
37.7873 235.579 170.457
37.9622 88.0805 271.414
58.6025 272.927 238.018
60.6242 92.1368 186.206
42.683 273.356 229.876
62.5557 171.065 268.235
55.4653 293.773 64.3224
26.3439 232.214 244.901
52.8431 97.0684 237.762
78.0588 89.9857 185.989
51.5713 202.636 248.134
57.6032 152.375 297.79
31.7409 264.07 122.232
51.9601 232.441 363.035
41.4357 283.279 318.164
41.8051 133.216 251.092
67.9555 155.289 182.871
53.5043 225.976 34.151
36.1979 190.653 213.455
51.3021 32.6713 262.562
41.7002 251.119 251.229
68.9258 262.509 353.694
27.6058 156.636 221.749
50.1664 223.073 324.121
53.2239 181.62 219.679
46.5195 168.583 249.781
58.3851 123.457 315.257
61.4648 155.455 248.562
63.4235 83.2506 315.7
45.1164 240.286 253.715
72.2151 54.9389 209.648
68.1861 106.253 317.79
86.9249 185.066 178.941
48.8416 223.932 219.692
61.096 171.859 174.76
22.3659 80.8335 301.513
58.8712 324.28 328.969
67.3664 297.063 354.578
68.9106 167.503 283.227
74.8633 195.829 201.409
29.7737 285.289 352.899
53.4303 295.04 253.634
22.0484 72.4501 299.731
65.0742 156.994 295.237
96.2123 110.617 292.304
84.064 136.562 271.117
41.2753 296.636 352.571
34.3641 35.6618 207.851
62.3609 81.0057 186.659
51.4471 222.492 270.319
21.3013 279.885 238.459
88.4074 149.304 295.933
46.2839 85.2066 286.133
63.1526 261.08 116.824
20.3219 258.86 270.979
47.223 195.271 257.327
63.6233 295.754 43.9219
62.7321 155.814 259.637
36.8034 249.54 19.6708
34.8288 156.006 268.294
74.9033 166.733 284.937
51.0898 153.228 212.018
68.3658 57.383 223.242
41.0237 225.27 354.925
21.3666 231.004 254.576
52.2258 171.54 251.921
32.2052 263.534 360.921
48.5429 303.427 263.834
60.5013 316.34 340.387
62.6353 262.528 347.401
19.4619 297.494 318.037
34.5384 290.597 293.959
65.1336 85.1908 197.369
63.0543 39.4447 283.047
54.7201 225.642 228.935
58.1718 167.913 215.964
32.0364 281.934 90.3919
74.6899 103.507 316.749
52.4915 163.676 210.005
20.0946 282.179 39.4433
56.3402 296.075 331.869
74.0167 264.029 76.2218
43.5048 61.4084 203.443
54.1189 52.1309 220.667
66.4966 75.8753 313.721
30.6152 70.2304 196.715
46.0365 168.541 216.533
32.0996 67.3918 193.593
73.1145 206.112 359.753
53.3216 298.65 235.174
87.0864 178.555 313.542
85.6545 178.473 323.618
77.465 177.389 326.677
67.8177 81.9492 190.556
29.4793 86.8797 189.418
44.6589 49.0613 264.687
76.1805 133.498 269.749
78.0482 307.836 59.3126
52.774 145.556 242.124
46.1469 262.904 327.251
58.2864 136.912 266.456
82.7576 164.347 174.989
59.7437 235.551 242.696
32.1667 90.678 311.484
59.1334 56.2237 227.571
65.2097 209.2 271.714
74.1647 171.226 199.543
62.453 328.945 309.953
72.116 149.645 270.236
48.3932 95.221 191.798
80.1785 173.824 291.338
51.2899 189.559 221.885
26.2109 284.772 80.0314
59.0688 69.4049 239.552
34.1074 245.836 261.923
45.8734 239.024 174.765
27.0594 64.5867 197.219
68.0958 272.655 355.054
38.0692 40.2626 203.816
67.7457 179.039 279.224
24.8441 212.686 335.087
79.3576 127.397 269.211
75.6585 91.0599 283.096
40.1738 190.207 285.647
54.9418 206.25 349.086
69.4237 284.468 362.343
61.84 153.87 177.574
85.7854 188.399 343.336
43.1971 305.507 292.15
51.9289 144.738 249.221
33.2861 184.098 153.452
23.7559 191.727 192.773
39.536 289.545 43.6124
94.1311 137.765 282.302
58.6655 222.66 220.815
54.5778 199.951 187.38
28.3994 317.465 262.937
57.8041 289.094 246.084
46.4923 300.779 351.752
62.9497 325.397 321.353
68.2323 86.9118 203.227
66.0367 276.611 367.9
75.2217 171.922 302.131
86.9746 164.629 275.71
77.264 215.337 366.847
37.0188 273.808 114.578
23.4251 85.1141 191.48
59.3245 71.422 231.762
77.6238 192.316 350.982
62.0246 52.4881 223.768
40.6239 280.021 90.0629
80.5254 221.626 202.255
43.1009 44.4324 205.923
48.4697 244.948 120.777
41.7768 28.4097 261.815
48.3801 287.057 361.085
68.9593 204.006 192.558
65.3579 231.847 188.125
73.6417 175.453 271.481
89.9833 138.716 274.997
49.6112 89.1612 190.87
41.3369 308.247 344.026
53.2456 90.5063 237.677
56.4936 77.1442 311.564
49.1288 244.934 179.933
43.4688 243.059 20.7433
44.1987 271.587 364.896
78.5176 88.5103 201.931
52.9136 283.346 26.2523
66.599 61.1225 228.879
65.9026 150.769 300.95
64.3293 66.3731 286.79
64.4367 114.323 317.456
82.645 207.316 201.249
37.6286 271.218 122.55
38.226 145.642 192.715
50.6276 149.729 297.74
73.4994 229.61 205.459
51.4703 245.62 224.35
68.7957 53.9368 304.282
71.1925 158.781 169.117
43.9082 30.7737 268.213
48.1441 247.529 189.824
42.8739 159.654 205.189
59.2876 264.999 28.0697
51.488 164.146 201.837
83.0165 201.663 357.484
49.9226 262.582 367.949
86.7745 99.4646 286.717
76.5918 62.3785 290.61
55.251 163.366 162.633
84.6426 157.616 291.315
81.4322 152.47 270.454
35.1162 69.6519 203.051
36.9902 109.07 275.438
39.0773 110.911 185.866
59.3921 190.974 258.406
55.9183 56.0583 279.511
72.3863 243.484 374.476
64.6512 44.9538 297.463
35.3449 279.371 24.3106
63.226 93.1341 200.139
84.9463 202.589 183.846
81.7836 160.059 179.601
68.2559 60.6503 207.412
85.971 177.868 177.741
47.2463 53.8942 271.403
76.5995 78.236 291.265
60.2783 237.69 88.3145
63.7741 149.776 266.289
63.9145 219.721 363.934
53.3042 206.723 224.107
27.4643 326.461 299.86
28.1503 280.28 105.204
69.6392 121.877 313.28
84.344 189.858 197.065
67.6168 268.317 370.52
83.4062 171.592 176.323
48.6418 297.673 316.049
65.0001 54.9694 206.813
52.7723 218.587 44.2096
61.6709 276.931 23.0404
45.246 313.234 252.672
74.2997 58.9381 230.154
35.4456 62.1074 196.204
67.6405 57.446 284.869
52.4082 170.527 209.912
60.5217 198.856 190.278
31.2661 284.811 235.996
68.3648 208.599 244.374
60.839 296.578 246.942
47.4886 219.946 42.2439
56.5577 329.71 269.06
70.4586 59.7199 235.389
52.276 47.6097 206.62
58.4638 311.921 260.47
34.9881 297.938 243.07
73.7483 239.624 188.813
43.0984 37.388 219.413
52.6256 232.945 226.175
57.8282 79.1853 189.006
61.6135 302.603 237.638
52.7782 115.618 315.465
65.638 279.444 45.6662
71.3718 63.4144 228.68
61.4819 297.308 358.184
66.6046 218.601 208.991
78.2636 301.434 79.5389
81.4133 143.825 271.226
88.7063 106.788 287.13
49.3726 55.3985 199.977
20.2009 218.74 294.08
88.687 130.296 304.496
19.7055 269 276.437
29.7354 286.591 35.0503
55.7202 297.508 55.634
60.3278 285.06 240.266
71.8594 175.433 286.363
38.3839 153.218 214.331
92.7865 112.048 307.073
81.4084 69.8254 294.541
47.4691 281.396 252.737
19.669 279.726 280.742
59.5571 309.008 241.465
73.7821 257.626 371.133
65.8621 158.352 257.177
93.7354 204.707 193.603
65.9904 66.7041 233.079
68.0854 303.384 50.3937
64.5328 245.482 225.738
90.1268 131.866 275.033
57.7187 323.42 275.219
44.4719 249.407 86.9185
50.6417 75.1774 227.173
46.7622 290.251 319.677
31.1049 38.7974 266.458
39.5713 287.631 235.573
92.3975 123.98 304.85
52.1182 74.3315 231.428
91.1681 212.072 184.824
45.9658 241.152 88.8064
87.9117 159.115 285.381
95.3001 187.899 180.252
47.4728 283.473 25.053
84.8038 102.82 313.356
91.8144 138.889 299.141
58.2445 159.146 196.633
