ply
format ascii 1.0
comment Created by Open3D
element vertex 577
property double x
property double y
property double z
end_header
38.7458 106.475 57.7771
38.8467 83.4624 55.3535
32.7146 98.3982 88.5518
49.5144 90.6615 63.083
40.0667 87.0184 65.0424
28.4625 73.6532 105.878
36.1006 40.6901 66.0286
36.6092 70.5291 43.5597
18.6007 78.1158 89.5729
37.6472 59.9737 69.405
46.03 83.7832 72.9494
21.9829 102.98 93.1456
21.0591 87.1001 64.0591
45.3567 76.2723 58.7583
36.4691 71.0515 36.3311
15.7028 81.6113 59.6248
53.2294 74.3186 57.5134
33.6391 88.4925 55.8032
40.8647 58.2273 61.7959
40.8726 61.1352 104.48
71.2796 124.942 50.9645
70.1982 121.3 91.1832
58.5411 77.9125 86.7918
38.1888 56.1632 35.1077
32.1964 58.6811 99.8026
27.8658 106.681 93.2066
28.9862 66.0904 92.8328
49.2768 63.6086 25.9532
26.7159 93.1292 95.9673
57.2755 110.933 53.8109
75.21 101.752 61.1485
20.2723 83.9322 56.168
52.0838 51.978 50.5743
44.0011 90.9169 86.1768
47.7751 107.963 58.712
77.9614 104.3 89.2365
73.7763 98.7599 69.0189
43.1337 43.5961 72.043
60.8859 81.3314 116.128
18.6214 93.8031 75.4079
22.8191 86.3715 94.1506
49.857 111.454 70.3917
27.4173 62.4135 40.4486
55.2641 115.291 63.9862
73.2467 62.9761 27.5908
43.8085 43.9056 47.1333
65.4722 67.5825 20.3575
41.6487 117.135 66.5384
22.401 96.8106 101.056
25.3099 94.6293 89.432
27.3619 98.0607 77.3278
14.2792 69.1469 60.771
67.2414 86.2581 23.9997
60.8139 61.8439 25.6078
52.9666 57.8052 75.4564
64.2058 110.11 56.2562
45.8998 69.7286 89.0179
32.9841 104.691 108.834
57.4326 106.513 87.0344
23.4417 57.7015 47.5546
35.0935 67.748 96.6475
38.0247 112.327 84.6915
59.7375 65.5238 114.086
72.1879 72.5457 22.0157
30.9616 108.62 66.6233
67.1194 75.37 21.7594
46.819 117.833 87.5801
60.9345 116.571 71.7364
55.0742 91.5692 113.288
45.9086 61.8536 35.352
66.213 56.7096 36.5587
39.1116 45.5604 42.0894
77.8317 107.116 41.9147
46.79 50.5028 42.6509
28.5268 49.9251 55.2757
37.3359 99.2498 51.0058
54.4359 56.5004 88.8283
21.0772 95.4325 60.5626
61.3367 109.582 47.9797
55.3175 64.7453 21.8113
22.3389 69.7142 79.6561
21.8002 63.9007 53.5073
54.3223 65.1737 92.8231
54.27 41.0341 96.3947
79.7182 73.1521 28.1766
21.0955 61.4572 68.6173
46.1966 100.521 61.8707
44.7224 106.502 75.9987
37.072 92.5802 70.2988
35.7409 49.4406 48.8593
42.8277 36.7859 80.785
31.6704 53.6834 39.3469
42.3986 35.4502 70.0555
70.6433 109.42 43.0015
47.4852 47.3215 75.4681
77.8837 79.9665 24.4381
45.969 116.225 72.5812
64.7605 79.4045 110.228
58.7588 53.764 107.585
62.9156 100.076 55.02
41.3804 76.4956 51.2355
38.1066 51.6656 41.149
38.015 82.2529 112.728
56.8697 70.0079 79.6787
29.3349 106.825 81.7185
45.4782 67.1732 55.8167
68.4862 101.431 59.5401
67.7063 91.9584 32.1875
72.2426 81.9124 24.1502
32.4942 112.85 88.2233
61.5741 106.956 100.316
37.7756 111.202 78.0095
78.8213 67.2404 103.803
79.0052 53.9939 94.4358
46.6088 94.5828 46.3324
51.4111 61.0725 34.3602
65.5482 113.086 92.5965
24.3965 108.393 77.5502
46.542 68.2651 28.8895
50.194 69.5562 46.1233
38.3084 69.5629 89.7069
59.3224 61.1329 73.5635
34.2461 70.0721 107.828
71.9271 30.5438 68.5721
31.0424 83.2831 97.4216
33.2631 58.7148 61.3874
50.7346 35.2068 62.0827
55.825 103.185 46.6874
39.4088 99.6826 76.4976
22.1453 68.0867 47.3832
62.8726 69.0601 77.2533
44.553 55.3114 36.8009
43.7662 113.124 97.1078
29.8267 112.993 94.8522
49.1117 28.9899 67.9454
47.7856 106.174 81.8826
57.03 75.5872 44.943
50.8697 54.9158 33.5807
55.9411 43.4769 47.2949
40.3829 69.2751 103.323
74.1031 56.0272 95.8786
30.9788 70.9496 98.6179
31.5812 76.3696 47.0971
30.1189 57.1052 45.453
20.6291 68.7843 62.8111
25.9227 71.5229 73.3596
55.1871 63.2623 82.3673
75.6185 86.5923 27.8267
77.3024 45.0188 57.9422
30.5523 51.0282 49.3296
53.6492 96.209 47.2702
40.5735 105.476 105.149
51.819 38.6704 68.0646
51.544 100.395 101.291
70.0811 112.24 52.0159
58.3999 68.878 54.003
39.1729 63.4835 76.0442
31.931 94.4537 65.1085
60.5688 56.622 29.3029
50.7057 67.5974 119.133
55.9102 71.1926 22.385
68.5991 80.9902 49.8333
56.2301 113.615 93.2746
55.2296 55.7609 29.1373
50.4868 79.7091 104.575
29.92 90.6803 100.497
45.8882 46.1415 93.3604
32.8447 46.5589 53.0776
28.0217 66.9506 79.5363
25.9162 95.4222 56.5465
32.1158 55.8584 75.1788
46.8203 40.0202 54.8699
64.9385 27.196 65.5554
65.5019 63.487 75.6164
78.4185 120.005 69.0152
74.801 95.6799 93.614
47.9672 57.1454 99.235
22.1578 102.759 73.8969
75.6913 105.757 52.9708
30.3303 98.2235 103.572
41.5228 111.039 67.9087
79.9942 63.6807 29.9406
39.1902 49.0361 67.4827
79.086 67.5447 84.6307
17.3829 91.9149 65.4803
27.4328 90.2136 54.4395
74.2176 49.8894 45.9242
33.3995 68.109 74.3994
65.8709 37.7651 79.271
67.6322 60.9211 25.7543
46.2649 100.897 110.472
79.7414 111.557 69.9853
34.8328 62.5768 90.6602
29.229 101.468 97.2951
70.5714 104.028 93.5162
41.2164 55.5519 97.6785
62.2315 94.7696 33.3036
51.7212 57.7827 48.1614
51.1279 86.5191 106.935
49.9447 64.2771 41.4262
50.8584 70.9694 24.3564
61.9407 44.9553 95.2075
48.5199 43.4244 44.3954
37.5605 119.22 88.9984
34.9692 61.518 38.7863
32.611 99.3181 63.4051
54.9764 38.8102 77.2955
39.6255 96.8335 113.834
56.7984 30.7584 58.8757
56.4141 58.535 112.406
43.7557 66.1218 45.9067
40.2903 65.3993 94.4011
50.4771 66.6927 84.6457
36.9774 40.2085 49.8686
51.4805 42.5694 82.4781
31.5188 79.2376 104.173
57.9098 45.7759 85.757
33.062 81.4448 71.25
72.5731 70.1217 86.8859
55.7981 62.2841 50.6621
51.7559 76.6556 111.41
22.7468 76.7039 52.4695
23.1254 88.6388 56.4242
72.4906 64.2401 110.603
53.3206 77.0113 26.9646
60.4991 80.984 100.679
68.9027 86.476 53.9382
19.3748 64.6887 72.8046
54.5722 86.5482 90.043
61.3554 84.945 34.7527
69.2771 64.8369 103.544
73.7572 35.6729 79.7713
33.8364 84.2305 103.502
26.3236 70.5746 42.3785
45.4396 38.137 61.4841
69.4964 78.2709 42.1671
50.64 63.9414 104.62
41.6163 65.7718 30.0066
73.5377 76.0584 93.3706
59.6952 79.9607 69.9834
40.9322 97.2973 66.8035
55.7678 104.827 69.7045
35.2238 81.8855 82.263
55.995 49.1788 35.9199
64.4926 66.5469 65.0082
43.207 75.9836 35.8681
46.6795 74.4229 25.3006
78.2256 47.238 87.8025
59.8948 75.6317 22.4578
38.5627 70.0236 53.4228
51.1235 114.607 83.3995
37.5753 54.5254 86.7535
62.864 86.4962 104.341
25.7001 76.6371 45.7138
66.1854 120.688 82.7103
55.9426 33.0414 51.4725
40.1075 71.3267 29.9087
59.932 43.1331 38.8527
28.1413 64.6741 71.3605
33.4299 79.9307 51.0113
80.8813 73.4326 85.695
62.2355 33.3286 75.8558
67.8312 110.63 83.9618
63.982 25.801 58.4963
55.3882 83.9858 37.2679
58.3874 90.7619 36.5046
53.6306 66.951 110.469
61.4665 109.694 79.1102
59.4457 29.1059 75.0583
28.0343 55.9175 59.4686
48.0047 77.2685 76.9415
62.2369 96.1258 45.7698
67.8252 100.705 38.9791
63.9448 37.6642 87.2445
70.5569 89.1952 28.1675
52.4224 59.6221 109.167
33.146 49.442 59.6578
47.2766 52.1861 89.4745
62.9673 30.1516 52.0204
16.5164 77.0091 64.3932
38.8185 81.8119 73.3232
32.2062 92.6308 82.3439
76.2684 68.9977 25.2353
61.727 50.49 45.4958
59.6205 36.4536 82.1533
48.4913 36.89 73.99
72.9112 54.4272 40.2223
79.5572 113.123 60.6368
72.2101 93.2627 57.613
22.6803 54.4647 58.5907
50.6556 70.6364 111.959
51.0962 111.248 76.895
28.5488 87.4696 88.0241
47.2885 78.5103 113.997
57.0338 40.5543 83.5342
70.6205 75.9298 110.192
64.8017 115.453 60.3729
77.8551 94.0018 58.2413
19.5475 70.2034 71.0192
59.9931 96.6799 108.647
75.3372 71.4718 58.9661
53.4762 78.1618 83.5656
18.192 90.8738 70.4396
65.6976 48.4823 97.71
55.7591 54.3839 97.0412
41.8543 74.855 118.376
71.0734 114.011 67.2267
24.9336 88.4228 73.1815
59.0362 67.3843 101.155
41.5591 47.3816 60.8911
44.5475 81.0844 79.9527
52.0444 88.7042 40.0722
58.1219 86.0419 115.357
68.4514 64.9477 124.208
62.5734 107.347 41.8057
55.8636 73.1325 38.1444
30.3926 58.5935 67.8171
45.4461 68.2585 106.944
57.2215 53.3691 49.4107
77.8865 54.8739 41.9541
65.8988 72.5851 114.868
40.0915 100.631 103.71
64.1613 88.2565 30.8192
30.8211 69.163 87.7673
63.6461 81.2002 84.2614
25.5882 79.4415 87.7686
45.5675 58.7301 104.059
59.5195 79.463 49.3287
75.0751 65.9668 43.8443
20.4546 77.0989 59.0281
58.0274 102.848 64.5824
75.2124 91.0597 83.2805
77.5541 77.5574 81.8076
25.0899 97.2947 68.064
43.1617 56.882 44.5508
42.3595 82.2731 90.6978
81.671 70.1764 34.3741
40.8674 41.1205 59.4832
58.5196 67.6968 47.1996
62.6869 83.0882 27.5734
63.9514 68.7482 56.5993
51.5362 102.75 53.4263
66.143 60.9757 108.253
27.9774 65.4313 63.2288
49.4567 71.5483 79.9695
43.8088 83.2132 111.116
78.5499 76.9796 98.6102
60.7395 50.5392 100.842
37.7741 45.7086 57.4374
33.0862 102.843 60.3043
70.1299 44.8126 87.4625
56.2058 93.7511 104.667
75.7609 43.8536 80.7101
34.5512 82.5307 64.9199
66.4021 61.1135 66.6705
63.4909 46.3422 87.0769
73.9038 91.326 33.5575
50.3993 32.5861 56.5284
39.9249 48.6457 79.1262
40.8601 85.0607 101.144
39.9374 78.757 105.909
40.6264 60.5092 85.3388
66.5017 69.1142 110.886
58.4642 87.0122 107.735
47.0776 44.5372 86.1627
49.3839 40.4337 78.0785
72.2604 106.822 74.6062
59.8035 39.2798 91.2869
73.191 35.6561 54.7596
79.6219 49.4911 53.6058
45.798 75.6061 108.514
41.2987 97.2464 59.4349
23.1414 75.649 77.4153
56.9121 57.1157 36.6009
54.4037 49.7756 103.982
73.4476 102.1 41.3398
68.7654 39.0751 88.0156
56.5591 73.3261 110.661
54.7904 78.2586 117.629
36.5348 110.819 99.9154
34.5259 106.028 98.3539
76.1621 75.6785 63.7653
52.8491 58.5702 103.285
64.3387 98.0342 88.4036
78.1388 69.8982 41.9928
22.3206 38.5792 55.5511
80.2848 80.1686 48.9135
22.1017 79.5044 69.6112
78.5201 61.5232 70.558
45.5258 88.3564 109.445
75.0429 41.0471 63.7362
81.3292 74.0987 39.7419
79.2073 93.3913 33.19
60.737 70.3915 107.421
74.3117 112.929 77.4936
67.6344 51.568 47.3423
65.1857 59.107 31.0915
44.3716 92.5126 112.492
82.9735 105.717 56.6175
39.8372 87.4914 109.106
56.3401 34.3328 64.6795
69.9442 73.7137 61.7359
32.7983 104.798 70.9573
44.5796 99.9617 47.4797
73.9959 115.799 57.0876
83.6952 52.4725 79.0296
72.4768 120.419 70.1266
31.6008 99.9429 81.7629
73.0556 110.245 95.247
74.6719 71.4788 111.548
84.5545 54.2648 61.8692
64.8313 90.8428 86.9224
19.3476 75.1774 68.8218
81.7195 103.81 49.7658
68.7657 91.5095 102.976
34.4616 62.9634 80.1266
74.8744 80.7268 87.9207
76.6555 78.1164 52.4266
69.4309 50.2288 53.1133
52.9601 97.5024 36.9994
66.1562 103.942 85.938
73.1519 69.6683 47.5281
31.2795 66.3767 39.2651
35.712 95.5367 94.9983
24.6867 68.8639 98.7557
81.571 83.0845 30.1068
22.8237 94.2687 79.4821
62.3092 74.7046 81.4007
44.8577 56.6267 75.309
44.7439 51.0298 65.8502
61.8971 97.8917 100.335
65.137 28.1429 72.0288
75.5654 76.423 43.9498
53.754 38.256 56.4771
23.6114 80.8354 83.572
58.7093 98.297 39.9152
54.2998 49.1977 92.5928
57.4772 111.02 74.9637
40.8218 61.2252 37.0416
55.74 85.8146 28.6115
46.2645 57.6358 80.9743
77.6969 62.1154 87.5995
81.6794 103.377 41.7094
67.7791 43.182 56.3116
72.9432 59.4824 78.6532
48.7249 106.666 99.6761
70.4708 76.0132 75.4783
28.1908 80.0921 53.0316
63.0843 98.2366 38.2665
82.9718 63.1066 50.7831
72.405 46.9279 96.2715
35.4509 100.752 97.8995
51.4815 41.663 88.2528
77.8516 75.8167 76.6923
49.6346 91.3869 110.515
29.468 80.7837 81.4688
45.3029 97.9901 71.5412
56.4051 85.377 43.3783
54.9713 57.8614 64.3177
78.2885 87.7786 34.3915
72.9202 85.3127 62.7341
76.7461 59.0355 102.679
72.1983 62.2075 39.3136
72.5136 42.6517 50
38.4005 74.4692 107.799
50.6015 40.1793 48.4667
69.6844 82.4388 104.11
51.8497 84.3038 113.72
63.5482 102.086 42.7248
76.0581 51.3818 79.0595
63.5686 61.2452 101.025
66.4232 53.4645 101.643
60.4543 53.8762 40.9395
74.5716 83.0388 97.6528
73.5255 73.6958 99.8657
72.2372 50.1454 100.085
77.8938 100.613 97.7218
70.9487 72.9362 50.7006
74.4159 39.5577 71.7394
80.1422 56.289 87.2298
40.3501 55.2978 81.301
72.0582 54.6546 103.307
32.5687 67.6927 83.0498
40.0338 55.3314 72.412
83.0437 56.0747 57.7282
78.2664 78.1201 33.8374
20.4861 80.7686 76.7376
73.5258 80.2433 68.1569
36.8439 94.9668 109.29
71.6039 79.9292 60.0125
46.8703 53.1647 82.748
65.2129 47.8975 59.3209
47.3557 96.3166 107.713
32.3454 93.6884 96.0058
45.7458 56.617 93.3441
78.3575 34.6766 62.7434
76.3517 66.9907 61.8476
60.9018 45.7388 46.1339
36.9158 90.0298 98.7898
78.5532 116.396 84.7551
41.5332 75.0931 111.155
65.9153 70.4199 102.82
69.5663 87.381 86.5814
79.8427 43.3361 64.249
62.0873 80.5881 21.595
58.4008 47.6331 55.4084
64.293 49.864 53.0009
26.7809 82.7985 75.6568
69.9458 60.1208 84.5852
66.3263 80.9618 92.1241
58.2617 30.329 69.3217
79.9867 48.0925 68.3846
77.0785 62.7492 94.2248
69.9565 42.6453 80.8794
79.865 67.6519 55.2185
58.0279 78.6497 31.8868
73.2431 56.0928 82.8404
73.5056 67.4993 98.4922
68.5598 55.9054 43.8775
63.8644 101.485 81.6262
78.6964 109.582 92.9207
79.9581 66.7391 92.8916
70.0576 45.6156 92.1475
73.9481 33.4391 61.2805
71.4351 62.4921 74.1877
68.1763 50.3149 39.441
47.3373 61.4381 46.1788
23.6012 83.4933 68.0474
34.0654 63.1161 86.1641
78.937 46.011 74.8272
54.6933 92.5087 87.0772
65.4336 90.8493 98.7411
52.618 49.9783 44.0865
74.4684 49.6196 91.0379
33.0155 79.348 91.0482
55.7945 40.1011 51.3914
81.9306 85.9236 38.5801
72.9666 50.905 82.1017
77.3055 90.5462 92.5664
37.1243 93.4745 102.672
75.3546 53.5893 88.7314
70.9554 70.123 69.0754
69.5159 77.625 79.4551
74.9752 62.7185 47.4027
84.1999 62.5482 87.7569
76.4932 110.784 52.2429
72.6403 61.7917 34.1457
22.1329 86.804 77.9715
48.7567 68.7287 101.242
46.8155 100.859 68.2715
81.9515 116.187 75.857
74.8211 66.5948 38.5255
80.1825 111.171 78.0103
69.6372 107.87 69.7316
74.7118 77.1762 104.652
77.3102 99.5956 49.6007
77.4269 70.6564 73.6428
83.1011 91.5895 46.7012
79.7531 53.5549 47.4714
43.0809 92.3902 104.422
66.4936 40.454 49.3881
64.8191 92.2017 81.3161
51.5733 53.1142 99.6366
70.2846 30.497 74.1849
43.8726 57.084 89.0016
77.9593 34.4906 71.3173
77.9611 48.5584 48.6634
74.2222 82.3422 103.696
69.0162 69.6989 56.62
57.4028 99.258 99.4387
77.2668 87.1515 58.4008
77.356 107.238 63.4308
68.1005 88.4422 94.6037
40.9358 109.664 100.871
80.4 51.8846 73.8285
69.508 70.17 73.7616
80.0631 90.5355 41.6004
