ply
format ascii 1.0
comment Created by Open3D
element vertex 495
property double x
property double y
property double z
end_header
17.0299 46.9159 100.073
43.4242 131.946 199.881
40.7726 249.62 164.061
30.8448 216.883 152.325
32.3404 132.822 202.371
28.5111 142.735 124.214
35.7791 139.726 58.7329
55.3247 147.878 187.139
46.2697 183.523 207.265
46.9606 50.2224 112.768
26.8633 17.5314 123.701
57.9706 146.096 109.625
51.0226 264.506 112.47
24.0835 180.481 91.2638
28.8041 274.317 104.246
19.0311 24.0835 115.64
24.6762 176.237 122.171
21.7538 129.823 175.661
30.5563 279.211 144.553
56.7054 188.371 149.809
29.6386 17.1601 136.615
18.5051 140.899 160.97
26.1976 185.468 160.826
51.2467 140.762 201.38
33.8857 157.089 58.3171
57.4647 168.437 101.052
41.1321 99.0162 80.0852
21.1556 132.951 93.2922
36.8469 127.539 196.637
49.5148 124.576 93.7918
36.6965 282.822 105.356
25.9704 40.9713 90.6478
20.0902 143.069 207.969
52.9506 178.803 82.3918
23.954 151.216 211.608
36.5473 165.196 196.107
18.4242 265.066 113.957
47.9599 257.675 134.568
27.7282 273.863 137.521
16.5961 148.609 167.047
43.6273 250.376 130.743
23.9534 281.147 127.166
49.538 54.9932 146.861
23.1396 280.951 138.714
47.5027 247.07 169.194
57.5763 155.411 181.932
45.2578 129.351 182.45
18.5487 29.1886 134.5
18.2705 58.6721 112.791
37.4832 146.152 126.008
33.1747 101.696 90.1272
24.0537 271.554 128.547
30.9598 153.835 127.333
45.0892 273.966 142.233
35.9725 194.166 129.922
18.7659 207.092 153.706
27.0225 141.598 168.48
24.2483 70.3157 132.414
25.7718 265.321 133.681
21.7352 156.777 203.469
45.2716 261.729 106.056
53.805 134.099 85.7348
52.4839 272.386 111.769
16.6286 52.4963 121.007
18.3719 141.892 188.669
53.5674 150.086 173.675
23.1244 271.957 109.44
31.1681 128.005 112.485
29.0559 165.548 120.822
20.2346 160.77 171.791
21.9986 32.0766 143.647
20.5174 139.157 107.522
34.8614 266.296 146.662
17.9888 47.3162 125.95
47.0392 162.624 201.071
34.8633 182.152 78.0546
31.6748 235.576 197.625
20.448 191.533 166.79
52.851 140.601 180.92
56.5657 159.272 172.732
26.5412 128.963 104.64
47.8697 280.353 110.494
34.5319 261.332 103.933
30.9295 286.966 142.763
58.9325 164.359 93.1745
27.963 128.526 194.968
55.8448 149.256 198.429
32.2827 122.185 83.6197
21.6362 142.283 199.417
17.0756 271.97 138.823
35.9778 146.983 155.472
24.8379 264.913 119.976
39.4147 231.787 193.966
54.2158 175.801 93.4126
25.3042 136.579 203.47
25.8039 126.82 77.6712
43.2405 240.238 166.022
16.2493 145.405 97.6327
37.4835 28.5543 145.926
47.5238 130.546 191.45
39.3742 238.127 201.905
21.8631 65.1047 109.704
39.1245 257.18 134.861
36.687 249.5 136.682
29.4581 246.736 154.576
16.7447 271.984 121.323
53.8836 157.34 162.207
27.467 18.3416 114.893
22.5097 132.099 166.629
35.967 169.235 161.956
47.8647 66.8865 133.802
21.6716 145.965 120.529
48.7537 206.323 223.43
22.5669 19.0871 30.8832
23.9514 161.026 161.728
40.6937 34.916 39.3456
24.8068 51.7355 88.3939
56.6292 145.011 92.2971
30.08 170.867 49.3013
17.3801 213.161 94.4834
45.1915 40.9466 103.39
47.3461 235.514 157.088
40.7866 251.544 110.933
56.2203 139.013 98.2699
41.7894 88.8444 97.1576
52.6747 173.56 109.621
49.4331 275.37 135.967
19.7689 120.433 117.02
20.6052 66.6341 125.219
52.7264 44.8981 143.662
43.5217 164.111 67.1321
40.1572 33.3146 152.764
25.7445 216.286 205.354
22.3045 44.4841 145.585
38.2339 96.8443 96.0574
32.8692 23.2559 43.1416
46.9146 174.818 114.356
36.6875 15.7157 130.197
43.0283 56.5201 100.545
14.4682 35.6739 32.5207
37.0092 215.574 164.832
21.3501 225.408 144.41
58.611 157.029 113.212
51.2451 172.799 173.032
37.8064 130.728 117.15
27.5732 280.639 107.837
20.5963 202.32 169.87
42.1043 45.8291 96.8028
25.2809 226.607 209.733
47.1827 249.416 120.918
38.9731 267.272 136.545
45.1612 180.538 75.1045
51.329 181.859 153.952
50.6139 132.925 77.0552
52.2331 208.674 162.445
56.4324 194.754 162.186
57.6548 167.741 174.819
45.6506 286.823 120.687
18.1981 276.872 129.969
39.8778 284.063 118.216
44.7979 184.25 88.6809
23.5961 162.304 64.7791
47.0231 253.047 113.853
32.0902 274.071 150.831
40.4838 36.2014 31.9719
33.2794 271.236 99.1142
27.9361 151.908 157.778
19.3146 195.145 157.321
35.3088 35.4434 90.416
28.1143 285.165 113.71
26.9408 263.208 105.59
37.2763 273.079 143.465
22.5154 148.622 62.7008
38.9874 283.367 145.748
39.4371 166.605 123.822
45.43 202.372 132.327
38.0308 290.355 123.034
36.7131 16.8234 113.805
25.1669 36.7952 149.481
51.2358 152.312 125.446
57.9698 153.125 75.6199
17.9181 262.936 126.488
43.8909 184.684 96.4075
21.0667 257.152 115.857
16.3834 151.101 103.434
26.493 202.205 144.166
42.4682 73.5212 125.875
37.7485 196.919 179.411
31.0069 282.678 130.485
34.5417 87.4474 72.8086
31.2049 211.979 198.515
51.4283 25.805 123.889
48.4815 37.0857 122.485
23.9994 222.219 193.779
40.0754 151.899 59.4145
24.9987 95.1306 91.7393
22.356 253.478 123.173
28.458 194.057 176.374
24.3408 88.3253 78.0276
50.5917 280.904 119.256
14.9642 34.9306 118.806
46.2162 18.8781 120.961
17.1917 36.3964 130.909
36.1657 72.6975 114.106
49.8389 144.587 165.716
49.9379 56.9842 127.173
39.9476 28.4865 43.7013
22.7063 22.2882 43.2628
27.903 92.7406 81.9257
23.1186 209.109 146.471
30.7225 80.3213 77.7377
14.9007 40.2214 40.0921
32.1988 161.316 124.834
43.3841 282.485 139.697
50.5909 37.7748 148.304
34.5615 78.4184 127.844
30.5537 24.8724 139.59
58.3986 161.09 86.9985
26.1757 34.171 86.8033
51.3771 168.904 117.081
17.4023 103.112 46.748
31.5555 180.694 152.568
36.128 138.41 123.369
21.8459 136.398 69.5326
25.5647 52.7498 144.807
38.3606 143.87 211.641
58.7299 164.235 78.1311
38.9535 52.6916 90.7031
18.2141 274.292 115.607
53.6521 166.637 75.2046
23.9811 226.734 201.69
25.8449 66.0577 138.655
22.0515 56.84 132.573
19.7236 37.0485 138.838
55.3349 160.094 198.706
29.2877 155.303 206.379
31.2516 18.7284 29.6376
40.819 116.178 70.1084
31.7956 126.484 70.4256
34.6968 103.228 83.1523
44.3 145.251 60.8713
43.3743 181.067 158.064
38.8458 214.36 137.445
48.1371 272.434 101.996
47.4365 139.338 65.2557
31.9306 95.9451 75.8888
40.0217 288.239 131.68
34.509 159.392 208.36
51.678 257.312 112.102
59.0376 154.434 100.117
20.9431 263.739 142.472
29.7793 224.096 215.259
37.455 17.7279 138.717
29.8808 124.366 94.0671
29.195 84.5384 101.551
35.066 180.798 161.315
32.0149 204.732 167.871
25.5271 22.9244 24.2064
27.9111 256.785 110.551
52.8533 36.513 141.148
19.756 32.7013 120.668
22.3355 83.2149 90.8545
21.9591 199.433 160.452
43.8242 181.323 151.016
40.6693 183.77 109.665
26.7879 135.606 116.444
50.532 282.215 129.138
38.9281 272.868 107.467
35.2108 229.021 217.416
30.2029 147.5 57.5077
48.3917 259.629 127.432
35.2334 125.491 182.12
20.525 26.3203 125.478
34.1843 19.7483 14.9477
32.1749 261.57 111.718
29.6338 204.926 176.137
49.5987 61.2647 116.358
58.5716 169.644 84.584
31.9946 75.6453 119.262
48.2452 88.6165 81.6079
26.36 224.357 122.551
57.4091 167.052 109.038
29.7135 179.249 105.087
37.4571 41.1837 43.7155
30.3491 198.97 165.065
25.4779 78.9984 83.8016
24.2004 159.614 115.102
50.6006 192.014 135.988
37.7637 166.772 60.9587
22.0937 189.459 147.553
40.5189 247.743 122.169
28.3093 145.796 202.117
50.9551 254.784 121.179
26.1535 20.1693 104.217
23.5812 27.3742 95.6273
45.6326 196.764 173.039
52.7382 201.762 169.417
40.4782 287.105 112.035
55.8626 201.236 152.806
51.3439 135.104 186.601
52.8555 42.9523 134.516
30.7745 237.198 147.62
14.6321 38.2995 110.958
34.0345 248.471 124.155
42.15 93.1972 85.7378
27.6382 248.955 122.649
50.6371 169.151 192.628
34.139 86.8514 81.219
35.3358 128.505 173.847
38.6225 16.2633 122.073
33.6455 133.355 162.439
43.0595 230.074 211.719
46.0045 161.036 126.785
38.4079 161.012 128.888
21.7021 238.118 153.141
42.9132 138.418 204.629
32.5803 235.903 108.723
17.1334 162.052 103.531
38.5607 221.304 210.302
53.2568 262.654 121.986
45.2669 283.656 132.739
40.7207 218.087 202.045
43.6781 140.075 157.852
23.6071 156.171 191.777
15.1992 152.619 110.357
28.1169 287.292 121.446
43.5877 154.188 125.41
34.8238 142.01 204.866
42.7742 159.481 59.6504
35.8915 180.812 144.819
46.2294 264.677 138.893
45.9835 214.003 159.438
53.8172 30.8014 136.324
28.3355 102.418 80.7629
14.5231 28.526 39.239
53.7146 32.6654 128.99
19.8576 163.381 113.908
46.5846 137.135 122.67
30.2873 227.049 197.813
53.364 160.168 124.235
18.26 42.6259 33.3898
38.7035 91.4891 75.8237
39.022 79.4596 76.7091
19.0405 36.7788 48.147
45.0227 223.707 202.458
27.1634 248.926 132.994
18.5956 262.884 134.962
17.9617 71.09 153.887
45.3585 166.271 156.076
30.1945 152.898 199.73
33.5571 161.667 154.519
46.0695 48.4562 104.074
41.829 119.704 89.9232
42.3372 157.243 207.961
46.9025 20.8146 113.674
38.6083 220.791 193.2
33.2216 112.51 63.7516
40.9391 16.2994 181.129
27.9506 254.738 116.911
34.5787 252.719 110.579
22.9666 37.26 95.6004
36.6683 187.571 157.672
57.4396 185.818 159.755
39.6034 73.5277 137.597
48.3553 150.649 204.791
23.0696 144.734 140.439
40.4856 257.617 102.028
26.7632 131.856 62.1605
18.6539 36.6568 89.169
47.9417 153.179 155.166
18.0734 197.34 146.597
17.743 39.3018 95.662
42.7968 123.009 104.582
31.2086 30.5148 93.2439
32.9447 173.3 66.1567
29.2166 174.43 112.329
46.5127 181.849 104.978
30.8699 56.2969 92.4881
43.2848 133.94 167.788
33.5652 185.472 94.7447
27.854 127.605 187.001
21.1507 159.684 121.282
40.6829 55.1151 149.972
18.8391 143.071 112.878
34.7175 240.689 207.858
35.0334 45.1377 35.2435
30.1299 87.7065 91.8498
35.8678 253.35 143.619
15.5567 156.78 97.7444
31.0205 206.69 138.504
53.9011 166.571 164.389
40.6942 177.02 68.6421
58.9385 161.67 188.399
27.1124 197.116 132.539
42.7733 133.234 62.8368
35.6463 292.413 134.387
41.3485 125.62 67.3148
19.5206 242.763 130.483
40.655 263.056 143.174
50.4556 151.011 66.9475
28.8958 199.132 189.884
44.6456 182.188 140.595
20.8698 51.7857 93.4049
20.1585 42.9346 87.1075
31.3847 114.346 57.0327
42.5066 266.559 96.8198
43.6852 28.7328 99.0659
42.9414 173.113 167.19
40.9975 152.869 129.551
31.2876 60.795 147.718
32.8913 132.153 65.0274
33.5162 25.0694 148.58
28.2841 20.6435 36.1577
35.3181 216.773 204.864
30.9307 20.3883 107.892
46.5295 84.6813 89.2606
16.374 27.1055 31.2661
47.6674 165.285 121.436
15.9574 237.062 46.984
23.4348 33.8977 23.7437
36.5915 248.279 117.286
42.4836 123.893 76.0647
36.7037 173.282 116.595
45.2582 128.539 114.269
55.4786 176.345 73.3389
34.4335 31.9883 24.2087
55.039 133.471 106.931
41.9044 216.906 153.692
43.7255 169.133 120.362
24.7614 204.105 134.282
38.5862 56.716 95.4409
42.825 194.819 160.372
51.1091 179.575 100.482
25.8663 212.083 139.218
29.4277 43.8251 47.2058
52.285 157.255 82.6132
40.0793 97.6196 89.7304
34.9948 122.595 103.312
40.8138 41.141 90.4426
44.2725 173.205 183.41
32.9376 288.541 134.962
35.9359 87.1904 87.4536
26.4234 24.268 148.403
15.6782 58.6924 134.686
44.3394 38.9413 148.282
42.1611 22.5199 177.797
36.7848 26.7579 30.536
50.7916 153.065 73.4491
34.4222 72.9373 140.353
47.126 32.6484 146.051
24.6243 30.8474 48.9414
23.654 182.591 183.719
29.3496 42.171 27.6442
27.4648 108.491 143.538
40.8107 225.309 215.609
25.3853 59.4026 96.4715
41.7814 257.858 142.568
38.5185 235.632 213.175
43.5093 119.961 65.0467
58.7277 124.953 74.6007
31.7628 222.749 114.113
16.1334 22.3387 32.2667
22.8499 61.8841 135.234
55.1162 183.81 76.8892
56.3757 152.162 121.222
40.6595 238.673 208.57
29.3574 139.218 145.495
16.42 99.9912 125.583
25.3122 201.329 170.362
52.018 138.651 118.124
44.0925 87.284 75.8018
20.4875 97.3749 83.2296
29.0543 263.598 146.799
22.9574 133.427 133.695
16.3605 128.359 134.738
48.9715 275.395 123.073
47.6907 146.525 128.088
46.1269 190.858 191.698
29.3055 192.993 189.853
20.8432 183.129 111.678
35.0986 178.411 109.922
27.8411 186.752 173.796
46.2189 257.347 102.616
56.4507 144.139 118.079
23.7515 51.077 42.8635
18.7908 92.8925 90.6817
30.2681 277.515 161.513
25.3591 192.746 168.968
23.2509 209.363 117.216
25.3062 131.483 120.878
56.6768 149.576 83.4896
45.7702 173.474 67.2575
44.3417 72.4264 133.522
25.692 123.786 127.143
13.8628 94.0594 140.909
