ply
format ascii 1.0
comment Created by Open3D
element vertex 376
property double x
property double y
property double z
end_header
38.9183 90.5874 52.6843
20.2872 36.0082 67.1648
17.0592 59.5548 60.8673
21.749 46.899 49.161
22.0071 45.1111 95.0306
31.2891 40.4956 53.5318
42.7435 91.8629 73.9622
50.0562 55.1155 38.8935
35.5008 88.0551 88.5135
29.5346 39.5143 80.2942
29.2523 81.4481 39.2243
50.3127 38.1146 56.8464
49.3796 43.0527 50.0478
40.9027 131.795 60.732
23.2475 26.2783 79.823
36.0427 42.5025 42.5323
33.6683 90.5025 81.1462
46.41 90.3117 63.4286
40.0863 44.764 68.7715
36.1126 71.6927 32.8332
22.3041 65.5404 75.5326
43.0188 56.3569 68.2891
22.0786 45.7964 85.4765
30.1643 68.6337 62.2129
52.704 76.7029 41.5837
37.0274 64.6226 30.9166
14.2949 68.625 60.3976
51.5231 98.5133 58.7212
15.7049 69.0691 74.4862
43.101 50.2034 104.977
37.0429 45.0409 83.6752
33.4847 62.053 57.5283
33.2808 20.5557 65.3652
40.3175 22.4682 62.5461
30.7075 22.1932 60.0031
39.7531 136.924 55.6995
22.3373 53.4165 55.8857
11.4558 72.5791 68.8768
41.635 136.887 49.3803
14.6258 75.8187 84.5277
38.7772 27.1112 56.0053
22.658 56.4136 49.1025
25.5554 67.6814 81.0688
15.1936 63.8091 66.9942
38.118 62.7958 63.9824
36.5686 38.3328 48.343
50.6329 61.5643 67.0346
56.7242 69.7287 68.0614
15.6373 57.0735 71.8704
44.5923 28.3859 70.5139
41.7486 78.9376 35.6411
35.4662 66.4366 68.1992
48.4567 84.0539 55.5049
41.5061 55.3532 35.1182
41.4423 36.4018 46.6014
29.8567 135.424 46.7725
29.1077 84.9346 85.2219
39.6679 41.3522 58.2843
17.228 116.19 25.5904
43.1174 120.599 54.1292
50.5474 38.738 66.0822
47.6168 63.2386 93.3771
51.6423 84.4126 42.3947
25.1275 20.8628 67.0196
42.8656 97.8574 43.8849
48.9418 50.4757 103.571
28.4109 40.7776 103.079
24.2237 46.6106 75.755
47.1748 81.6943 66.431
31.9188 19.4506 77.3469
34.7636 52.8011 37.7225
50.6591 98.8019 72.5218
18.3613 70.1352 83.4563
43.9755 68.8607 34.1264
32.2945 137.704 55.4431
57.9905 77.0287 56.9131
31.8276 26.9651 54.5667
37.1433 85.3134 74.7207
38.9596 44.4062 103.35
46.0653 75.524 32.2927
47.7351 47.0967 42.0782
54.328 71.5009 83.0274
47.6949 94.5123 80.1319
24.9293 21.5293 73.6757
34.3932 53.6662 53.9349
44.7396 59.1842 38.8092
47.2638 24.3704 66.4203
50.3433 63.4284 76.7235
27.8348 133.153 56.6084
39.6546 32.3753 51.2507
34.9366 27.1924 84.4347
51.0075 56.6252 100.214
23.412 69.4505 64.2649
21.4969 36.6491 51.7978
34.0167 32.0572 53.1395
34.7656 58.7354 33.4797
46.8573 55.433 92.5437
28.1037 64.9189 53.8735
36.8471 29.2979 100.472
22.9074 61.4817 69.3489
34.2698 96.5626 65.2063
60.2049 63.2534 74.1293
46.6873 25.1738 95.4993
41.3974 99.736 62.8119
22.0029 62.4989 84.7094
39.1401 121.144 60.7304
42.9201 31.4737 97.1016
46.4098 129.941 57.8272
30.9318 65.2045 35.7977
51.999 30.3008 85.1916
28.101 126.851 59.3258
19.6 63.7893 44.9588
55.8193 87.3785 65.3405
20.8125 39.2214 87.4379
23.022 41.5635 56.7776
35.3027 134.063 58.8862
28.1597 32.7418 53.0626
33.7457 41.4289 66.7234
57.5453 44.9764 70.901
23.132 79.2814 91.7732
51.4252 93.7504 66.991
49.1492 80.3371 36.8583
58.7478 84.8254 60.3808
17.3283 69.3962 48.4584
44.9959 44.4263 60.2666
49.474 31.1085 73.3498
24.3822 31.4124 65.5036
34.5878 38.7995 101.736
30.4053 66.8314 74.7891
40.041 28.5269 80.7568
29.6341 53.5227 80.5053
25.3516 127.292 54.0908
47.8472 39.5676 103.243
33.3378 23.7092 99.5061
23.1445 60.7218 41.2313
42.0162 88.0961 82.0584
34.4234 44.8487 103.446
44.0599 99.5129 72.0666
57.0947 83.9948 52.3499
44.1067 29.8098 84.8457
50.7663 78.5237 78.6805
45.807 122.93 46.3876
56.5431 63.0217 65.5256
51.139 46.3884 63.64
40.9086 84.0692 44.2457
49.3007 47.8807 54.5673
38.3853 24.0926 94.9037
48.2113 62.5045 35.4841
38.7596 23.8385 88.7973
31.1776 18.7979 71.7113
16.7302 124.405 75.0727
55.7146 66.693 39.1926
37.976 50.0875 74.7198
41.0034 50.9693 38.3035
30.832 24.088 88.0436
35.972 137.516 47.9366
38.3803 19.6768 68.9287
44.7205 59.9483 100.333
30.1933 41.1496 71.5881
24.6807 21.1639 85.8869
33.0817 17.2529 85.0321
22.0753 58.138 78.6587
46.5985 69.6829 88.195
33.2916 22.3578 92.9888
50.9902 40.9748 96.6699
43.5193 40.4671 51.1314
29.3169 22.6303 80.4599
26.428 60.2034 92.4261
48.8896 71.216 33.1749
20.814 28.8443 86.4314
53.0958 79.3317 64.6011
29.2149 53.8067 49.4431
36.8002 100.497 48.4612
46.3788 127.708 51.4624
29.7472 58.5723 85.6648
23.0945 33.7957 77.3389
42.4785 64.1401 36.3591
40.8632 102.929 57.7734
26.0185 55.7351 37.3812
42.9463 125.597 57.679
22.642 72.0154 43.5087
45.1385 47.6282 68.2167
50.2852 69.0918 94.8751
25.5507 26.0653 62.3406
42.1403 43.7011 45.6854
43.7615 34.5606 55.495
32.5794 117.183 61.7847
20.3745 54.518 43.5961
31.2829 64.3041 95.6798
22.4082 69.4727 89.3306
36.9336 50.5933 103.645
28.4608 121.058 59.4211
27.0312 125.476 20.7898
49.1663 50.0915 96.0327
21.1689 79.8712 81.4725
31.0129 58.4362 72.4812
45.4111 114.325 42.5106
42.0934 79.0154 90.7598
50.0127 74.456 58.0506
43.6994 51.8522 47.0597
28.3015 46.0788 87.6656
55.8099 88.9353 46.4458
24.2624 24.6154 91.0334
47.6941 74.9704 66.3528
38.6579 77.8695 84.0764
27.3327 51.2272 41.3471
63.1166 79.1871 59.48
46.0676 66.0189 97.9546
43.3285 106.941 50.1174
37.0647 64.6209 96.8962
31.5787 73.7558 34.3485
32.8338 82.277 93.8311
55.113 59.4507 44.1856
24.4859 39.52 70.2671
31.243 120.437 52.95
49.0332 63.9461 59.6313
27.1555 41.6308 64.2772
28.7853 28.6455 100.149
51.1155 36.0213 84.3544
53.7063 91.3102 74.1366
30.7516 132.646 61.099
54.3388 47.7536 56.9731
25.4335 29.24 94.6373
41.7243 54.3252 100.286
54.4651 41.9194 58.2144
45.1052 34.3829 80.7298
50.2414 91.7607 49.5369
34.1544 72.561 84.5624
34.3924 65.005 90.1897
42.9919 26.1665 88.15
37.9303 132.354 42.4775
37.5452 114.638 52.5686
56.6857 77.5042 86.3983
54.8164 72.462 37.8867
58.2302 58.1423 58.4473
44.192 129.794 43.2185
48.9091 48.5825 48.3636
55.5292 61.9122 88.0072
32.602 124.677 63.2238
48.7605 56.429 61.1798
17.1428 63.4438 54.8391
43.3201 36.0915 100.728
28.7379 78.1589 88.3773
25.9492 38.0425 89.2455
39.3738 78.2768 68.6752
45.4893 79.4493 83.8783
38.8687 21.5282 76.6778
15.386 57.7417 52.5256
35.47 32.1343 105.56
35.139 92.7637 72.1949
37.7635 71.1176 92.3064
58.975 79.6047 63.9164
51.8004 62.1135 40.1825
22.5049 54.834 88.2598
50.9667 25.5635 83.3026
24.3964 55.7298 95.0831
57.1893 60.0419 52.5299
35.9852 56.0641 99.7651
62.1701 84.9913 48.0215
43.0207 71.8691 68.2322
30.1605 122.202 47.0435
29.5826 49.2174 84.1539
45.5163 44.7967 101.496
47.1981 46.8295 74.7061
43.1314 21.1824 68.4358
51.9912 44.7798 78.602
24.417 66.357 39.9471
49.3888 67.3361 71.0369
28.3663 45.5271 40.5922
24.5931 31.0259 57.9656
44.4531 71.3585 80.4614
47.7502 69.4494 61.325
48.2754 85.5358 82.1209
49.943 33.9371 99.025
30.6434 46.059 98.3316
26.4861 71.0918 36.3815
44.5625 133.043 53.6066
50.4195 44.9429 99.962
46.3834 55.1477 77.8748
36.2579 80.8986 39.5947
49.6546 58.4669 54.789
36.7998 81.3479 87.1549
46.9803 31.6564 89.52
39.0917 45.7757 109.171
35.8231 108.162 50.6859
41.2979 69.8236 72.9651
21.5526 27.8008 69.2142
49.8389 66.2598 46.2099
41.5101 40.4307 102.042
26.5549 31.5443 88.3703
35.5179 124.178 45.3354
53.9513 42.9618 88.3433
25.6299 75.4414 79.1031
26.0443 41.5459 96.9717
44.2887 25.2975 75.8945
60.0879 79.5813 51.2766
52.0176 57.5949 73.0603
24.4514 61.8374 59.4843
31.7956 50.4889 104.376
46.2938 63.496 86.6711
25.809 75.0783 48.097
45.2966 114.06 50.3693
42.441 45.1714 40.9918
51.0358 86.9027 88.601
35.1369 129.645 62.6228
38.4008 37.5235 108.075
40.4085 70.7721 84.2092
27.7808 130.981 50.6076
39.3649 21.7351 82.9452
53.4232 52.756 49.3359
22.6736 66.8091 49.6674
28.1944 23.4796 93.7145
43.2573 20.3619 79.2399
50.5665 72.76 50.8475
49.0064 32.6671 93.4009
52.5011 35.8069 72.9452
34.6837 59.3935 95.2595
43.276 70.5364 97.8936
22.8231 31.1752 73.1481
60.3029 52.022 76.8252
54.3175 39.5639 93.0578
51.3122 78.0411 47.82
50.0267 59.9391 49.3473
56.8369 71.6948 50.6119
47.6939 31.7552 58.7605
30.464 73.9509 93.108
50.9965 46.7832 84.7282
52.0719 57.7119 79.2341
46.6444 88.9205 78.9812
30.7204 57.8453 95.7765
51.7234 58.3508 93.2467
45.6271 76.6549 42.9173
28.2091 70.2366 87.8154
30.2748 46.8408 47.9039
49.7345 67.4949 38.4842
56.7929 90.1128 55.3969
31.69 129.076 44.2384
55.0619 85.6155 78.5571
27.7002 51.9216 90.8989
40.9431 67.929 92.6245
43.2672 30.8536 64.8618
57.3065 67.166 85.9974
52.2029 36.6398 89.8603
48.945 30.2218 65.5092
57.6986 73.5663 61.6089
57.9001 50.831 86.872
51.9003 53.2706 57.6852
45.6243 55.3028 97.9796
46.235 22.673 82.9129
49.2946 40.8647 83.2168
25.8907 35.4159 96.274
55.207 60.6122 81.7184
59.4138 93.8242 66.5058
32.3695 65.2063 85.4536
50.8216 41.1971 73.0953
36 19.1714 75.0107
49.2452 51.6279 89.8462
50.8996 46.4969 92.4083
54.2267 56.8849 57.1441
48.7352 68.7557 77.8022
60.1146 82.3951 73.5362
43.3863 37.1169 71.9204
53.7004 67.4425 61.9736
41.4633 108.581 43.952
50.1599 65.7761 51.4808
57.1019 45.4692 79.4878
22.3714 30.2347 90.8433
53.3987 51.0144 89.6221
30.3628 32.7587 101.57
30.6156 57.0685 40.3529
28.9048 50.4365 99.5234
49.7319 53.0579 85.6752
53.4796 52.0728 79.8126
40.1115 75.4382 39.218
54.0637 65.9546 54.7785
28.8754 75.5607 41.0402
