ply
format ascii 1.0
comment Created by Open3D
element vertex 1203
property double x
property double y
property double z
end_header
28.9577 265.395 101.794
82.8154 137.624 141.961
47.8868 168.589 49.0638
46.5151 187.665 133.167
54.7912 95.0396 112.436
26.9215 263.858 113.415
57.0299 289.843 128.858
27.4872 171.062 86.9815
28.8471 70.1021 79.044
44.5959 205.556 45.5979
46.6925 49.6798 71.8019
58.9712 88.1793 122.074
27.9861 249.033 92.5761
26.6406 234.878 176.808
46.2131 209.802 133.395
36.6119 30.0082 82.2094
27.6601 219.303 136.254
50.7406 224.568 104.941
26.2876 146.934 130.402
26.2292 262.597 123.912
26.458 214.983 108.321
27.9869 251.042 107.66
28.3726 174.543 121.187
27.1495 168.678 168.127
38.9834 243.766 187.365
27.0136 251.668 152.363
31.5166 44.8206 68.3628
82.428 253.508 66.4796
26.0127 257.765 159.398
54.8456 196.115 150.071
36.8821 202.277 53.0759
50.1222 138.622 66.9051
83.0497 131.82 131.862
26.2666 206.242 177.226
26.8901 261.789 151.971
25.3675 218.044 115.807
83.9365 151.218 173.796
25.383 56.937 85.5481
77.1638 193.203 38.4155
59.5395 151.784 185.383
27.8908 170.847 76.9322
44.4403 69.372 72.3331
29.8095 264.039 164.852
62.7671 160.661 43.1307
43.1131 181.327 48.551
26.1227 264 133.999
54.6287 215.874 39.8362
80.7045 125.196 139.996
40.7747 160.528 181.24
48.9677 159.007 53.7248
83.0994 135.485 94.7619
26.4853 231.352 107.767
45.3069 210.753 102.053
58.4644 235.222 152.308
26.0087 167.002 97.8557
54.8693 288.328 118.69
25.7731 223.851 107.678
76.2903 262.711 175.135
27.3313 180.727 114.974
76.5242 203.33 47.6597
78.6818 271.687 137.863
26.742 162.736 154.649
30.5474 275.221 147.339
27.2008 218.984 164.073
46.6382 207.17 92.5908
32.4739 132.767 109.2
27.0579 192.294 158.017
65.9579 247.559 126.759
94.2029 48.8478 102.835
52.415 187.573 94.0919
28.2214 215.279 146.585
63.5368 283.247 165.237
65.5938 246.422 153.517
46.9971 230.054 49.7151
27.4801 228.635 149.998
25.9559 254.303 131.816
27.0413 175.982 153.747
26.9855 146.468 141.734
28.2553 222.098 77.3505
26.9368 270.401 121.915
67.861 321.713 208.893
32.2779 140.542 143.654
27.8888 152.368 154.098
27.0497 159.274 92.2722
27.6879 235.276 114.074
27.3592 198.393 135.1
31.6859 173.399 179.226
28.3826 202.861 154.673
81.6302 153.714 182.932
77.0702 256.689 107.906
26.2444 175.934 164.918
82.5111 132.408 86.3813
26.5359 258.812 106.97
27.0375 190.338 110.19
39.2675 318.672 204.889
68.4633 156.078 187.741
47.3173 210.445 142.065
47.2151 176.098 193.557
76.3467 258.786 116.567
66.2347 311.501 208.394
81.8124 122.061 129.08
27.9483 206.965 97.8838
57.3842 233.868 103.591
76.9834 214.912 41.7194
66.2804 305.932 204.384
74.7175 24.7996 85.5045
28.878 228.239 83.6816
26.2638 222.549 127.876
26.6541 226.672 171.97
78.2383 239.729 76.5917
43.1395 221.826 51.7707
26.6516 192.204 122.857
26.239 202.967 110.007
54.6138 125.431 146.239
54.6883 330.61 207.482
36.4006 36.4542 70.8353
77.2066 282.678 115.152
70.31 255.798 144.286
53.0915 166.185 193.306
41.9906 321.742 224.126
78.623 123.036 86.5092
69.9087 234.237 85.883
27.2604 209.484 139.515
39.8177 35.4275 90.6779
83.8151 167.699 182.226
28.7122 237.518 81.1639
30.7855 251.466 77.8051
47.6403 223.563 114.232
54.4645 122.349 83.5578
28.0347 172.724 110.599
77.098 206.899 39.7448
31.2147 60.9127 93.5341
28.1199 224.28 143.684
43.8473 212.648 111.604
41.763 285.649 131.222
58.116 191.318 155.504
26.522 185.538 154.271
25.8569 154.914 114.724
60.0768 164.54 194.182
37.2524 151.594 167.509
36.5149 221.153 191.495
49.9198 197.371 143.86
27.8337 217.681 100.166
81.4403 250.494 81.6643
31.3095 205.302 190.643
79.4208 211.729 195.563
34.3131 55.0566 98.8215
66.4237 146.263 181.57
35.7889 282.547 124.252
36.3625 267.797 85.3974
76.6121 87.9353 118.745
61.2083 315.989 213.282
73.612 271.037 177.951
51.8788 190.704 144.079
28.9493 146.283 149.367
26.2929 226.97 118.932
63.7509 158.574 127.038
49.1201 180.659 44.3405
26.6511 198.251 77.3925
35.663 247.614 181.93
54.1926 153.237 52.1306
32.518 151.962 161.872
62.0451 197.695 164.125
45.7875 193.822 198.854
57.9649 277.432 85.5766
83.4079 126.011 120.858
83.3042 166.059 173.254
26.9659 52.4636 76.2651
26.4824 215.734 123.675
52.3007 217.185 199.402
26.6468 253.045 164.365
61.7344 330.481 205.433
27.0206 236.592 128.143
27.3842 186.218 93.966
28.0929 273.665 129.85
75.0419 149.338 98.5693
64.703 237.717 160.707
38.1522 85.2603 87.3471
26.2085 167.722 120.866
54.1063 232.601 145.294
28.0218 305.92 210.778
26.9987 201.97 170.4
26.7482 226.925 162.665
55.7685 282.854 162.489
46.9781 125.097 92.7883
28.0396 225.709 180.579
27.1897 201.063 184.584
26.8351 239.605 138.586
55.6198 289.281 138.72
28.3062 226.399 96.5785
54.2884 59.9425 76.536
39.6069 194.756 50.9094
47.8174 286.604 143.686
29.1252 239.58 73.2246
26.79 209.988 184.563
80.5322 265.944 118.612
47.2957 195.327 41.8129
41.9251 127.67 138.855
40.3818 273.865 168.298
26.748 193.453 130.266
26.1786 245.121 126.406
68.0743 145.253 52.5809
72.9124 251.432 104.965
76.3459 132.892 51.2131
40.6035 174.849 189.139
76.8504 241.517 84.7239
75.8341 230.749 70.8812
41.4579 208.86 119.995
60.4257 283.587 97.8251
65.1166 231.559 89.4915
29.8871 48.5988 82.9607
26.8944 201.068 141.287
69.6322 85.0764 127.916
55.844 294.151 201.947
36.6295 244.378 66.7063
71.5215 151.05 125.155
59.2166 148.822 49.9298
34.5963 276.479 103.593
79.1516 159.916 48.2743
42.2507 131.007 85.0112
37.6607 136.902 78.256
41.9852 285.591 139.443
77.2649 215.68 50.0894
48.9832 178.62 114.376
41.0525 64.7686 112.739
43.1044 200.223 197.944
27.0014 193.499 140.641
27.0151 200.284 87.1401
47.4377 305.198 198.943
41.977 259.4 73.1214
42.6286 122.736 100.828
65.151 205.976 33.2637
81.1446 37.9916 108.887
61.1575 242.466 132.907
75.5946 115.82 113.985
48.1231 22.0286 74.2356
26.684 155.185 144.742
36.4304 180.972 53.6746
53.7623 94.5073 103.034
33.7658 270.697 163.295
75.0325 148.904 181.915
53.7214 267.653 73.0295
76.7851 148.687 50.9381
30.7234 189.913 57.3925
66.9604 30.5953 99.7103
33.5562 211.394 58.5012
61.777 265.318 66.3793
26.7523 185.064 73.9799
27.7217 229.275 72.1228
26.6983 211.148 131.013
56.3507 220.194 89.7897
47.0018 168.531 189.776
51.6071 253.112 59.6282
26.9544 148.693 112.612
54.5676 302.1 199.751
76.8084 177.993 39.1597
42.8188 201.397 108.903
81.7825 139.626 69.3431
75.4896 209.224 53.838
41.8825 153.643 59.7903
78.6456 266.285 127.103
50.4262 145.057 172.365
26.5721 158.051 131.077
28.3248 215.67 69.1956
30.4717 193.624 188.641
26.9391 243.757 132.883
76.372 143.08 121.277
26.158 202.25 117.228
48.8155 85.4339 78.0349
67.7975 165.714 79.8433
78.5197 181.386 198.037
61.4907 180.136 82.3002
72.889 258.224 59.0483
62.6347 225.906 86.5689
38.8409 211.697 52.9198
38.8111 255.261 182.312
64.9065 236.975 41.6176
72.2758 231.984 79.3269
25.8518 153.82 125.945
55.7465 236.125 118.853
47.3957 226.06 125.516
41.0397 139.827 150.534
28.5187 204.805 146.984
80.3036 221.899 191.766
78.4844 31.6895 81.9415
57.8992 165.508 43.5958
63.7297 124.614 73.2182
51.8631 122.543 135.894
27.9637 142.2 121.229
27.3773 247.237 118.149
35.104 307.43 199.514
66.2815 20.266 70.6119
27.2817 209.831 81.8496
61.2608 94.5961 116.032
41.2405 144.06 163.481
55.8645 239.239 198.257
48.4883 268.182 178.421
26.8837 178.05 86.7233
68.6247 179.889 159.937
27.6555 257.842 145.966
60.2382 22.1606 88.7609
28.0244 215.591 86.4831
70.8245 285.696 102.958
38.6735 129.53 92.0375
61.4398 253.103 54.1776
26.9557 152.424 97.5272
76.8686 149.36 90.9148
65.399 312.624 219.952
79.2432 254.972 95.3327
26.3972 194.185 166.163
59.0643 166.3 104.593
82.5209 259.158 73.2225
45.5846 266.036 78.2221
66.8949 122.556 147.058
47.355 133.114 74.009
78.9117 149.305 139.409
41.7615 214.671 196.08
37.0581 150.451 66.0516
35.2459 135.105 139.169
31.526 76.5517 85.0134
63.1257 73.0897 126.416
65.5622 138.169 173.174
50.855 75.3316 74.8995
77.0939 267.224 145.88
42.2437 275.431 94.1618
26.5748 165.12 131.395
59.1432 183.624 150.765
72.4067 209.343 60.2866
72.3077 302.809 210.238
75.411 216.97 57.3459
76.0936 136.664 171.944
45.2188 315.861 209.857
60.994 125.335 148.756
33.8803 222.308 60.1266
68.985 305.388 217.565
31.8985 297.866 217.143
28.6383 68.9408 90.6631
27.6299 241.802 172.106
80.6882 150.524 78.4569
40.8006 90.9756 98.9853
47.4811 195.167 136.618
27.0299 172.272 131.968
42.6002 74.4222 116.009
82.0606 238.18 212.23
27.4109 208.143 90.6461
26.3825 233.436 121.743
45.4612 314.308 200.017
64.3688 116.71 123.738
64.3675 162.504 97.8172
26.9108 194.962 180.194
76.8268 246.652 90.843
27.399 272.378 137.572
77.9956 249.832 178.726
35.7134 282.411 144.142
27.612 206.225 159.685
73.6474 53.5807 77.1987
77.1618 252.149 54.1189
29.0024 256.512 85.2107
38.2445 233.987 60.115
63.7374 187.749 158.172
72.0706 247.491 98.2967
67.8268 248.134 119.403
31.2805 199.538 58.988
49.6398 285.258 153.511
78.5302 223.729 47.6962
27.1446 187.619 133.84
34.7322 165.473 178.098
39.5848 226.227 56.3526
76.2041 115.804 106.119
70.6325 153.579 48.0674
45.6697 137.353 157.616
77.8655 269.935 161.642
40.3314 282.603 115.474
65.7707 322.613 201.213
35.0219 45.5172 92.1426
80.3082 203.194 194.206
71.4044 276.872 81.4527
67.068 154.513 122.654
54.1172 205.377 37.654
34.5419 38.5309 92.9535
45.5613 244.671 191.251
58.3726 78.1546 123.396
36.1023 198.813 194.033
26.6474 162.406 116.298
69.081 157.262 94.3317
37.601 128.531 131.791
74.5743 263.092 140.2
64.6598 247.788 137.364
27.7612 218.833 154.299
36.4943 127.335 117.091
68.966 70.7072 128.253
51.9452 199.946 200.683
30.874 136.266 130.265
55.4096 168.544 132.05
26.6942 175.455 96.132
58.176 120.457 130.607
38.3882 278.168 157.372
77.1783 72.379 128.606
35.5785 259.836 79.0423
79.8544 141.677 126.645
70.8942 201.147 59.1402
70.3796 177.112 198.021
52.295 312.899 213.034
54.4795 226.729 149.433
30.8381 218.515 188.175
49.2519 220.875 46.6926
62.4295 327.901 214.545
51.9003 215.309 91.8741
56.9577 87.8555 82.683
58.2387 302.76 224.073
26.2978 232.354 158.281
78.6525 143.497 178.077
38.4591 269.529 172.474
41.8878 241.311 60.1036
59.9657 240.486 126.302
28.1842 242.067 152.169
33.4903 145.072 155.625
75.2381 123.675 148.24
70.7439 181.142 33.9337
29.8322 245.013 178.552
80.0851 228.447 189.996
75.9761 194.605 48.4109
49.4064 127.204 79.5618
65.7576 158.636 102.27
80.6379 142.424 94.7715
28.4141 142.421 134.34
72.3471 153.743 138.582
72.4698 288.476 120.017
25.9317 160.183 106.295
40.4972 284.678 147.795
27.8645 175.469 102.956
48.7498 282.768 160.995
55.6658 162.075 49.9757
77.576 168.2 44.4624
67.3074 23.9619 89.6826
79.74 147.6 56.8068
66.258 276.24 175.984
56.6957 325.838 201.147
52.2567 24.2645 83.2665
26.3328 177.049 74.5426
27.6417 268.681 144.538
43.1218 277.727 163.642
72.1366 217.109 177.106
67.9771 290.588 133.773
46.1219 219.236 197.225
55.8124 237.063 132.016
64.074 132.715 62.6053
59.7465 229.43 160.114
27.0377 153.895 137.932
84.3251 125.062 101.593
65.9865 242.093 101.643
80.1338 274.149 84.1539
73.8424 169.602 159.907
32.0458 182.052 60.3698
81.3959 166.028 189.026
34.3533 264.702 170.376
42.7986 190.312 46.053
81.5183 268.402 76.5782
40.6529 233.96 191.068
49.0251 280.315 96.0981
81.9669 240.43 57.3948
39.7491 143.783 71.4487
63.9653 168.545 38.3528
70.2289 182.181 202.749
48.3389 31.583 91.7543
27.7156 170.71 148.681
40.9665 150.326 172.387
76.5825 168.961 194.066
38.1284 301.621 203.191
27.9508 142.595 100.264
56.0539 209.496 200.858
26.9368 179.585 134.375
78.1364 237.449 179.42
30.047 275.665 117.575
26.8658 254.044 116.351
46.8151 155.994 180.991
26.8663 165.009 87.2349
46.7476 237.311 53.1026
60.5531 28.2471 96.1331
26.3121 196.751 174.625
62.1061 119.809 86.1281
71.6063 253.826 124.426
59.2986 279.139 171.576
72.998 255.03 158.833
58.5786 255.252 191.871
63.4758 160.365 136.552
73.1298 78.7546 131.263
77.5286 265.511 168.812
78.4843 236.844 48.9887
47.7838 206.304 200.135
45.7328 281.846 103.07
42.8876 161.675 54.1592
66.0141 271.61 73.0716
75.0602 263.405 183.055
80.4391 253.665 88.4543
55.9768 227.078 97.3193
65.5207 114.354 115.488
68.1346 205.133 65.5674
26.8547 204.091 132.051
48.0361 287.567 127.855
35.1416 130.36 98.2599
57.7183 118.543 92.7005
78.5129 187.385 192.485
54.4296 131.841 68.3048
78.3081 137.766 111.842
26.2779 169.451 158.478
79.7907 119.437 97.7257
59.0245 219.301 162.225
80.6589 133.447 160.244
55.204 314.819 223.866
29.954 136.832 115.865
73.6896 131.397 65.976
75.128 261.775 132.284
24.6813 168.783 142.26
47.0923 192.037 97.558
27.3352 200.622 71.2644
83.5984 131.033 102.619
27.9203 146.723 87.0235
82.7815 246.938 74.768
30.2018 42.0004 85.0301
26.8599 191.244 81.4615
69.9413 150.36 114.11
59.3784 247.734 197.424
77.9026 206.181 202.457
39.0782 173.972 51.9527
45.925 144.296 169.048
66.3068 199.045 65.841
70.7929 171.266 37.7636
68.713 120.136 80.58
44.472 299.975 216.405
67.5525 235.237 166.745
46.1449 82.6649 115.652
72.7215 131.622 165.299
79.7882 40.8996 102.166
57.5589 198.825 202.535
53.8982 215.792 155.981
79.8784 234.929 187.272
36.2894 259.372 177.035
74.4137 239.719 197.142
71.2794 140.329 176.944
90.6114 38.2807 96.7279
62.1579 288.65 111.071
80.9148 259.252 100.834
65.141 157.188 108.643
79.8843 79.2894 128.013
70.6593 195.814 171.14
67.8433 173.423 156.153
81.2696 94.9412 100.281
66.3507 192.761 31.6601
46.2334 128.277 145.451
76.6806 116.372 122.413
52.4779 277.185 170.628
32.1652 278.794 137.435
85.6268 64.922 122.24
43.7474 195.293 104.273
48.8429 92.0398 108.343
81.344 29.7001 94.5204
75.9687 168.91 74.5443
82.2657 265.601 106.677
52.6364 227.938 197.991
52.1044 245.95 192.46
27.2693 184.603 103.39
60.415 211.937 35.6843
52.9279 184.539 38.2032
58.7833 142.896 176.244
80.0802 63.7406 124.643
27.3067 240.571 118.831
47.4297 88.0271 84.5623
70.5622 135.903 59.0301
64.1828 168.836 92.7338
54.1492 117.492 101.21
56.3985 139.308 170.575
27.8405 241.776 87.4646
76.9367 159.426 190.5
60.7813 163.588 131.714
36.4729 273.997 93.998
30.43 230.534 184.974
80.4735 234.021 64.7045
26.5085 156.534 85.9257
59.5889 130.795 159.462
35.0474 317.22 210.17
50.166 263.06 183.896
27.4852 199.631 162.908
26.0953 207.511 121.806
27.2623 187.394 86.9189
51.12 308.654 203.616
72.2617 252.251 115.718
75.3564 252.718 165.629
83.8403 245.094 64.3374
80.7576 274.932 116.672
52.3439 232.485 123.831
31.2181 265.612 90.3561
78.1692 159.118 71.911
75.8673 156.551 146.355
52.8501 57.4079 116.6
84.7071 87.6902 109.588
48.0992 331.159 208.52
26.3559 190.739 171.625
75.6523 247.238 170.833
27.2961 183.895 141.688
45.5657 250.143 62.1148
78.6479 280.534 106.115
48.257 221.259 136.373
31.6426 140.785 86.1195
84.2232 157.519 167.315
47.2369 239.597 195.572
49.5983 145.86 59.5198
39.7929 137.168 156.048
71.4219 243.747 165.847
77.1273 264.653 154.327
42.7946 79.5628 76.0474
46.2416 293.137 205.167
67.246 124.747 154.272
79.3849 182.316 173.456
33.1941 178.216 184.769
47.0796 287.078 121.107
76.8161 285.103 126.17
63.1339 245.85 144.147
74.8754 45.2054 116.679
66.9405 114.428 106.636
79.4239 174.982 170.415
71.9908 28.8985 95.6181
63.8484 280.56 89.1775
29.7873 225.093 63.9666
53.6544 184.889 145.59
50.3417 83.2913 121.506
27.0279 210.042 165.995
67.6069 239.053 200.217
83.5848 158.823 177.478
71.0368 163.101 40.7528
67.9573 251.898 133.297
68.0677 288.447 110.059
78.3938 184.98 41.3866
29.099 208.586 64.7031
35.921 188.702 52.9879
72.9648 189.799 202.695
42.0011 254.418 67.1622
28.3444 267.55 156.31
52.1088 232.942 133.848
42.864 196.335 116.346
82.8829 273.464 100.895
28.7424 62.2007 77.2004
62.5814 170.507 196.955
26.4604 250.95 139.461
48.6464 178.887 136.192
54.2308 178.112 143.997
27.0876 195.524 147.827
47.5337 96.1927 96.0471
73.7134 176.91 164.16
61.3649 233.456 96.1594
53.7345 137.564 161.137
72.5283 286.383 151.933
27.1012 209.423 75.3583
78.2638 139.638 60.8814
78.7824 196.151 200.32
32.5399 312.574 214.75
82.7827 263.915 85.9748
67.7523 55.2795 78.2078
78.4473 279.512 134.768
45.6504 229.917 195.658
82.3787 270.141 111.782
73.4156 145.388 116.781
42.5581 89.0096 87.293
81.4871 86.9055 122.688
58.1808 257.871 60.6732
72.3606 117.109 91.9058
64.4431 190.563 203.656
83.5329 124.856 112.674
65.1307 64.9325 83.1098
35.7485 173.654 57.4862
83.8625 144.148 169.824
26.8637 194.559 115.243
33.637 281.141 131.425
62.2104 190.449 72.5963
32.788 299.784 207.343
29.0275 271.595 108.967
51.0305 119.89 92.9254
43.5429 163.818 186.281
55.6473 99.5916 94.8047
57.5052 240.982 46.5402
47.9558 314.736 226.386
62.1095 156.82 191.141
81.2769 238.277 69.5752
46.902 120.184 105.909
73.021 59.9351 121.272
67.6566 229.866 204.083
27.0441 191.183 98.7531
70.8819 256.402 136.957
29.1919 189.219 66.0105
27.7754 256.181 98.1118
34.9497 183.341 188.586
71.561 159.718 147.728
46.8075 60.2374 110.425
82.9477 145.351 73.8829
55.9108 222.684 156.904
83.5039 140.238 79.6997
66.8368 21.5929 82.1658
74.496 220.42 62.3227
66.1643 60.0951 121.462
75.0895 123.793 77.9717
26.764 146.057 105.996
33.6595 130.297 124.05
60.7796 315.033 198.866
94.0116 61.8464 106.096
61.2522 115.686 102.118
72.4085 162.966 195.656
56.4599 126.091 73.8856
60.3921 166.032 141.433
26.5433 182.829 160.811
71.0856 89.5769 121.489
41.906 75.3777 107.746
79.3034 206.054 186.633
60.5632 175.703 89.3344
44.8224 121.346 114.528
43.1751 281.768 154.231
76.772 141.531 103.116
57.2064 174.747 38.9852
82.7492 147.485 63.786
31.0745 143.676 78.1989
62.6544 180.154 156.086
56.8301 223.41 40.5554
46.4478 221.623 128.801
60.7773 229.615 40.3155
44.0478 191.813 108.954
70.2099 247.606 159.079
83.2831 263.552 93.4076
82.7203 258.194 80.1898
61.0705 180.034 199.013
51.6499 42.1336 70.2538
75.9795 251.289 191.103
37.2761 84.9647 97.0034
31.5757 134.447 101.139
61.3517 198.29 32.6743
54.5287 176.193 195.204
34.4632 250.332 72.1193
65.8173 290.202 143.282
33.2041 236.153 66.138
55.9575 71.3171 78.4843
39.7248 316.9 219.165
76.6911 214.636 203.335
68.7395 211.457 66.1629
49.5644 30.7103 81.838
71.9436 241.436 90.9255
73.881 221.092 36.4685
72.5661 62.4949 126.013
85.3399 148.498 162.056
41.2926 84.5997 109.325
69.2416 92.4865 88.616
26.9698 181.031 171.383
45.9863 40.1265 99.7408
50.6027 243.597 53.7218
77.1111 229.249 178.475
64.081 245.805 46.6879
85.9996 49.3943 114.112
50.0099 216.849 148.419
55.2394 247.329 52.3788
65.2504 131.462 165.272
34.2787 73.2393 102.14
81.4846 137.867 152.934
50.2468 220.618 143.622
59.8331 306.538 216.888
92.6318 58.7781 113.393
58.5886 172.221 144.625
56.9004 273.777 178.318
77.0139 227.817 60.9666
52.2096 172.326 122.11
43.656 250.884 188.915
75.6426 200.85 34.8929
51.2311 155.29 182.902
28.5315 196.111 63.9988
56.6356 230.847 200.334
60.9916 162.414 110.463
53.9913 177.284 43.2928
46.9083 324.171 201.777
28.6298 176.473 175.242
73.2979 258.714 153.093
68.2454 248.506 194.309
75.4666 221.489 200.664
80.9289 135.188 117.472
51.2042 177.217 107.005
77.8303 256.781 177.797
28.0429 219.056 93.2207
41.1168 26.7493 74.3612
55.3415 286.421 108.537
34.7054 313.715 220.39
38.3047 294.094 205.546
54.2785 168.115 112.088
54.8468 265.143 185.161
60.1209 265.963 185.555
48.8027 297.7 203.578
64.364 182.233 34.7982
58.793 216.598 199.291
26.9897 167.758 106.825
41.4888 264.144 175.364
81.4185 249.354 58.2996
71.0362 44.4809 68.4579
45.6219 213.555 47.3814
60.5524 289.545 145.511
67.0226 167.587 151.356
31.029 139.23 94.2951
69.3188 268.243 184.948
25.7891 147.176 120.99
61.5937 204.677 203.59
26.1695 157.401 121.452
53.2951 233.993 45.4209
48.3673 183.192 196.62
52.432 206.442 154.562
54.622 150.845 181.463
27.6979 158.127 160.935
27.0954 223.625 88.5726
44.6125 271.468 84.0556
51.4483 76.9935 119.892
56.4664 82.6052 126.324
77.852 244.234 181.27
77.3841 154.117 83.8576
77.1516 53.7433 112.898
80.9433 157.221 57.5192
27.534 148.552 92.3591
54.3144 173.33 138.125
83.9454 81.9674 125.759
47.0549 274.621 172.59
74.7366 184.833 169.902
27.9436 184.772 126.48
65.3171 96.5903 109.288
77.2995 185.585 53.1275
68.8146 283.419 95.1577
75.773 31.9535 100.026
37.4602 303.06 222.988
29.0491 184.676 184.199
57.52 287.641 152.893
69.3945 225.95 77.9534
51.3657 274.596 84.8725
45.0387 304.16 228.231
30.3866 239.837 107.074
74.9989 235.375 42.0664
55.3794 75.2107 114.214
70.3048 175.525 75.6993
73.2226 117.44 131.747
62.3131 174.561 150.162
65.6214 191.598 66.7009
53.2525 118.633 120.891
77.1598 172.177 58.2138
57.8522 189.694 81.5406
61.9204 242.324 118.284
77.4492 272.414 150.221
61.6542 241.296 148.871
85.1689 73.7837 125.336
47.2445 25.8273 85.1437
66.0794 161.165 142.706
36.1517 306.358 211.407
46.2805 89.0577 113.522
81.9191 192.547 188.163
42.4253 47.5424 103.241
69.6877 194.133 59.4294
34.1399 147.302 72.7543
82.5983 160.629 185.146
65.8373 222.752 169.101
57.7438 189.091 34.7582
85.3096 144.66 157.494
25.8427 257.104 120.525
55.6192 326.212 216.5
80.2329 166.182 58.3254
31.7494 81.2111 90.5327
52.3769 257.987 66.7524
26.9034 236.87 145.439
57.8671 204.449 160.843
61.7947 274.728 78.135
43.9946 153.614 176.363
86.3279 35.1636 101.86
78.6471 227.552 53.5773
51.8842 209.301 149.384
68.1937 178.251 71.6942
72.0645 282.359 162.777
67.8778 55.009 119.739
53.535 192.144 86.8551
83.3889 173.2 177.684
74.3566 271.441 73.0297
37.6659 208.684 195.819
95.0121 63.4187 91.3892
73.6603 288.517 142.443
32.3296 160.891 167.554
52.9117 178.435 99.1859
39.3518 55.9542 106.966
28.1911 172.441 140.162
25.2104 156.091 100.961
77.1865 255.798 186.536
79.2226 150.37 68.9503
50.4407 255.817 190.028
27.4099 189.728 144.27
63.0455 258.313 192.579
79.6105 263.613 67.0356
75.9037 275.444 165.334
84.5687 183.003 174.625
72.3761 38.3226 110.161
49.5374 178.809 129.733
33.5229 163.096 68.0659
65.0401 95.2153 98.3572
36.1887 279.647 110.789
26.8086 241.588 166.598
82.3105 273.459 92.6685
25.9137 242.221 160.077
54.3744 256.511 192.413
44.3558 145.972 64.2537
65.8627 77.8076 129.498
66.4842 262.816 61.8381
39.1605 167.042 57.0778
56.4975 137.747 60.2968
78.6404 278.794 98.9392
40.591 321.138 213.785
70.5702 227.656 171.131
45.9073 89.0557 103.768
53.466 29.4104 97.9631
37.5889 160.642 59.6066
32.1686 304.033 218.538
66.6337 161.164 194.754
26.9629 180.352 148.903
27.6574 197.396 92.7136
55.4039 96.4591 87.2064
54.7572 232.214 110.511
67.4105 63.9646 125.811
55.7152 19.085 75.3139
87.9834 66.4256 116.535
72.4751 267.239 66.9747
49.1355 284.589 110.416
74.8739 259.885 125.38
73.1408 276.236 171.765
32.2453 275.086 155.147
29.4381 39.1912 74.2583
90.838 42.277 88.1876
77.4934 177.789 56.6101
79.6504 278.538 127.495
37.525 125.511 106.694
77.5038 278.577 143.459
62.2587 53.6906 116.305
78.9084 173.818 50.0986
73.9133 32.1024 64.7573
34.549 306.284 206.003
34.3415 236.057 186.127
76.8619 201.483 181.583
83.0604 184.007 188.25
59.8565 79.1424 76.3532
51.8531 203.692 147.458
53.5901 196.705 37.3907
72.1334 227.844 36.3881
63.0857 95.9131 87.4528
72.2478 187.738 59.9102
89.5016 46.3383 110.52
57.5826 62.2307 123.353
74.7912 281.027 90.6499
55.584 118.274 112.15
67.2623 245.453 108.113
71.7303 197.046 31.3982
73.0234 180.63 63.4399
59.3661 321.588 219.143
53.6208 183.634 199.429
59.6438 162.802 117.337
29.7672 246.843 82.7439
56.9925 68.5071 118.722
73.8247 232.712 199.863
69.4036 59.6664 83.5786
79.2957 225.263 183.096
46.0288 305.696 208.084
68.2214 156.154 135.972
57.9895 29.608 84.9189
50.4358 307.103 220.168
74.8448 148.508 130.497
57.4756 188.888 202.397
28.8257 262.251 93.566
86.8498 34.1667 91.9283
67.0035 198.852 205.559
70.1144 211.889 206.789
68.4541 208.745 176.103
67.5608 238.644 95.4988
81.2747 155.521 156.518
73.948 94.5111 104.155
43.2801 30.4659 84.6861
67.1338 222.611 67.5395
59.2587 209.638 162.103
67.0136 212.211 170.578
72.3592 225.38 70.1429
80.6586 53.0923 117.23
81.0247 149.668 145.825
48.986 68.3447 116.843
80.0283 272.97 125.832
74.8722 206.511 180.138
58.1827 239.01 140.757
84.8476 34.0498 83.524
87.8399 70.5698 111.851
60.6446 239.14 112.437
70.7315 172.115 79.2952
70.9931 148.713 107.012
89.7667 69.3435 121.719
69.844 126.743 69.5579
52.4908 317.097 205.647
77.9958 58.6553 121.947
64.3489 119.885 137.467
48.6226 122.017 128.847
45.61 317.51 219.64
63.0987 141.601 53.9781
66.7306 87.8744 80.7848
70.1475 201.117 172.558
51.0419 229.24 137.031
64.81 39.9394 108.376
30.1505 181.279 68.091
47.4533 252.161 189.204
47.2208 319.832 215.274
39.9877 189.53 195.378
83.029 138.648 164.14
61.1158 94.4215 106.31
40.8531 307.657 203.042
68.0023 168.605 86.1413
52.7956 47.5552 74.2677
82.0965 157.362 63.902
56.8889 71.213 123.852
87.507 78.3171 121.812
63.5349 269.242 184.016
43.5694 299.629 204.123
42.8052 33.5618 77.7855
75.1543 160.36 154.745
48.4713 131.406 151.485
32.497 76.3742 75.7699
49.0861 322.097 221.407
53.283 318.994 217.66
68.316 218.441 70.5733
27.5969 163.453 77.8374
82.9061 88.1749 103.013
93.7231 54.9682 93.8262
44.8512 122.474 122.911
76.9743 174.925 193.935
83.7207 58.4468 120.959
42.8479 312.859 224.844
31.9013 174.115 66.7026
60.8057 61.3971 118.616
74.5971 66.5882 128.8
47.5128 31.1925 67.4749
87.1092 83.3005 102.225
68.5632 260.065 191.458
30.7281 156.4 71.2624
46.8983 202.618 138.075
58.9951 313.121 205.136
68.6116 213.8 32.5657
70.0149 95.1445 94.6142
77.7997 165.61 161.979
82.8278 151.1 152.043
59.9653 161.929 124.107
61.751 230.368 202.935
62.4965 204.46 165.182
86.5642 55.7547 77.6636
61.6531 20.6062 78.0378
74.495 24.8545 77.1505
50.6405 193.98 82.116
76.5529 277.737 153.882
66.6222 287.002 157.206
77.1891 259.783 164.411
65.5815 173.587 84.7322
65.0927 217.966 172.426
62.038 65.8652 124.867
89.0447 73.3207 117.573
75.1302 173.528 68.4265
78.9555 214.167 188.108
45.0716 82.7271 104.887
89.1187 174.989 41.6002
78.4554 86.2362 114.109
69.1715 222.022 203.983
80.8938 46.9845 112.159
66.528 291.305 123.416
60.2722 65.1623 80.1888
33.8964 155.545 65.6597
48.3288 92.6299 88.5579
71.058 203.122 205.947
29.4539 182.553 121.392
72.2878 244.471 45.2296
74.0548 80.3555 85.2376
48.4 77.3336 109.432
57.0748 200.358 156.235
60.1495 20.9469 63.3813
75.3483 285.291 136.152
76.3426 242.861 173.427
39.0476 36.2447 81.6324
65.6915 155.635 115.589
27.5022 183.259 179.389
28.413 181.646 108.135
63.4536 213.87 204.501
47.9275 198.321 93.3766
51.7392 310.62 230.045
75.9372 164.118 67.5266
37.8771 185.956 192.184
33.4437 56.3858 71.0023
54.6558 167.219 123.89
69.6062 248.395 111.946
26.4176 185.462 166.252
93.4979 44.7251 95.5062
78.9235 28.4591 74.0128
76.8467 245.069 190.636
26.6766 258.611 140.878
51.7573 79.7065 80.5631
31.0344 187.569 176.038
61.0355 177.707 35.8736
87.8868 83.0741 117.761
42.8737 36.8256 66.5743
89.2937 73.9728 103.952
82.4933 63.3469 81.9361
61.4661 219.139 80.5578
74.4975 53.9451 118.575
85.0358 81.5881 111.959
42.2887 306.277 222.998
70.5892 90.8724 115.573
76.752 227.326 199.145
67.4102 172.922 198.423
64.0377 74.9551 83.4826
62.7164 214.479 76.4193
65.6663 186.445 69.5896
92.036 74.2657 93.8583
54.4755 54.9608 111.094
53.9298 204.018 76.0108
59.6968 19.0776 70.7111
75.9796 85.0405 102.203
48.0322 62.6968 116.375
63.0879 30.5092 73.2076
79.396 240.827 189.49
68.9163 252.41 50.7806
50.9759 70.3661 121.261
84.8673 76.9893 107.251
86.7996 57.0858 116.738
77.1258 159.913 78.643
31.0551 66.0092 99.6917
70.8675 44.4049 110.701
67.046 193.998 166.631
59.8598 94.3181 101.645
68.9075 50.9606 115.524
78.8932 189.764 179.108
80.7847 40.7146 71.6136
68.5332 163.52 149.635
87.0696 57.6006 108.358
53.4458 199.221 87.0614
76.5647 62.354 83.0281
66.4177 251.264 144.472
88.8925 64.6036 82.8737
74.0172 234.984 172.364
44.6973 257.774 183.332
58.674 203.929 74.0207
82.0847 183.904 181.039
79.1344 47.7138 76.0174
78.4941 93.2613 95.4596
38.0149 51.6455 67.5811
25.1855 201.605 103.647
52.475 40.4072 104.794
77.6114 88.7614 92.1376
79.5659 197.602 191.191
40.0875 49.9318 70.4408
70.5099 153.707 98.6189
67.121 186.678 163.863
47.6984 303.719 217.673
80.4279 160.766 164.726
65.6035 69.8169 79.2229
31.3761 152.012 79.4517
71.334 90.9242 100.185
66.4579 182.472 71.4367
29.4368 180.432 143.818
29.4657 228.666 136.58
64.5698 219.16 202.386
58.0171 214.451 81.2369
64.1172 222.949 79.0418
32.3577 254.682 171.256
43.6769 71.7601 112.452
60.0452 92.6188 96.5347
92.2852 68.0095 97.5733
88.7068 37.5643 77.6403
38.3369 67.8143 75.2864
61.6886 34.5809 67.5737
79.8519 143.987 86.8343
76.5385 215.939 182.784
75.1428 158.59 87.5746
27.5816 342.971 217.808
62.2846 48.8168 79.5319
77.0182 194.734 179.922
71.8839 188.229 168.399
67.005 34.4161 68.8254
92.6668 65.3828 110.568
88.9872 76.5504 112.29
85.8823 52.9074 102.349
93.8244 56.1134 101.404
63.8931 25.5696 64.4273
85.8147 78.1371 96.2967
83.7589 75.9725 84.8762
34.7568 138.425 147.776
41.8092 302.438 211.183
26.3608 207.646 107.138
91.7485 51.2323 82.1133
69.9383 96.8357 99.8577
59.5375 42.462 71.5501
80.6656 177.383 181.185
92.4851 69.548 85.3641
83.0789 38.9044 77.9538
76.8793 87.6527 108.412
90.1042 62.1725 102.17
28.384 216.122 180.344
77.8504 132.095 77.3497
60.7268 213.227 166.946
56.1457 20.0475 80.8266
79.8789 81.3326 105.814
94.6331 71.8868 106.287
65.1432 228.992 167.589
