ply
format ascii 1.0
comment Created by Open3D
element vertex 564
property double x
property double y
property double z
end_header
34.1139 49.708 94.7321
101.341 89.0973 126.054
66.3556 55.8366 32.2347
58.5113 100.469 84.1874
55.6364 69.3392 63.7212
57.2603 58.8045 31.5434
51.9185 107.505 89.4272
80.6087 100.096 109.06
47.7328 37.3338 110.391
40.0864 92.6039 106.81
30.8016 67.2356 34.7359
14.7875 66.5448 47.1809
17.3736 79.2413 41.7224
22.5729 89.7088 37.9429
20.2837 58.187 57.4012
53.107 52.7175 34.8355
29.7694 42.701 56.9355
44.7761 28.609 97.7628
91.9919 66.8234 130.447
59.3528 40.0995 42.449
63.2198 75.4067 140.646
42.4126 44.3288 100.494
42.1952 99.7549 89.8334
75.5073 105.472 104.017
63.5788 44.1409 35.9649
34.107 54.8996 40.1579
68.8956 50.2187 36.7168
80.9445 50.6144 141.114
74.8701 56.5744 34.5734
84.793 34.9039 75.1279
20.7954 46.8776 58.8828
30.509 87.3442 92.5612
43.1121 72.3403 34.8561
59.9918 105.094 105.966
87.8673 36.9201 105.141
72.5326 94.6559 89.3084
61.1261 108.579 91.4771
30.8152 90.7016 79.9999
52.6512 85.6346 118.088
23.7273 54.2111 82.116
33.1484 34.7773 57.9557
56.6371 30.856 79.6381
51.3858 75.7088 79.2634
43.2442 59.9337 109.471
34.3791 97.7773 73.5202
53.8214 28.1791 92.4268
42.4859 31.1983 77.9425
26.0921 72.3505 95.6131
59.5379 51.8454 38.8881
38.3982 40.2807 47.9457
54.6508 106.679 98.6639
15.4822 87.0864 36.1265
26.2216 48.8856 77.3366
38.7394 90.1322 94.3617
101.558 62.7096 90.8731
71.4975 31.0033 122.283
38.2236 93.4199 50.3354
63.2925 29.5836 72.7193
34.277 47.4864 81.5147
75.8442 62.4407 56.3843
54.0361 33.7877 110.319
52.3164 60.4881 119.692
43.6118 35.6715 49.7516
48.2662 36.5694 118.121
52.3142 68.5837 119.71
36.8309 37.8141 74.9444
42.7268 37.0624 97.7329
53.9681 29.6108 57.8155
88.8502 31.6923 85.8004
46.5806 48.1985 102.654
21.0214 85.3174 34.0521
74.0186 29.1429 85.9096
28.7202 50.0105 55.6869
26.6527 55.6594 50.7751
51.5239 26.2006 112.214
69.862 22.0391 112.898
34.2949 66.5177 105.049
45.0817 64.9437 82.9943
75.4348 96.2227 130.735
68.63 103.863 95.3671
41.4075 100.071 80.3061
53.4123 93.7818 63.0863
106.968 66.2144 124.649
38.082 70.1025 45.9799
47.3744 46.9886 112.054
57.4867 86.4116 67.7313
73.84 90.0699 78.5569
41.6573 32.2636 88.0872
58.05 99.0964 92.1971
23.3199 49.2767 46.3163
48.1909 76.6324 38.212
56.6958 103.023 64.6287
30.3219 92.6101 67.6189
64.9139 77.1919 38.1104
94.0132 37.0998 93.6647
57.9336 51.6008 59.3385
49.7915 37.3359 71.262
41.9151 53.8722 83.987
71.5692 38.1114 124.795
54.8767 23.6944 82.791
50.5653 89.831 94.8516
48.6542 52.6419 82.9796
57.6717 42.296 59.7716
68.1442 27.2 117.449
59.4287 47.1836 125.116
89.895 40.0914 97.8697
68.8167 29.2201 62.4391
100.098 65.0407 138.047
63.4793 23.9665 88.8305
54.4024 52.881 74.0341
38.3409 42.0973 62.5745
41.3257 79.8504 102.093
41.4772 74.7299 111.806
31.8658 48.1744 68.3196
45.8211 74.7499 86.4415
69.717 49.774 136.142
67.4295 97.4642 81.8892
92.8497 97.4643 129.753
92.924 75.4962 73.1997
77.6323 88.4176 139.198
21.8141 56.8057 74.2189
53.0809 91.7014 75.0964
52.3949 34.1569 102.417
76.3368 52.2567 39.4657
48.6888 106.587 99.3994
41.1751 99.0629 58.0688
74.6829 74.7243 145.345
81.8 84.1085 144.187
50.011 90.4962 55.8788
30.0076 69.058 100.438
83.1185 56.5262 63.6943
49.4614 82.3729 87.3385
38.2459 78.3282 90.8891
109.304 76.55 118.531
69.7932 59.8946 144.102
37.6001 44.9077 44.0023
34.6575 57.2777 99.1636
23.6887 59.4704 43.6264
52.1738 54.8562 121.037
38.9973 70.1405 92.0268
69.0401 67.3166 34.331
49.0316 108.651 82.3677
40.8945 42.5226 69.2162
98.0322 56.5412 81.1056
39.6046 48.2694 36.4192
83.7336 74.2499 146.97
26.8625 37.9904 63.8407
42.3617 57.105 33.1558
77.6023 44.0142 135.162
80.4825 94.3361 97.1971
53.3596 67.6457 28.8142
30.6019 96.8548 60.2259
79.7428 28.531 104.02
89.9169 69.2155 137.785
29.3214 77.1343 101.736
35.5979 73.6689 106.611
62.2966 34.838 126.158
35.0464 58.9326 87.2274
27.9319 55.3692 37.7049
36.2946 83.8109 101.947
37.5431 59.2882 106.061
57.3069 78.3607 62.7945
98.3394 62.8565 77.0986
41.3249 39.9938 85.583
45.4823 92.9523 101.944
81.6708 74.3373 137.98
68.9107 81.5152 142.606
53.2815 94.6593 104.375
49.9285 62.2469 35.8373
58.1824 22.9411 93.0068
28.2679 60.2293 86.2446
73.4532 104.667 113.982
76.5471 34.8238 62.7773
98.2678 53.1513 88.7129
50.0878 36.363 62.8164
42.8468 38.2591 107.077
57.8575 43.632 66.8265
28.8138 44.8733 48.7123
91.8924 56.4025 126.097
53.17 45.0227 116.049
30.0377 60.9855 98.7077
45.2085 85.4225 95.386
72.7833 91.0421 139.203
69.5296 103.479 85.5305
43.4879 105.087 96.5542
57.0164 105.004 80.2699
87.6927 89.2874 138.157
93.7632 44.8181 87.6933
100.225 74.3534 140.939
63.2429 21.0921 98.0001
64.6064 44.228 132.738
68.3445 103.687 102.949
66.7354 110.686 103.799
44.5844 24.669 63.484
41.4024 81.1171 37.3754
62.1342 74.4691 129.402
69.3594 95.5136 128.084
61.2219 101.741 76.8542
47.2006 54.209 111.055
55.0741 45.6709 72.3423
94.798 53.0139 136.011
68.5539 27.2408 125.147
64.0485 21.5828 112.532
108.526 79.7359 128.518
84.7155 95.4416 136.102
48.1819 39.3937 46.1893
36.0189 65.4248 93.5386
53.828 34.0132 116.619
90.9485 33.0899 125.778
29.273 81.4735 50.5035
86.8278 29.2925 117.078
35.7916 59.4433 46.7444
52.6638 29.1256 103.831
72.1485 38.6047 44.0519
47.906 72.0934 116.571
63.2823 61.0313 140.652
63.6925 101.693 122.868
96.5545 63.0031 122.864
52.009 40.0042 79.8091
45.7222 95.7478 94.4208
63.9689 45.4508 59.3443
43.7436 81.3196 109.991
46.2527 44.1912 38.0276
36.3053 90.2362 68.7417
34.2912 62.5728 38.5669
89.2181 39.9855 85.7082
46.1016 43.1445 106.885
72.9872 34.5616 130.819
53.5505 79.191 72.6446
50.0438 34.4282 50.7903
69.9418 54.5036 56.781
63.7931 21.7046 105.422
69.1034 84.8524 66.7154
49.5496 100.245 94.1332
98.0935 74.4218 116.53
42.4957 54.4682 39.9883
60.2486 27.3971 61.4958
52.0171 59.4297 79.421
70.4947 34.7358 73.3775
71.0665 45.3739 60.0132
43.5096 99.724 67.1113
84.0534 36.59 84.9865
81.6097 105.661 120.566
42.3811 36.9586 59.8964
38.5944 43.7049 92.6243
89.4157 81.1173 139.774
99.5575 88.9437 134.906
54.914 37.2743 52.8582
50.763 34.7862 90.8269
75.953 27.872 94.2424
71.2549 22.8369 89.5828
96.7059 52.421 101.386
61.2949 32.8157 64.4577
47.3555 43.7751 92.3382
56.1123 59.649 65.9754
46.4071 26.0353 72.6016
111.891 48.717 103.418
43.0144 44.1156 50.8785
33.3232 80.0455 98.0686
54.6828 29.9128 121.39
53.2053 60.2608 94.142
34.4481 39.4082 66.9193
83.9097 57.2009 134.653
68.8891 71.9771 142.87
25.4418 77.9983 44.7327
31.8866 42.9936 75.7351
63.3951 25.9251 120.855
92.9527 90.871 100.92
45.8584 87.5134 109.041
96.1133 34.8365 125.893
87.1687 94.9017 101.015
76.408 63.7982 145.723
56.3646 80.8642 129.981
42.0975 66.4095 111.981
48.4139 27.2859 82.5028
74.5159 52.4601 139.801
36.0109 28.8892 73.2832
55.1119 102.182 55.2557
47.933 97.978 107.129
40.7209 32.6273 69.8962
88.7555 53.7072 136.007
98.0482 56.4431 117.55
97.5831 78.0182 122.904
63.2585 39.7585 129.563
42.5077 71.7604 105.212
58.1186 59.2078 59.8925
33.4442 43.1089 47.808
38.189 30.6802 62.2139
102.101 46.3455 102.565
42.3123 46.649 109.239
84.0194 66.1998 133.335
43.6551 84.6335 52.1876
78.9875 22.799 100.961
54.7569 102.922 106.777
43.5389 106.639 76.5588
58.8435 24.7298 111.527
44.7366 30.8653 55.8444
77.4689 26.5559 120.942
64.5531 30.0456 127.446
35.0255 37.6639 85.4823
77.2916 35.8726 126.963
57.3618 23.4466 101.989
34.099 49.3991 44.2288
56.8119 24.0734 75.0511
88.359 50.4062 128.749
30.8234 74.3852 47.7399
78.7952 31.31 87.0146
61.1548 67.0225 133.01
68.9225 41.764 131.71
94.4024 80.4598 115.169
39.8356 94.5804 75.4712
43.8921 63.5848 38.8346
57.9531 74.5552 57.0171
68.3445 92.8785 68.2656
79.9905 32.1144 115.772
54.0572 65.7032 38.0516
68.192 34.6852 129.722
67.6459 47.3571 48.7528
46.8615 56.3477 38.0869
43.9667 32.4293 64.1287
85.7517 74.4203 129.417
38.756 60.027 34.2779
57.6812 75.4056 32.0964
97.422 32.9406 118.931
45.4509 104.4 85.7197
44.3202 47.8937 44.7314
53.4972 76.8985 116.264
54.8954 71.2167 130.539
48.6814 68.7921 37.229
77.8786 44.008 129.872
67.6909 99.7937 131.354
78.8528 41.4451 67.9616
61.6286 58.5918 55.2837
96.8609 41.893 101.415
92.3372 87.8545 141.087
53.4311 49.0828 41.2202
42.4838 40.6778 42.7056
31.7137 53.9473 77.8278
59.395 100.268 115.117
68.7075 66.8288 139.502
51.1043 36.957 42.2264
49.5029 104.934 75.7157
61.387 34.255 52.2886
56.827 44.8222 50.3315
39.2815 34.6979 54.4763
101.851 80.8785 114.651
72.6656 36.3892 66.9094
55.3685 80.7213 54.9531
101.547 74.4378 102.093
85.6385 46.1813 135.502
38.7885 93.5114 87.0185
48.0737 31.3185 104.863
33.0654 97.3207 49.6664
44.6703 80.2868 115.195
116.229 50.3954 96.3717
67.2323 28.7524 81.6565
35.6593 89.2468 82.228
66.7719 36.3649 47.1495
24.817 49.1012 68.6396
49.9341 80.7442 57.4262
26.3785 76.4446 36.2954
63.0787 62.1193 31.6212
80.9139 33.9007 68.2589
84.7724 81.7007 67.5369
40.8753 86.8569 101.817
63.3617 59.8968 130.911
57.4681 104.642 70.0317
75.2025 28.3907 129.232
51.6824 97.5778 112.313
94.3407 71.237 141.833
49.457 88.3297 47.3476
57.5028 73.333 48.4341
86.4175 102.159 110.385
109.958 70.1119 100.2
82.8766 24.5223 109.928
18.4208 71.4465 41.2458
47.7564 29.919 88.6836
52.6663 47.4588 125.069
61.9384 66.546 36.196
47.9269 49.2888 37.2875
98.0959 42.942 107.855
91.786 30.1231 119.169
60.5182 86.0831 129.934
69.6196 27.485 75.4177
84.7192 97.4683 118.505
53.4282 80.9641 122.201
34.4965 37.2921 51.2112
67.571 89.9332 134.915
47.9056 96.1247 62.5643
84.0477 27.8863 97.0104
103.085 62.9657 133.087
103.385 68.501 117.087
75.1752 24.9 111.916
62.1132 53.5769 135.931
77.1113 65.3043 136.811
82.3994 37.0121 132.992
98.2285 82.8664 97.4657
97.1258 38.682 69.8337
53.5419 39.3029 122.406
58.0228 73.885 135.823
99.6118 92.0336 109.982
85.8112 27.7125 103.56
49.4577 42.7136 83.1898
67.2039 94.8256 58.706
58.605 31.5857 73.4997
101.236 71.9132 109.036
57.2597 39.3853 111.397
84.8698 100.009 128.479
36.1399 37.029 100.711
67.2954 102.097 115.89
51.8596 26.9011 67.6798
67.1032 48.2489 125.918
62.0207 96.8301 63.8902
42.0159 87.2145 44.1139
68.7999 19.7805 98.6056
66.0307 44.1086 42.6566
39.814 61.9191 84.8148
53.0335 33.9619 45.8324
57.1022 93.4522 116.168
76.3193 99.0382 121.657
51.1787 25.9188 73.5621
82.5425 48.8777 66.0602
28.201 71.0343 41.8843
79.2048 69.5041 143.768
47.3856 22.3259 81.8987
89.3221 40.2526 134.244
21.5208 68.2409 42.8373
100.7 43.096 97.481
63.5813 92.8528 129.918
86.8409 72.3693 141.719
64.2091 68.2381 136.882
91.4575 77.5152 135.641
66.3942 107.405 112.048
84.832 63.2383 62.6201
70.3107 27.0058 99.8381
35.7688 83.0301 41.6232
54.3964 64.7445 72.2452
93.4049 50.3311 75.392
109.14 62.0287 78.0539
112.306 49.2563 82.7577
87.725 48.4998 74.424
81.2996 25.2935 115.63
46.6857 37.5579 90.1367
52.9545 96.6921 56.6421
88.2586 63.944 56.1098
82.9593 30.3888 123.069
68.0699 83.8072 57.948
113.041 58.5713 87.7934
36.2422 71.6404 33.5931
74.0572 70.755 42.3024
68.3287 66.6149 133.134
62.5637 80.9316 136.544
56.4696 89.0576 55.9271
58.8405 30.0651 119.573
88.977 101.661 117.602
47.6755 88.6273 62.4322
56.381 34.7818 126.989
113.295 55.3875 76.217
29.789 86.8928 41.7144
57.9414 44.7369 130.578
116 61.0997 104.091
82.9313 26.8695 76.6167
103.1 62.1914 109.925
69.3523 71.0449 52.6309
29.4708 60.1714 37.4208
48.2455 36.5005 56.1061
75.6468 83.6679 74.0052
47.9462 31.4901 59.9005
49.8913 44.1362 42.5778
94.5378 62.8624 138.369
83.2851 33.3157 106.595
104.68 46.8399 90.2209
39.4966 62.4621 100.396
94.2864 91.3565 92.3998
53.2598 42.4735 42.2287
100.188 50.6297 130.198
89.7126 85.5089 88.0305
68.0875 23.2483 84.1554
39.7551 76.3074 35.3619
51.4343 103.431 67.7727
49.1902 83.6425 42.3518
91.2027 32.4851 102.616
97.3979 80.693 138.844
95.4831 31.7579 113.232
56.7184 28.9931 67.8548
99.2072 90.3855 101.222
70.9578 85.9569 129.838
72.5758 43.115 132.392
94.2139 37.7095 104.406
100.256 44.2522 89.6782
107.354 80.0236 98.2046
61.2556 35.52 56.7624
38.5298 51.9938 89.1615
85.9528 37.7229 46.4561
55.7868 72.2218 42.094
73.3408 46.1461 49.6607
58.9419 65.7643 127.63
63.4121 107.227 85.4873
94.0181 47.5583 129.248
48.4973 98.9923 57.5496
105.334 44.9008 96.2281
58.4992 24.6179 107.18
49.625 77.5148 49.1951
42.4 66.229 34.0628
99.8235 97.582 121.813
85.5662 71.8403 66.4367
57.2272 94.7013 50.898
67.92 88.361 78.074
97.1056 37.0356 109.078
88.7024 27.0772 91.779
90.9941 99.9157 103.728
84.1657 51.036 44.1259
112.404 55.5007 115.854
46.8159 102.143 103.4
25.5409 65.2311 40.4737
67.9512 72.1817 31.593
92.5647 99.9689 121.233
82.6628 41.7792 74.1842
74.3901 34.9174 53.2601
59.2741 87.5721 124.235
57.9738 56.6573 126.642
86.1791 35.906 125.949
53.5307 102.148 74.6707
103.638 91.37 116.916
56.6309 76.081 124.281
21.2649 53.6477 68.3812
88.9365 56.0599 69.6363
63.8925 94.8245 134.61
111.187 63.7743 105.307
37.8482 44.4954 81.8574
47.252 97.4477 52.9476
82.1071 88.0008 83.955
97.4052 48.0149 81.49
93.8712 42.9487 54.8216
69.4719 90.9109 51.4082
65.9083 96.6021 73.427
66.7649 36.9701 55.955
62.9773 85.9158 55.7922
36.7869 46.4812 88.8005
83.7796 45.7798 128.137
105.338 69.0584 80.4786
58.6864 89.0486 134.048
92.8862 35.7313 108.568
105.003 43.1525 108.554
55.603 90.6012 48.4215
63.8793 90.6683 47.926
78.2833 79.8766 68.114
88.9884 27.1345 111.412
91.5759 46.2754 79.8705
55.3175 82.2626 41.4723
108.718 68.3085 110.549
56.8997 98.2116 121.606
105.856 74.7714 106.8
114.269 48.5683 89.302
82.7596 41.8841 41.817
114.994 54.547 108.127
104.003 39.1881 92.0243
29.7048 48.5906 73.8256
112.284 59.668 95.8138
71.5502 62.9798 38.3378
90.5724 31.8912 96.5083
100.405 81.2082 107.242
61.0511 79.4595 43.2031
99.6374 39.2092 114.269
