ply
format ascii 1.0
comment Created by Open3D
element vertex 230
property double x
property double y
property double z
end_header
56.5489 38.6916 40.2883
41.2197 99.1263 127.115
22.7352 39.2603 51.8252
33.2779 126.616 103.444
24.8952 71.1511 43.8734
27.2042 43.3452 54.3928
23.4003 112.653 117.171
44.4401 138.629 103.76
41.8408 122.445 136.417
22.0761 127.493 118.522
41.1745 104.725 133.392
41.7476 122.957 107.333
51.3139 71.8986 35.5264
26.3097 100.699 111.835
20.6202 120.268 122.206
18.1238 133.847 107.092
45.7288 121.264 92.5563
26.5177 49.2854 66.964
48.5648 123.265 105.815
28.4891 132.83 124.515
39.4717 138.845 119.382
26.7649 57.9916 41.4588
38.4453 114.695 98.3644
39.1429 67.5175 26.756
27.6556 124.834 133.984
24.0845 44.4495 35.8912
27.4375 121.528 121.757
26.4562 95.7092 123.615
40.7732 126.552 97.0752
40.8801 72.7259 49.9383
43.4597 106.876 104.995
32.8867 101.458 131.993
37.7838 38.7453 71.2228
51.4798 130.134 105.811
40.4388 98.101 107.917
25.2947 139.862 110.303
45.7707 29.9063 40.6829
36.4467 75.4854 58.3542
51.6549 108.848 124.296
31.5545 69.2371 52.9659
23.0872 106.58 133.207
48.9895 75.28 54.3159
43.5256 102.22 114.915
27.6001 61.0796 70.4756
29.0825 139.717 102.675
46.6677 54.7212 22.5861
21.0426 61.6808 60.9434
45.7652 111.597 136.845
24.8357 112.413 130.645
21.1669 42.1277 42.2177
25.0473 106.47 120.14
54.225 32.6529 54.0803
42.0033 80.2842 41.5833
26.6579 54.931 29.5336
29.8086 127.347 114.865
62.5448 73.5792 54.4843
21.6077 54.1842 47.4462
21.684 142.773 117.254
45.5437 36.9714 28.2954
24.1005 115.184 104.607
46.8704 38.1667 68.2493
37.6376 130.092 119.913
25.9015 67.4332 50.8455
61.8034 64.3249 44.0965
55.8839 42.5092 65.2662
33.3452 118.987 105.43
34.067 114.053 137.34
23.4379 135.966 101.835
37.499 103.81 113.081
31.1609 35.7602 39.7904
22.0044 102.678 114.662
30.1076 75.6532 49.6485
25.5268 135.077 129.723
51.9852 62.0464 26.6943
35.8644 29.3754 36.9495
26.5995 112.478 137.255
28.0145 30.2762 42.1974
38.3227 92.0583 118.911
37.0179 71.6876 37.911
52.2126 100.974 121.931
24.826 68.9735 38.4019
35.0853 61.0624 73.1937
30.9708 112.364 100.958
47.7639 103.58 126.983
44.4229 131.091 129.183
56.1983 59.2631 31.4374
43.9406 48.4865 75.5871
54.2624 122.958 110.545
62.1174 56.1932 32.279
18.2826 46.3274 55.9679
46.8505 131.806 113.71
42.3495 32.932 63.246
56.1451 75.7959 61.4746
49.1613 114.815 105.643
79.5285 140.707 150.556
32.3426 146.334 102.974
76.3958 96.7763 23.4913
33.2673 94.7611 111.142
48.8671 112.883 113.69
62.6545 60.7814 62.9419
33.229 68.782 65.2067
38.0736 110.928 111.665
23.6868 122.443 107.222
55.7016 72.3076 55.5586
33.0334 141.6 118.341
30.388 43.1801 43.3189
47.0499 57.9329 69.3381
54.7976 31.4035 46.0439
36.3411 93.2308 129.351
65.3668 46.6331 49.3464
46.1176 64.2861 25.5115
47.8543 26.4611 52.2156
47.6774 31.9856 57.708
52.6166 39.7499 29.7835
23.3582 59.7184 52.4587
24.4223 56.2953 63.4848
36.8696 43.3589 28.4541
50.749 104.757 112.298
28.8543 43.6533 25.7118
19.3523 137.635 115.042
41.4812 117.105 138.131
31.6815 67.4381 44.5192
39.2833 60.5397 68.7662
55.9737 49.0223 68.9196
19.2443 107.879 126.397
22.0521 114.606 111.347
36.1125 63.4697 34.5765
53.9438 68.2744 30.0651
62.8668 49.4416 44.8378
52.6001 80.5831 47.192
31.3871 117.826 118.102
30.8402 117.23 125.301
27.7935 133.244 110.431
44.4365 68.2358 63.1289
43.3828 69.2506 33.0828
83.7677 145.655 154.06
43.7167 110.689 100.673
31.5963 133.714 104.107
17.7614 112.196 117.655
55.1458 54.9812 51.9686
30.1819 64.1682 39.3261
29.2391 61.8845 31.4649
44.7171 74.7793 37.6339
35.0627 107.827 136.582
34.875 98.8898 122.75
26.5039 147.264 115.42
65.1156 58.0513 43.6864
58.5695 69.8992 48.5853
50.4189 74.2889 42.6666
60.2241 35.0749 44.8138
46.5959 137.748 121.069
37.844 39.5414 39.524
32.4915 94.9794 133.178
34.3988 56.4284 25.7497
41.9021 78.417 54.3523
58.4881 53.9786 68.153
42.2447 30.2055 50.4436
30.2381 108.449 133.149
30.2845 104.964 119.075
61.365 63.252 53.8051
65.2224 48.6363 36.7174
37.9319 136.733 112.833
24.0827 146.155 104.93
29.7609 101.246 125.676
33.268 77.9616 43.1094
46.9208 108.108 130.223
41.2253 137.042 125.499
34.0094 34.3991 28.9786
28.4524 112.701 109.245
53.7552 64.7502 63.4718
35.0378 22.3613 66.7068
62.613 50.1708 59.1324
58.6671 76.9429 50.0654
37.203 78.6918 50.5905
30.9658 55.6577 72.1753
46.177 102.362 120.956
16.4702 53.9654 51.1322
55.149 47.8666 28.4607
35.3507 126.646 117.118
27.9251 120.891 105.064
28.2232 35.4438 60.6673
56.2816 58.6312 62.4748
58.1251 68.396 34.7452
34.8375 51.0377 32.8444
54.9874 49.4516 34.7065
24.8889 107.406 126.04
26.0376 68.5334 58.8067
40.769 133.515 106.436
39.7079 59.5523 22.383
21.474 45.5213 61.3366
64.6721 57.6994 55.6899
40.6225 133.763 92.6031
32.5179 65.7954 28.9487
38.51 73.2538 65.5453
25.9167 148.144 109.533
26.7337 108.556 112.854
58.786 67.1615 60.7713
45.8496 54.0352 31.4145
42.2745 35.4982 32.8755
50.0345 41.3483 37.7063
48.3075 65.803 74.4709
48.2398 75.6381 61.4951
83.2871 121.783 11.8085
32.3112 124.433 128.622
33.9209 107.609 101.668
33.2649 99.7193 114.763
41.723 67.6383 70.1054
32.9121 107.829 108.883
25.9766 124.868 127.827
28.3204 31.834 53.2886
52.7482 34.9583 35.0624
44.1501 38.0396 41.638
42.6158 96.2481 76.7401
66.3095 54.7046 63.4176
63.93 51.6158 53.3224
29.9012 42.7224 62.9211
38.2589 128.112 132.702
43.2173 63.8711 31.4878
31.3693 106.927 127.423
32.3733 33.0686 58.3671
46.5352 48.8045 27.4782
34.8698 130.31 112.41
59.4446 40.2279 48.8539
38.747 56.7713 76.6719
54.5723 69.5722 67.9272
38.4162 128.527 128.728
60.5062 39.4298 58.5808
66.5292 54.9273 50.2246
31.4975 24.7688 74.2577
50.7759 49.0873 24.8468
