ply
format ascii 1.0
comment Created by Open3D
element vertex 136
property double x
property double y
property double z
end_header
13.1364 58.2725 107.798
32.5139 101.345 92.5804
24.4035 50.1701 21.5251
39.0481 54.332 36.7543
11.0322 29.7241 28.9226
36.9437 82.3848 86.2245
34.5154 91.7554 85.581
36.75 84.5744 96.1852
31.3592 44.8013 19.5011
11.2669 64.9136 93.3093
36.1823 75.5173 92.5386
14.8983 55.7929 97.997
35.3037 50.7924 27.7172
30.6377 46.1051 116.815
17.3275 53.8756 114.583
20.2738 58.458 123.67
18.3688 87.7212 80.0725
42.4863 47.5393 40.878
9.9081 75.6962 101.966
34.1836 62.5064 98.8367
10.4483 48.9235 30.4042
43.2607 39.5184 41.0003
20.467 59.165 30.7797
34.0763 33.771 25.5776
29.5559 55.8757 29.6026
13.3971 44.3899 39.3929
20.5005 94.5214 110.039
38.2066 77.2756 104.978
30.5335 101.379 103.688
41.223 97.3177 105.646
12.7354 69.0764 83.6882
42.9608 79.2963 114.45
27.6821 43.1837 107.898
36.0367 72.4847 83.6534
10.7535 37.0672 23.7815
26.8253 92.786 82.1778
37.511 28.8398 33.2816
9.94991 73.7953 89.9147
34.133 61.006 88.3571
28.4843 38.8368 17.5387
12.5361 82.0362 112.517
32.3296 66.9574 80.6328
21.3097 47.1802 105.735
9.48409 36.193 35.3914
37.7558 85.7451 50.5426
14.1315 55.2357 36.9093
38.6094 70.6961 113.943
38.4765 47.9101 105.513
25.2432 23.1521 26.2952
20.3384 74.4296 100.009
20.5463 50.3199 93.8217
17.4585 50.6673 40.307
10.6063 81.7113 133.659
43.4716 47.4322 31.9705
20.8155 48.7108 117.255
38.6867 93.6233 95.652
34.9816 69.3215 102.583
44.3134 87.7602 118.441
43.7305 87.9198 110.7
39.5133 49.4922 117.259
17.2228 93.3689 91.5366
11.5287 69.3373 114.339
14.3693 36.3221 44.5766
24.6707 20.3458 33.0401
32.1342 22.3874 35.1279
43.6414 97.0916 53.9748
39.4869 39.2273 29.5739
34.6913 58.8268 107.268
34.1819 46.3361 46.9954
43.2202 75.3803 121.986
42.597 86.3613 104.62
12.9798 79.4698 82.1699
29.9662 30.4659 47.1633
16.5865 27.5702 43.6871
27.4746 22.3218 65.3464
26.8631 70.648 76.2673
20.3382 95.2369 83.1107
20.085 27.8956 24.2898
17.9763 97.596 104.277
15.3769 61.5171 84.4719
31.5482 109.092 72.0084
33.6931 43.0548 104.697
39.6732 54.5657 112.184
23.3369 34.866 46.6669
22.8844 2.8666 154.654
26.4394 14.0933 75.8262
23.6061 59.0846 37.7807
10.6783 69.0755 136.391
37.7372 32.5672 46.3614
18.7671 69.5724 77.4999
25.0589 50.3948 121.055
23.1225 35.2461 16.3572
36.5941 52.2319 97.1814
42.5442 64.4609 124.355
36.6811 88.9692 123.574
26.8924 44.514 97.9715
39.923 78.1226 128.278
40.2526 63.4656 118.225
22.1236 80.523 75.53
28.5177 28.9239 21.9299
18.7036 22.2871 36.467
30.8808 85.3915 78.3913
32.1907 58.1252 41.3209
26.3547 50.1733 46.831
32.0894 49.6722 88.9906
11.9447 28.6433 37.8634
32.8621 98.958 113.412
20.0575 24.4859 66.2947
38.9503 26.8532 40.6444
21.8269 91.4174 120.187
15.0835 55.0393 26.1583
24.5609 99.6529 88.8844
26.4439 59.5066 80.6613
24.8049 94.5596 130.449
27.0474 15.747 68.2341
19.9164 69.0336 124.591
17.4426 82.5397 122.746
12.3728 93.0122 132.454
45.814 85.6444 65.6139
16.8218 76.2513 123.35
31.5474 72.2221 130.583
35.9957 64.6036 129.251
27.7131 52.7298 125.814
16.8281 48.7841 19.0139
37.4615 44.0814 23.9617
22.3503 53.2109 86.1854
20.727 100.594 96.1031
11.7366 86.9289 88.1348
29.9743 59.4211 129.008
15.0697 37.8787 18.4715
25.1305 73.8446 128.469
36.9558 90.4506 57.8419
27.2912 22.7102 41.095
36.2715 54.5967 125.631
30.5941 82.5491 128.492
26.2858 91.3018 121.704
