ply
format ascii 1.0
comment Created by Open3D
element vertex 96
property double x
property double y
property double z
end_header
55.8008 72.8633 99.2628
55.1355 80.2936 97.1479
51.4024 91.1722 93.2459
12.803 48.7701 95.6246
52.3592 76.9048 81.2807
23.0008 57.1683 64.7955
43.8171 77.0992 122.965
42.6849 101.358 86.1564
54.9312 50.7692 94.9935
29.4133 95.7784 109.812
22.4507 68.7672 63.2263
42.3884 91.9913 69.7016
23.3214 92.6799 76.7922
32.8989 75.6684 127.285
19.1096 43.251 111.972
17.2423 51.5139 107.175
21.2709 93.3327 96.7539
17.6264 65.0703 78.9657
21.7992 50.534 68.409
20.7138 82.7131 77.4193
43.8002 69.4573 62.5858
16.2864 48.1839 88.1745
20.4185 89.4258 85.2119
32.7344 32.7256 98.8558
22.9621 93.3906 106.455
16.8008 39.1457 97.3765
40.5351 69.3132 126.034
27.3154 33.9197 106.207
37.0952 93.4608 117.74
17.0258 40.6047 85.9605
56.2325 69.9166 92.6215
58.9169 59.5053 103.812
46.4722 97.1335 93.5388
31.5121 102.792 79.5402
54.3487 60.8461 85.5319
43.3499 60.4716 62.7482
21.8738 98 90.5128
25.8032 99.0544 99.2791
30.3181 65.8476 127.338
48.7249 75.9609 70.2961
20.4225 34.7954 94.1507
27.3411 31.7223 95.266
26.2209 74.8659 122.498
52.6888 95.1766 81.4979
39.3763 86.0736 63.6179
38.666 35.8426 84.9972
22.0905 34.9673 84.5308
16.529 56.7465 80.0373
38.1047 103.714 92.3187
30.215 102.942 86.8104
48.1499 54.8734 73.9873
20.483 83.595 108.058
40.4921 40.1881 78.2603
41.3109 36.4033 31.6637
34.1685 43.7552 25.9001
37.7549 37.7947 93.4511
61.2039 51.8986 108.034
18.4535 71.9141 112.847
37.6214 82.0107 125.19
17.308 74.9862 102.07
40.1795 76.7475 59.8539
26.0409 39.1802 72.3131
43.2552 47.3148 114.307
54.7052 45.8771 103.977
20.162 77.2646 109.789
16.6811 75.5114 36.3189
36.6838 36.4734 25.0476
46.4645 94.1237 80.6781
17.1815 62.8144 113.858
27.8766 64.6523 57.7818
24.8613 66.3799 120.695
43.4259 38.0949 93.9002
42.8641 47.7557 36.4034
46.5092 55.9024 118.458
30.8573 52.2713 59.8765
39.3882 36.6795 100.216
57.0098 66.506 108.464
49.7914 84.2595 108.79
42.2496 42.5672 25.3905
45.1975 39.5222 100.877
34.12 62.0252 56.6693
17.5976 81.1799 100.937
47.327 89.5377 103.738
23.1695 80.0104 115.831
38.3833 51.66 61.789
43.4269 94.8189 110.415
53.1769 85.8915 81.8811
46.7798 41.428 80.6389
42.2685 52.93 118.593
33.612 35.8605 81.1864
47.1206 88.2381 112.987
38.1786 50.1517 27.732
31.8051 94.6693 68.7182
17.2724 82.2656 121.085
18.4366 31.8214 39.3271
42.5689 51.2901 29.3191
