ply
format ascii 1.0
comment Created by Open3D
element vertex 1383
property double x
property double y
property double z
end_header
32.0541 164.422 208.203
60.1178 125.689 48.7662
32.6331 320.193 194.707
18.3004 385.896 203.556
29.2908 337.161 205.878
57.4404 73.401 29.0295
29.9222 325.62 214.463
68.6213 204.583 151.702
33.067 190.7 162.208
17.3955 304.773 232.702
18.1169 318.934 256.752
47.6466 209.93 170.167
18.7167 349.157 255.127
54.7756 64.2836 113.117
48.5188 85.6555 33.2825
20.9134 331.677 265.061
44.4092 37.4214 36.7883
63.9049 418.411 235.217
54.3172 115.495 51.7238
77.473 373.839 272.365
17.2021 342.606 181.512
39.8869 108.776 57.6921
16.8856 348.684 239.898
33.1079 44.107 75.2867
48.525 186.614 157.472
52.7158 102.59 34.6608
29.6559 143.018 211.053
17.8305 358.456 240.398
50.7101 396.652 211.146
17.7152 381.139 193.511
18.2657 380.466 230.966
26.8794 198.84 178.386
67.8741 408.588 235.534
90.618 162.727 188.879
17.781 307.982 190.237
65.5254 305.375 245.663
38.8681 217.381 170.314
42.9409 174.606 143.948
96.7051 168.607 214.267
62.6509 280.246 253.717
18.0349 398.313 207.422
30.5959 142.653 154.891
36.5041 202.2 182.038
31.92 62.1561 61.6543
29.0686 214.619 169.182
57.5015 133.798 72.8277
58.8898 308.551 244.896
31.6437 147.984 146.055
16.3328 325.989 245.834
18.6378 397.869 243.92
67.4187 149.941 207.693
37.671 406.242 182.557
17.6318 300.994 243.155
50.7287 361.178 252.553
59.3514 422.847 217.001
66.0973 124.512 56.5457
30.4249 342.521 198.758
62.5922 63.0544 43.2264
17.6733 391.864 250.922
74.5031 132.454 183.412
60.8349 414.15 207.487
18.7908 339.649 249.101
56.613 272.905 241.58
44.3091 353.62 248.918
30.1391 165.457 135.809
41.1606 126.523 148.747
90.9428 203.661 177.145
59.5501 391.084 238.349
50.7641 129.353 75.872
32.8364 314.488 205.503
23.3866 324.815 266.963
64.0538 72.0234 77.1307
17.1838 319.405 220.752
32.1105 328.178 228.165
47.841 342.679 161.806
45.4599 198.183 135.409
32.2278 195.557 197.881
21.2884 315.223 263.427
49.7473 37.7585 105.23
45.2704 394.34 292.437
34.1391 316.441 223.241
30.5539 71.022 85.5277
64.4374 286.242 234.282
38.1449 396.924 274.23
39.4608 55.2044 61.5512
66.232 401.095 266.636
49.9327 203.474 130.784
34.4738 43.554 87.1739
60.4992 275.515 218.127
17.3447 344.797 218.011
18.4888 400.441 225.172
35.5603 123.448 168.884
34.3217 171.482 141.684
56.1101 185.528 157.557
38.9046 173.917 123.903
18.6131 340.732 167.423
19.6216 403.179 215.37
34.7284 195.866 168.613
53.3509 120.322 41.0272
62.8304 43.2151 67.647
57.0302 33.5469 100.149
40.6444 141.94 132.187
49.8983 305.13 232.772
41.384 159.438 196.488
18.352 329.053 193.253
57.2394 149.666 155.276
50.8231 190.886 130.452
21.7795 281.982 233.521
39.407 377.399 192.104
18.2352 394.119 217.419
47.9698 156.936 173.168
18.0252 327.234 256.508
30.872 349.813 202.363
38.9434 137.738 158.52
70.0445 173.197 180.946
60.1379 135.148 199.576
43.2181 372.479 180.365
41.7791 334.864 170.927
54.0906 383.348 167.213
32.0747 79.4548 80.4044
17.3204 355.741 205.803
76.5996 168.014 228.614
64.4129 187.055 221.289
24.4834 109.766 64.1898
39.5982 363.806 182.832
17.4486 372.741 196.888
46.1928 197.613 172.736
28.5289 345.365 210.514
66.0575 126.716 139.941
26.6884 285.611 187.823
17.8185 292.001 231.471
62.3358 77.4859 63.4283
29.095 76.7275 73.5194
17.3037 369.644 230.251
45.4884 341.514 152.544
76.4133 126.747 161.821
50.6423 128.08 47.9606
29.1396 339.944 223.635
42.2251 207.491 138.226
56.3566 393.34 231.279
46.7844 396.619 171.749
59.5929 110.97 45.1957
28.1787 182.504 193.044
52.7273 219.66 152.309
42.0032 116.556 160.655
18.2136 336.442 204.208
34.4835 346.859 183.391
45.1736 68.6968 28.2089
39.0222 146.669 222.727
57.5568 58.7625 79.1936
57.6235 185.723 127.967
42.3161 187.373 125.189
26.1085 295.97 174.422
51.6406 122.263 202.525
49.9878 169.331 185.192
29.9212 154.352 173.998
27.1608 320.072 272.712
37.3033 374.838 198.748
33.5299 123.124 60.5599
19.5088 307.368 175.664
37.0219 368.97 194.12
34.1859 299.21 270.369
29.5352 113.19 75.2995
57.1889 291.809 229.682
18.5262 284.773 225.381
29.1942 390.345 273.517
38.9228 184.722 156.67
30.5743 290.276 262.302
18.173 284.638 216.99
16.9294 315.865 180.673
67.6574 189.786 145.892
49.9447 288.996 197.271
43.6634 213.512 202.752
17.7468 396.421 232.367
34.1578 354.537 233.219
57.4576 117.967 208.34
63.5114 179.422 143.473
53.729 288.383 223.066
49.5197 109.363 44.4679
24.1015 359.093 182.41
71.5725 288.497 254.478
17.7625 388.924 243.293
48.5296 213.705 178.841
48.4936 173.896 213.248
63.0668 135.006 132.95
20.3066 376.708 273.768
19.4398 347.927 162.787
17.9938 388.8 179.821
55.3729 163.421 127.526
64.2041 87.5007 34.0216
17.4565 371.043 214.94
41.2823 382.945 201.986
30.5551 198.322 157.044
52.5444 166.331 168.545
42.095 92.986 70.4567
52.3896 94.4119 67.5104
36.7211 277.225 250.313
74.0689 191.679 210.639
65.8372 190.827 204.147
17.0705 379.481 247.698
36.8703 307.393 203.605
30.4703 329.405 195.528
79.006 208.457 156.027
64.7555 213.216 194.423
65.8055 188.024 182.226
36.8278 396.461 169.71
52.8454 340.153 258.081
33.0901 74.7584 96.098
28.6098 137.808 145.008
17.9997 385.881 223.786
79.5754 134.45 157.981
19.28 308.712 257.616
42.577 128.962 64.4089
26.8049 60.7356 85.639
61.8722 150.65 162.722
48.9281 354.971 165.259
38.6236 159.18 217.657
65.6468 314.909 254.077
18.1062 283.508 206.938
50.2142 195.157 183.599
72.596 347.269 268.357
60.5014 303.307 281.782
86.1264 166.308 207.218
99.8918 165.402 205.28
50.6299 163.297 175.205
42.191 375.972 228.511
43.267 362.696 177.554
23.0024 205.868 169.351
69.1751 295.668 244.052
45.4107 319.508 244.742
35.2599 182.755 188.889
54.5581 123.4 79.505
80.2035 205.004 212.672
24.2914 205.98 176.384
32.1534 348.16 225.328
43.3548 165.746 149.131
59.9708 173.611 126.166
17.4684 336.528 234.936
41.9875 128.354 159.973
17.344 343.409 192.596
71.6081 204.681 160.287
58.0006 144.65 215.211
52.3007 197.939 191.023
62.6208 47.5495 53.5011
42.4204 317.491 237.346
63.0905 399.256 235.065
16.4239 316.241 248.111
37.9125 415.226 270.03
16.2939 315.869 207.275
45.106 419.928 221.656
24.9313 87.9358 45.0793
59.1423 33.9642 86.0735
54.6909 149.878 131.948
69.7668 183.866 150.54
46.7682 380.091 231.153
45.5288 155.075 127.349
48.3565 70.6995 55.8098
34.2547 338.335 235.924
28.244 169.882 185.669
70.6024 386.139 256.132
36.4853 311.109 193.514
41.8214 61.3992 57.5953
25.2058 282.292 242.437
67.2846 127.107 224.341
53.3675 398.133 216.69
48.0632 29.3455 98.1439
54.0586 151.725 164.968
28.7079 309.125 271.175
62.9977 278.873 227.438
76.0411 157.365 228.384
67.6748 377.09 258.105
90.3425 177.933 220.905
32.0294 327.785 277.558
42.8655 382.675 227.261
32.9382 168.823 196.024
37.9597 338.547 149.178
63.3627 415.118 225.068
18.8089 292.812 239.789
101.797 288.418 290.881
39.3548 135.198 210.347
41.6474 174.29 184.205
65.391 189.655 138.524
43.0665 126.71 80.4449
38.6189 175.806 155.374
51.4878 374.825 161.395
18.7922 318.47 169.787
51.0855 76.4068 28.983
59.9056 108.336 36.9204
17.0632 329.734 180.922
59.4631 125.807 149.807
42.4869 278.984 254.768
25.0144 150.96 149.517
53.6588 194.747 134.687
84.2928 296.14 298.356
18.8876 367.386 253.455
85.575 176.446 184.361
63.2298 180.973 133.159
72.8336 136.091 168.898
62.5263 369.464 256.052
32.2041 295.029 166.64
16.1461 375.01 170.962
43.4213 122.957 48.4181
36.0728 292.839 265.589
92.6761 289.923 296.355
40.8238 162.922 141.57
74.2543 212.445 167.47
46.4658 182.012 147.217
44.9779 44.7895 60.7142
37.3165 362.956 232.527
36.0036 144.491 212.856
18.7997 393.751 187.157
39.7163 357.156 238.549
55.0079 311.821 284.806
34.7475 99.772 74.7045
32.118 277.114 242.894
71.7749 137.958 139.625
76.6985 137.425 147.253
34.6189 137.406 197.812
60.3327 291.665 263.673
41.3429 31.1943 93.061
39.0633 100.057 50.243
21.3971 89.7625 61.1884
55.2491 396.657 196.389
50.5148 298.127 228.696
32.2387 89.5047 80.1657
57.2553 219.166 173.022
44.8225 386.083 162.421
28.9744 275.508 228.052
66.1706 81.052 54.6443
42.6485 78.3489 29.378
76.9359 146.592 229.017
36.2438 46.1597 61.9702
47.379 156.056 181.661
57.2609 137.892 122.985
47.3578 83.414 99.0664
47.1021 93.6031 33.2651
51.4202 223.347 172.957
26.5587 398.487 177.369
16.8175 355.816 183.686
26.2571 303.027 267.994
60.2615 126.555 78.1071
41.0646 304.018 194.963
63.9368 208.339 200.495
46.7736 348.231 167.079
81.9844 207.928 182.641
69.0087 207.289 187.996
32.923 179.163 173.797
33.7143 364.877 203.374
56.664 206.222 209.57
91.2867 153.609 189.24
30.6771 42.0789 80.8858
67.496 115.358 47.7112
63.7373 86.689 55.4768
36.8101 68.0783 37.6995
82.4079 134.915 146.73
59.7799 153.642 125.672
58.6341 204.9 139.652
65.1317 297.223 277.243
22.2351 390.47 172.654
30.1537 101.998 46.9279
52.8622 217.767 200.657
79.1463 189.022 176.579
42.9006 355.285 175.288
38.3646 309.474 277.081
46.7458 108.185 81.3521
33.9874 109.884 54.7418
46.1474 50.7082 33.4028
82.8613 186.431 222.622
73.944 418.208 316.5
36.1587 363.664 190.282
59.6439 227.584 174.083
46.046 222.248 191.418
35.9512 156.054 128.254
53.1171 49.4594 54.3212
50.9887 128.644 212.76
33.4128 147.813 133.492
38.2077 154.855 174.836
17.8786 294.513 219.458
52.6618 152.375 181.231
53.8275 369.624 250.643
68.5836 119.893 165.129
66.6592 199.743 209.039
46.2646 406.481 180.195
40.2027 167.619 208.6
28.3086 405.982 252.984
24.1504 316.436 161.56
38.4743 108.143 42.7104
17.2711 331.483 170.521
41.4543 160.988 122.893
49.6863 381.729 296.851
50.3745 55.2853 111.331
29.1304 404.151 182.557
35.5299 55.31 96.5599
50.4898 175.77 180.763
54.787 330.226 256.582
60.9817 62.2502 72.7767
63.3924 172.632 214.575
71.3241 221.487 177.235
36.9626 315.617 232.16
52.7771 114.224 168.636
40.2866 102.686 83.9059
51.9553 392.991 171.222
49.3432 112.585 34.352
61.4676 117.582 169.417
42.0076 64.1879 33.0903
24.9898 306.164 167.02
56.3559 397.288 225.871
40.283 123.088 190.512
37.7251 354.134 185.14
42.9393 127.592 212.425
36.2183 375.082 208.248
43.3113 107.217 35.4681
64.1289 144.642 170.312
47.0449 66.6612 112.163
50.8415 285.378 184.864
28.7712 207.534 287.625
60.1382 31.8297 77.1361
85.9985 129.277 209.812
41.8618 99.8242 75.0123
66.9622 367.179 262.357
51.8951 307.354 280.107
62.4751 193.753 150.218
59.2819 287.386 269.135
43.3289 342.621 168.702
52.2164 276.251 251.116
53.0269 405.547 182.226
28.4472 130.261 192.107
29.1363 407.382 190.859
35.6808 121.307 51.001
63.0593 150.426 137.952
55.2487 204.172 203.296
62.6199 73.1258 44.5737
17.9615 301.106 201.966
24.1483 56.7922 79.7802
54.1056 196.726 146.684
56.502 71.354 110.984
54.0805 176.48 167.738
34.04 29.5087 67.6643
70.0711 178.571 139.687
60.6949 210.947 154.2
38.1169 27.9357 60.0577
81.9154 156.639 222.46
48.6003 134.501 195.644
16.8371 346.721 204.139
36.421 61.6567 97.2516
18.4661 394.334 196.898
36.288 51.9775 107.907
29.8792 122.021 70.7455
72.0582 185.441 216.008
57.4263 176.273 183.6
46.0678 335.168 159.868
55.8539 122.224 190.946
22.9587 189.128 153.907
56.9168 118.704 69.5347
50.4618 291.801 272.23
33.7692 133.069 164.244
58.0726 115.293 194.587
78.528 227.037 155.667
58.3418 47.2629 45.2837
66.8733 346.966 264.795
66.6549 117.37 208.74
35.1187 64.1946 90.8325
35.2811 182.886 141.87
51.0079 123.798 189.013
45.1385 390.363 201.23
74.5459 205.84 142.109
45.1123 113.725 76.5612
31.3863 343.719 190.805
63.845 202.981 144.265
63.988 118.376 192.481
50.3003 166.434 122.632
32.1094 71.0435 65.3817
39.6053 166.419 156.162
36.3746 75.9505 58.0436
63.8409 220.696 154.344
66.3005 140.691 230.666
59.1151 173.521 135.695
82.393 166.968 228.432
44.8417 298.454 184.127
34.4386 332.279 181.126
47.7183 126.66 143.15
30.8065 284.791 254.685
19.0869 336.001 187.874
62.5035 70.9179 37.0411
76.4256 173.99 149.893
29.9739 99.1608 79.6662
62.9375 117.721 180.566
51.5993 53.9447 49.565
52.8733 183.773 183.51
85.2901 171.814 165.338
20.5967 401.736 198.275
41.219 107.564 77.2875
41.8529 273.699 244.975
46.9052 284.486 264.253
36.8167 125.63 75.0322
37.9257 342.375 287.791
46.069 77.802 62.0418
50.2479 128.337 150.247
32.6019 130.007 66.0436
55.9963 138.575 59.5522
37.0468 129.486 174.595
28.2674 191.406 141.84
18.8012 295.54 190.693
31.2347 158.703 138.212
27.9177 203.652 146.028
34.6084 120.563 79.5969
42.3587 401.099 174.823
61.5173 220.226 195.634
41.8507 370.265 233.903
66.6632 212.767 165.318
61.3747 275.261 248.582
37.4368 166.909 169.38
41.0747 149.211 202.259
37.2385 97.2176 32.2111
75.0107 180.907 229.299
68.6768 392.097 250.166
70.3388 194.652 151.612
43.635 301.847 225.764
62.9347 78.4799 39.4432
59.486 55.8963 40.8986
33.5026 114.012 46.3843
27.7424 82.659 52.805
40.5341 149.491 130.262
37.7087 201.892 153.496
60.9756 80.9993 49.3225
63.7012 193.475 180.869
45.5202 45.0979 108.543
46.6117 384.844 186.417
45.4587 119.627 152.598
30.707 400.786 260.629
39.4901 415.6 207.66
58.0716 382.445 322.828
57.1871 77.3119 55.6249
59.6274 60.6705 51.9052
47.7492 388.382 294.477
25.3104 67.6706 71.7392
70.7235 392.995 275.795
68.7226 190.436 163.584
63.8371 328.891 290.824
21.7365 320.957 271.804
24.8134 172.179 206.655
17.403 308.543 223.353
93.4157 196.633 193.271
39.2739 143.825 198.819
60.0174 354.189 259.146
38.4056 132.023 153.238
52.6679 99.8109 77.2205
66.6652 154.452 131.458
66.1316 183.541 230.58
35.2822 147.088 186.549
41.0823 382.077 213.63
16.6169 317.729 239.249
57.6808 381.685 247.383
64.8187 312.054 285.457
58.8017 46.6127 86.1357
52.4297 52.6468 39.4359
67.2 219.225 189.008
28.3904 118.139 61.8244
51.3888 114.98 77.0605
18.8405 350.673 265.75
42.4738 280.524 185.799
49.7551 143.103 121.258
46.287 411.658 261.287
27.0758 83.7943 76.984
35.0265 48.5819 92.9186
54.4536 168.805 133.22
47.298 405.584 295.412
36.5578 73.328 101.195
42.1197 204.328 210.421
64.4481 293.98 235.126
69.9234 173.006 222.831
47.2048 363.111 171.237
87.6719 184.2 165.61
33.6176 411.199 198.502
46.402 375.684 236.029
47.0583 136.405 132.418
50.5063 226.279 181.859
57.9771 114.536 179.279
76.8144 212.265 177.417
50.5439 361.171 163.24
47.1672 421.237 210.999
41.1117 298.757 202.252
20.871 294.285 253.24
52.9481 208.614 144.663
46.0964 201.899 184.304
47.7626 115.148 176.215
36.0977 191.759 129.477
61.6013 94.8511 34.0144
19.5532 360.194 264.633
29.3621 328.53 204.065
64.0917 195.137 158.067
79.9972 143.761 198.894
61.3578 374.16 252.854
63.9769 405.518 229.87
68.9062 160.533 146.809
95.1929 143.621 200.072
60.8211 40.4786 98.2178
78.3621 133.159 171.397
41.6992 307.966 159.019
42.6525 196.996 148.39
62.7412 114.842 63.3534
66.4758 139.025 223.221
30.5679 342.366 215.908
40.0288 71.2918 49.3944
56.9776 146.36 124.746
39.9366 123.607 174.758
52.0655 109.4 80.6892
47.2935 154.594 156.873
30.6364 206.34 172.17
87.9184 161.174 200.891
51.7336 216.883 169.45
41.4394 137.476 139.049
56.3162 410.441 260.902
96.3317 216.769 208.291
30.8036 176.773 197.403
58.58 297.27 277.674
62.6764 92.4535 57.4535
58.021 188.94 181.787
63.3923 320.44 257.863
57.7937 113.013 78.7311
36.2187 135.133 58.3804
55.421 214.098 194.897
23.3607 117.227 62.8591
55.1932 169.805 226.856
48.1282 45.0644 49.476
53.4661 200.169 208.336
47.5427 146.448 128.892
70.9103 214.345 194.649
28.3167 147.444 184.949
69.8776 318.231 287.684
54.9106 155.747 207.46
70.2515 164.457 159.048
22.8184 81.2515 61.9428
102.734 297.064 298.695
38.7901 128.543 199.712
43.9942 121.784 167.377
27.3909 388.996 167.408
77.3236 186.596 206.492
78.6305 122.719 205.612
36.5256 46.4127 100.388
40.0701 134.96 69.9267
49.3982 120.911 160.371
57.7462 401.244 268.727
54.034 56.7386 31.2984
36.2152 307.501 217.607
71.326 217.786 161
48.7273 154.29 222.091
37.1791 124.36 159.528
53.5077 121.456 153.088
53.1012 377.719 245.14
89.4804 223.862 157.782
48.8374 162.104 131.404
70.6502 285.679 246.706
45.6852 397.676 270.989
65.4562 122.956 214.638
58.0962 142.21 228.839
43.009 322.149 163.117
36.4636 318.201 179.753
31.8352 196.814 186.178
31.6259 51.4685 86.8425
70.4381 170.067 232.592
59.7938 314.545 250.852
59.1631 403.022 222.752
32.5859 148.175 174.968
48.1659 368.487 242.72
35.8983 206.653 137.641
67.7951 156.487 233.609
37.4995 158.754 160.913
47.8067 134.991 73.2818
22.8886 149.608 207.6
69.4002 124.283 149.385
58.7671 88.4997 35.1128
63.2906 88.9747 48.5081
52.6759 276.136 191.427
80.7094 209.812 204.831
81.4118 151.188 149.746
66.3028 83.8228 72.2132
54.5161 87.1156 32.9793
49.9761 130.601 126.796
43.8966 329.207 153.741
58.0899 190.195 141.922
26.6276 352.482 174.163
38.7478 321.533 172.826
50.352 217.372 183.977
60.4648 205.383 192.999
38.6377 190.331 187.692
64.018 153.346 154.28
33.013 397.186 281.794
44.9054 323.207 285.018
20.7251 300.078 257.11
26.3346 89.4104 71.7998
39.0043 86.8132 84.5402
22.0994 161.207 202.566
45.8694 119.216 41.7324
16.4808 368.836 182.339
40.2858 342.452 176.295
30.969 353.674 210.051
25.1544 278.041 201.486
59.2218 166.047 237.358
38.861 187.876 144.846
19.8896 356.498 159.185
35.0513 137.349 148.448
56.1106 331.941 291.168
71.4442 387.258 281.554
55.0311 30.4147 50.2674
40.3218 317.667 283.178
63.6286 343.358 292.571
39.6991 285.623 263.223
54.8852 136.444 132.877
52.6124 418.708 273.667
36.6139 391.123 297.571
64.1557 354.543 263.619
34.9012 196.247 136.907
29.3433 111.897 54.7018
58.2319 42.5191 50.3014
72.4682 123.948 176.285
47.1734 406.079 270.011
65.7597 142.108 132.746
73.0521 359.6 291.991
84.2635 200.252 164.241
69.311 117.54 174.156
39.819 139.384 169.337
54.4216 83.2938 77.4567
76.3868 398.76 260.032
44.3318 329.538 162.79
87.8522 172.249 195.176
73.0077 294.128 263.155
42.6716 147.112 123.002
59.7295 96.284 51.7263
55.6021 80.3025 31.2188
39.4573 118.196 38.5196
62.3529 371.381 289.802
68.6481 359.378 266.142
33.479 318.966 277.798
57.2678 404.23 205.237
68.2213 119.849 61.6345
56.647 128.866 217.442
57.9385 378.742 290.62
44.6672 356.427 288.659
85.6126 131.524 185.4
70.5691 129.462 144.825
28.7363 171.439 176.521
60.1699 149.439 194.481
41.7078 44.1828 104.154
51.6205 144.229 214.389
38.5842 75.2603 36.8013
38.8878 172.951 133.284
23.356 160.035 209.914
75.5523 124.012 215.474
17.2923 361.579 172.677
38.9097 24.4235 81.7806
47.664 183.908 136.834
58.4786 88.7726 61.7562
40.452 189.006 137.848
64.2839 125.954 72.6387
32.8033 70.6619 54.9841
31.5437 355.716 227.22
70.9896 190.434 173.711
40.3139 75.2498 45.2086
39.2859 299.584 161.469
41.218 324.81 168.126
36.9504 342.033 241.707
20.3754 202.667 155.756
54.4944 108.507 73.2625
96.4522 203.452 197.228
77.1027 158.41 207.99
71.2667 143.905 135.32
56.1872 416.571 260.973
51.7475 269.386 233.381
39.7947 324.924 239.874
35.3508 365.253 152.247
28.8136 335.704 217.871
80.787 188.336 169.992
54.3907 178.76 175.709
33.2423 194.364 178.916
59.5522 347.35 261.716
30.4124 157.138 158.093
31.9574 95.895 49.6536
48.1382 122.327 183.138
56.9408 275.383 207.129
27.9026 61.7598 68.4379
37.299 394.13 285.97
36.4606 282.836 258.714
46.012 360.558 152.457
43.1674 384.441 194.399
57.7182 421.534 201.385
41.9582 192.674 159.364
61.0573 160.188 232.916
35.2404 408.088 268.123
71.3938 169.096 155.024
48.4926 130.417 137.86
52.6843 86.5973 25.6684
63.3803 385.145 248.351
47.9275 176.592 131.823
64.0655 88.4106 41.8182
52.9809 116.724 182.289
19.6005 298.954 182.535
32.8662 174.511 180.982
52.2957 139.425 73.1858
85.0718 172.196 217.762
50.3982 194.802 209.28
65.8773 122.549 67.9456
59.5017 81.2071 35.6911
53.7352 379.038 282.253
56.5203 120.854 141.506
66.1892 126.893 157.033
45.6222 411.334 188.372
31.5517 198.858 141.5
28.106 191.961 156.814
66.5195 196.352 143.786
54.6775 43.7768 39.581
52.6202 98.5885 83.8454
56.7944 416.246 247.049
47.5374 351.406 153.182
68.5759 214.132 180.167
42.8863 412.258 278.911
58.1497 103.46 53.3994
50.7759 93.9406 27.9258
47.7571 390.996 218.281
58.182 111.718 58.9632
48.1979 23.957 84.1437
35.6596 47.9475 67.5517
35.0626 322.672 151.71
78.4572 128.899 148.175
30.7971 160.223 221.157
57.3804 281.105 216.606
78.5836 346.933 282.408
54.869 108.772 39.7408
63.7654 175.935 229.942
50.8238 422.9 224.852
94.5019 175.611 167.511
44.4947 298.224 165.907
34.4762 157.02 194.729
26.419 392.924 266.707
40.2432 310.386 174.009
58.7122 106.799 68.9628
39.8242 405.113 276.576
21.4241 368.264 279.184
47.654 175.9 159.13
22.3127 88.0956 53.7797
86.6484 213.13 184.56
36.8246 165.436 178.26
57.8195 360.963 256.141
45.1884 293.504 204.553
34.3 34.1048 83.9142
31.7598 344.454 230.038
80.4903 165.423 216.473
58.5877 82.5974 82.8585
61.7402 352.76 293.165
72.4443 129.21 154.221
66.7957 196.711 225.613
56.7433 118.291 162.491
26.2873 158.98 198.258
98.5535 169.521 194.002
54.577 129.959 140.597
49.8112 350.114 160.254
58.1896 89.5303 75.8731
75.9504 195.608 220.888
75.9783 187.843 224.448
41.4403 341.594 246.444
51.5017 374.778 291.447
50.2571 330.044 252.852
26.5116 382.256 162.584
30.0705 209.755 188.18
40.9703 298.904 217.614
34.5048 188.66 138.748
41.3474 363.343 238.632
64.6709 384.555 293.869
41.1284 163.088 130.844
36.6836 287.629 170.5
67.2705 282.301 237.654
65.1845 74.8681 51.4681
39.3787 154.945 165.593
36.1224 110.254 82.0913
78.7354 215.552 193.985
23.6721 407.145 200.732
64.2691 131.226 212.96
96.1498 171.051 179.918
60.8422 134.178 65.8752
47.0059 334.13 289.769
34.3221 188.166 173.369
28.8858 295.392 265.646
79.8744 191.423 218.313
52.0126 216.736 161.568
36.8441 280.904 184.264
88.8001 149.944 172.786
73.9344 381.219 278.991
28.505 340.18 150.733
103.987 197.04 176.074
35.8025 157.856 147.939
30.599 181.973 186.402
52.4108 33.5749 58.2607
94.777 165.896 144.151
43.5286 326.036 244.819
40.3353 115.893 77.5209
43.7707 32.4909 45.8937
42.4111 191.638 165.02
35.6051 103.505 58.6789
38.3945 354.605 245.002
54.9923 413.994 189.956
43.6877 121.712 76.2895
56.6236 30.4598 67.382
55.4653 353.159 256.79
84.2182 141.121 158.549
44.3414 122.948 178.42
32.6548 362.023 221.974
28.8943 195.914 149.366
67.9279 305.14 281.971
58.0667 401.643 184.26
66.0175 108.707 66.9209
21.4554 197.368 158.253
25.0641 286.612 254.305
27.7214 52.0714 74.155
17.6792 375.71 257.21
33.5965 162.913 186.197
58.503 38.1569 57.1476
69.0397 403.992 278.98
32.5346 279.073 193.361
30.0992 206.268 153.365
68.4386 200.973 220.39
62.7771 118.294 151.739
59.7619 54.524 101.741
58.7238 83.9125 70.2387
60.6046 121.184 158.539
74.4628 196.737 159.823
47.0984 85.3799 58.111
61.3946 336.909 291.06
72.4892 373.314 264.647
45.4977 29.1059 85.8481
43.5676 110.957 46.9048
51.0789 143.659 228.326
52.4118 379.96 239.209
42.6348 78.7261 38.5787
86.9858 147.545 198.168
60.776 341.311 263.628
47.7384 328.193 285.675
41.4648 385.107 208.633
67.6385 309.01 251.863
33.1197 157.546 201.236
66.7856 130.5 56.3507
98.1265 200.437 180.372
66.4795 359.403 291.945
78.9297 147.075 146.298
49.6169 64.1558 32.5892
39.0377 335.533 243.295
43.3773 167.954 128.654
43.9976 321.867 157.207
29.3085 355.984 152.679
49.1287 121.987 77.3147
36.2501 165.61 134.864
33.7776 313.078 155.44
58.719 361.333 291.04
72.1148 166.136 210.341
79.6388 357.641 278.164
23.5112 197.273 149.288
28.4757 147.366 202.389
34.6425 190.356 153.905
32.5119 147.178 139.814
39.0433 78.8708 94.222
68.3256 98.1187 50.9326
46.651 100.084 35.6325
64.7295 169.169 233.523
48.3958 309.926 238.395
29.74 198.944 164.307
47.3307 290.839 212.45
41.7022 84.9917 67.267
85.9276 276.086 236.681
35.1938 64.8803 67.2225
79.2163 164.221 154.573
47.767 188.064 181.54
68.8228 211.207 211.218
43.0869 132.794 144.583
38.9833 71.5343 31.8612
79.6253 366.937 276.331
65.5066 403.048 286.575
89.5134 165.68 177.36
32.9897 347.784 149.319
63.0822 104.263 43.0351
65.6978 175.448 190.516
34.7635 370.07 220.234
59.3784 403.314 230.244
86.877 142.536 165.693
52.3697 303.012 238.589
33.0134 33.506 73.1053
52.1804 155.921 126.523
72.2992 127.109 168.897
61.0116 182.034 169.735
19.4932 286.045 197.303
65.9939 379.488 289.797
43.6238 46.3524 36.3413
61.4796 147.063 183.966
39.1588 274.793 200.77
22.7655 205.779 162.408
37.1558 42.1458 69.253
34.6903 385.09 160.657
54.8466 277.322 197.996
33.1718 361.566 198.018
51.0666 179.279 223.508
40.1066 211.605 286.312
39.5804 91.756 75.7089
30.7275 326.476 153.245
22.512 401.731 186.998
32.1218 358.916 212.402
33.4665 355.343 192.829
49.2277 139.434 59.9754
50.2422 82.0042 60.3551
23.7403 112.275 56.5074
45.0265 311.591 283.079
35.0956 154.74 143.161
52.8227 122.083 214.022
38.8149 273.13 237.725
58.1292 68.2989 33.4535
62.5697 148.949 233.883
60.6435 135.98 56.5834
56.9671 379.42 328.852
66.3148 102.996 56.3568
61.2835 46.1632 80.116
66.9043 396.595 243.095
56.4396 424.596 227.009
71.3515 329.667 291.132
36.9975 342.701 179.834
50.3336 27.8543 78.1163
58.6872 62.6071 37.3482
49.4481 390.162 224.657
44.8004 141.604 202.489
72.7277 395.817 280.085
93.5123 160.546 200.758
47.7711 28.7478 51.2798
39.2051 307.919 225.836
61.53 362.93 260.061
52.4623 315.734 248.45
56.0596 36.8826 64.8698
41.3843 125.46 55.2169
69.2 350.631 293.341
47.0306 117.604 82.3159
23.413 97.3272 70.1829
24.0335 275.747 212.36
88.488 133.761 172.688
51.2565 394.794 273.801
61.8826 403.026 295.81
57.4201 174.89 220.926
42.785 100.913 42.5189
36.4061 184.68 149.674
32.6064 92.1609 71.9497
62.5276 409.212 284.941
60.976 133.552 220.534
37.8782 122.925 70.0838
77.0162 180.155 220.789
64.9172 382.094 252.765
95.3008 206.79 185.7
73.8 397.041 253.999
53.1645 101.748 68.6861
47.4486 135.698 52.521
28.4156 65.1971 77.6363
60.693 178.183 164.884
67.3145 340.461 266.065
41.0002 30.6868 54.9112
38.0814 150.648 154.692
66.813 365.772 291.232
77.3867 345.733 275.997
72.09 311.379 258.16
27.4328 89.737 62.2988
53.14 393.369 221.765
39.4544 351.709 151.526
57.1321 185.519 225.396
23.8397 79.8589 72.5522
65.0964 166.928 213.772
59.4945 183.958 144.751
40.4921 55.273 105.129
35.2365 66.065 56.8082
62.918 91.7466 68.2238
32.9183 310.867 211.725
93.8272 143.678 190.894
43.9855 308.753 231.446
59.8163 413.26 281.328
59.4591 190.252 203.99
55.8283 389.192 181.588
66.9815 327.459 265.724
38.925 166.199 162.556
49.8625 34.6324 46.0571
61.2315 301.173 239.245
36.8979 139.705 180.247
94.4508 277.466 234.37
44.961 276.255 190.111
38.8974 413.362 244.614
77.8729 320.556 275.687
37.9011 127.416 212.163
80.5572 408.058 313.149
53.6607 105.349 59.7895
40.5428 30.7661 73.1819
84.0603 151.794 204.255
69.8054 399.426 247.291
53.894 282.934 204.969
55.1918 308.993 239.214
31.9703 376.011 156.125
44.9889 32.6105 67.3033
45.9471 330.064 247.27
42.7826 203.799 200.209
38.2963 81.182 47.2402
36.5585 132.384 183.762
59.5577 381.342 281.749
32.1665 74.4256 48.8638
98.0814 246.101 235.968
55.2707 35.4826 52.3693
61.5587 97.6724 63.8306
36.7012 364.706 227.265
54.1843 28.2121 88.655
39.182 37.5733 67.2003
58.6251 118.228 186.401
64.1343 417.684 249.871
35.5235 403.589 286.058
55.4263 370.223 295.161
45.0688 346.474 290.386
73.5756 335.794 271.036
24.7665 363.394 283.192
65.1824 109.806 42.385
76.444 335.098 276.977
99.7488 148.363 193.745
48.4277 299.584 268.871
58.8463 157.566 133.962
44.6909 384.632 223.104
51.5215 370.806 285.294
55.7952 210.505 180.332
34.3446 367.572 213.903
54.8187 191.335 218.534
51.2115 208.939 194.733
50.7078 323.914 248.166
101.893 184.907 174.698
47.6337 271.528 196.933
55.0551 41.8314 58.4219
61.1902 407.227 260.027
72.7072 148.234 144.159
24.4914 99.311 62.5441
34.3164 413.618 219.08
73.8523 341.352 273.041
68.6517 153.564 144.479
39.7449 301.804 275.217
38.48 404.839 262.476
58.9264 36.8058 46.2442
71.6852 127.811 191.087
70.0683 118.656 186.413
46.7711 338.45 252.891
50.446 162.227 225.1
87.7424 148.265 160.301
95.3367 148.787 166.949
47.6125 134.375 63.7282
25.7374 347.943 281.926
21.7596 339.399 276.728
59.1195 406.339 196.453
51.6817 396.985 298.231
40.5887 102.071 63.434
57.6257 161.658 138.922
78.9287 196.434 155.157
65.5848 410.759 267.846
70.1154 173.625 211.94
37.9549 146.571 164.667
53.8824 346.703 290.846
43.3599 56.7061 114.265
99.7305 224.044 223.245
53.3087 94.0228 34.2111
64.4046 120.557 197.689
46.2372 125.69 203.408
67.6632 295.677 269.436
83.1212 141.052 223.113
48.4979 378.133 176.449
46.434 274.751 251.962
81.6603 138.713 165.471
44.2308 269.482 226.067
42.7451 349.656 172.878
85.4253 147.511 153.534
54.9924 390.3 299.39
77.6975 216.253 162.24
68.906 396.534 288.083
53.9565 80.4576 95.0043
49.698 268.842 209.692
36.4006 67.8864 98.0997
92.2183 265.607 227.404
68.9979 217.525 202.035
42.049 285.004 174.39
54.0946 170.462 216.613
70.7071 301.315 249.891
54.1146 138.176 67.8164
77.6675 135.381 225.132
96.4633 196.326 203.19
97.0888 300.017 298.821
33.5488 217.252 184.49
62.5839 333.799 261.279
53.0928 47.0001 33.541
46.2759 165.094 201.34
55.0529 182.522 209.556
25.9698 348.786 152.197
83.1059 129.769 198.586
36.9238 370.27 226.418
31.9219 103.211 63.8109
33.9232 87.0356 41.9368
42.414 132.723 77.6957
39.0322 271.65 231.356
51.3594 150.236 230.892
52.1749 421.047 241.185
49.3764 374.17 240.831
21.3791 371.878 161.603
38.1297 303.475 210.625
37.5486 136.103 187.807
58.6995 412.901 269.531
50.9991 140.119 221.864
87.5535 150.618 219.673
37.5318 212.889 185.369
58.4309 142.247 131.296
33.8627 55.5851 73.3118
95.789 211.397 174.471
39.44 371.838 153.457
81.2407 194.15 210.686
39.9811 299.172 208.797
64.4663 186.586 208.254
86.4548 159.839 171.145
47.4768 126.733 195.262
58.2782 214.518 176.8
87.8731 282.539 229.012
61.9597 33.6512 67.8037
32.2541 217.79 191.629
59.0043 320.61 253.643
75.2642 323.571 270.985
39.481 335.111 286.734
86.3334 154.392 178.995
68.0585 335.11 268.373
33.3 140.374 164.18
48.9337 315.858 240.525
20.6131 294.576 224.539
58.1627 100.31 58.1373
58.3755 205.379 99.8183
49.022 367.333 165.993
35.8604 108.396 75.7258
39.0716 330.863 241.999
46.6524 78.383 33.5784
80.7333 155.526 170.882
51.2651 31.2564 68.5928
50.0884 391.448 194.141
50.6854 25.2016 70.0283
92.1707 248.465 234.164
62.8826 388.493 244.211
89.8134 156.343 207.981
58.5632 100.055 37.6304
21.7436 408.486 217.214
53.3623 169.15 178.256
83.3513 159.707 215.923
78.0067 268.831 249.938
89.6981 185.926 201.144
74.2755 304.484 261.014
40.369 217.807 191.746
73.7311 218.467 183.419
60.3525 96.0451 40.4932
101.508 169.521 186.92
58.0283 399.785 190.316
91.5172 173.254 204.143
76.6399 386.991 269.199
63.0667 155.666 201.555
61.4501 219.659 181.098
62.135 103.183 48.3401
56.8673 222.342 191.165
67.9886 110.214 50.8999
60.0631 329.629 258.708
39.2003 85.4002 75.6309
49.4866 367.642 155.191
29.887 145.449 169.859
37.1444 139.237 175.058
61.5946 111.973 73.0077
28.0376 411.285 212.887
54.2588 99.6288 62.2732
85.8277 296.099 290.831
85.34 285.438 278.487
58.3359 403.965 263.457
34.6709 204.809 162.354
75.1034 309.441 280.677
28.9196 162.693 180.611
32.8885 56.3322 86.0601
38.8752 157.263 153.846
53.1369 266.845 219.805
70.3145 405.547 271.417
88.3392 132.616 196.98
97.4935 197.804 169.186
60.8761 75.0506 90.294
61.4868 408.919 220.696
44.3302 417.318 198.064
48.3831 387.796 300.761
45.7925 398.141 327.895
51.5978 385.996 233.52
69.7831 403.771 252.064
71.8108 117.42 199.955
40.6685 321.811 153.555
92.7507 180.38 193.748
71.5096 313.805 263.397
74.6965 381.048 264.747
35.935 209.176 193.79
93.099 186.817 209.539
59.8865 413.209 192.248
40.7733 146.05 140.08
40.1254 29.0885 67.55
86.5185 157.796 158.131
78.7128 156.564 150.799
91.2803 207.524 203.045
37.2066 182.563 182.78
77.4364 346.533 291.653
36.4025 350.012 162.103
45.7297 297.909 275.661
48.7009 154.078 234.789
77.3751 188.841 123.116
98.3028 192.506 173.335
94.0598 150.342 208.93
77.6152 326.642 277.142
83.3493 216.216 193.036
100.807 193.27 184.363
28.757 316.642 156.451
37.7271 39.9033 98.6834
78.1998 327.472 288.914
55.3919 72.5395 105.066
40.8359 138.375 199.371
54.5956 323.366 251.708
44.8172 291.055 264.638
54.3 280.013 258.831
46.126 161.319 228.482
73.5583 193.022 166.826
52.8406 217.335 191.648
75.3625 277.203 233.021
76.7728 146.868 174.538
17.2915 302.559 219.06
99.87 176.186 168.857
68.0122 410.529 246.167
84.9931 142.417 178.806
65.4452 98.2178 45.1156
73.5533 329.226 273.361
19.0371 379.983 266.109
30.7736 277.352 198.707
45.6749 106.983 51.7221
42.7634 368.119 237.877
47.298 137.524 68.1292
68.2941 373.127 288.443
43.0941 312.478 161.999
78.0369 364.085 284.477
26.3426 104.163 59.7821
65.0483 284.278 261.17
38.1163 109.774 63.703
62.7381 83.5926 77.9413
35.7831 273.268 209.017
71.9796 303.435 254.493
30.1972 47.9214 63.0543
77.9978 181.369 192.962
55.5345 63.0359 33.385
65.4293 410.489 276.904
34.9753 172.369 203.251
24.4644 361.84 277.383
28.3428 54.7041 83.61
42.6951 382.427 218.415
37.6874 28.8312 85.0318
65.3394 204.88 161.484
29.0662 364.304 153.892
46.2118 291.417 173.144
87.1286 139.398 218.622
65.6534 183.022 160.42
72.7501 297.977 255.084
48.0807 83.7352 92.3035
62.3468 381.703 328.798
46.2961 400.949 325.293
42.8296 415.363 237.27
46.4833 24.3879 72.9376
57.386 54.6003 113.944
70.0947 360.683 259.56
43.2662 334.806 248.421
79.9842 161.071 165.174
26.293 365.406 169.312
79.1868 361.258 289.656
32.4022 275.497 203.844
103.645 187.42 179.943
16.8711 322.946 227.055
38.0595 88.9744 38.7818
17.3321 113.783 100.287
94.6456 160.403 179.94
83.4963 142.372 151.223
71.7953 186.206 124.509
54.5606 366.192 289.152
68.6852 388.125 326.694
36.8051 388.728 272.538
77.105 305.616 274.86
71.2603 386.248 287.3
