ply
format ascii 1.0
comment Created by Open3D
element vertex 132
property double x
property double y
property double z
end_header
13.5245 70.4101 55.3701
14.9112 45.1007 56.8048
17.1669 77.532 58.8329
30.302 87.6009 45.5909
15.1991 57.4839 78.5982
23.8576 85.3837 54.7993
40.9732 70.8506 37.5219
14.647 62.6497 44.0563
15.3979 52.126 46.2717
24.0269 24.7894 68.3803
39.9761 40.8323 40.6151
14.1295 43.2692 41.2947
28.8468 68.717 22.7815
21.8932 85.9943 67.6846
36.6499 53.8585 35.9912
28.6401 40.1897 80.5976
16.2169 78.2026 73.0196
30.9416 77.9915 35.1769
24.1932 78.6767 81.1514
16.584 29.4251 71.451
13.2887 38.2278 70.1458
16.037 36.4043 80.8955
23.3684 32.7723 80.8117
40.0024 74.2988 54.8177
41.9196 24.3225 50.1456
45.3518 28.8832 43.4911
27.5172 52.4219 73.0454
16.6607 74.7402 83.1362
22.8587 74.4838 31.3799
36.231 73.6793 34.6492
32.3839 66.9355 28.7763
22.9967 22.5793 59.4779
14.4661 38.6929 51.4264
16.9569 26.6951 46.8058
23.808 83.6434 43.9305
14.7747 66.2861 32.2881
14.8551 32.0491 57.5606
27.3904 65.2112 76.346
39.0704 80.4162 40.9361
34.5563 30.8339 27.8791
25.2313 46.5749 85.8054
31.3906 45.4804 67.4489
21.0949 26.0158 39.1304
35.9411 23.0466 50.9429
25.6559 62.1421 87.0509
20.6865 61.2336 17.4395
27.0115 89.4902 62.0712
14.3042 66.0519 76.929
39.9179 64.2492 32.7449
32.8092 54.9194 58.1235
34.6263 25.1265 34.3256
17.6198 73.3713 41.8293
30.5255 30.2447 74.0855
15.8062 67.619 85.6075
15.0195 52.5088 70.5429
14.0405 43.5882 76.485
26.2957 64.4849 16.6173
45.6612 59.6101 53.2794
30.0799 84.226 69.7057
14.6477 49.1598 23.7085
12.7626 50.074 31.4462
29.6561 36.3443 24.0967
14.9561 75.4273 66.1211
28.3568 22.1057 37.8684
17.938 70.9867 28.7969
33.6636 47.1862 58.6401
32.366 30.0706 67.202
15.1943 37.7763 27.7711
27.1515 70.3637 81.0659
44.1289 47.9187 54.6272
16.2617 49.3429 17.2501
16.0282 70.6598 46.5303
34.859 56.4657 23.4099
41.7737 81.8464 47.8264
30.8885 44.939 76.59
35.0536 70.9959 57.2256
29.3875 22.0221 52.4836
14.0428 56.0985 53.1196
34.6533 79.6292 65.8638
43.0348 54.9237 44.2162
21.4986 51.2284 89.8784
27.1531 40.8276 21.6568
21.6012 49.4438 20.3509
46.0276 43.5004 47.6251
27.4978 58.7182 64.0338
40.014 56.3655 54.8879
38.1444 42.597 26.0016
44.81 72.8635 45.4062
22.694 69.0376 87.4842
28.6935 80.4077 75.9822
37.6439 42.4022 61.1814
13.5631 62.2476 52.5701
26.1858 22.7516 45.7941
27.2261 51.9488 81.4273
32.1544 25.7853 62.944
14.4854 59.2888 25.5455
42.3731 65.4096 41.5129
16.8988 64.7247 21.9994
14.6741 58.5112 86.8972
15.2022 36.1291 62.6983
38.6036 38.6137 66.9342
19.5846 59.2511 91.0893
41.178 27.0818 35.083
33.2831 35.6218 74.533
25.5278 50.354 16.491
39.2242 84.7419 53.0835
42.5043 75.4477 49.5413
16.6796 33.0075 45.0483
27.4775 29.2617 28.7279
37.8203 20.577 43.1189
23.1161 34.7788 29.0515
45.1705 34.2323 58.2192
35.4099 57.302 31.6115
20.7658 31.3309 33.2048
13.3832 43.3511 31.6678
26.6328 57.2845 83.5618
45.683 63.1531 45.3578
26.3579 78.9902 31.8511
16.0394 26.3875 58.5315
37.4857 76.6452 60.1662
34.6041 40.4125 20.7111
35.2141 40.8635 72.4637
15.0089 49.3366 87.7346
32.9793 64.3994 56.2348
40.8554 33.8566 37.7149
46.9293 52.2144 49.0979
14.5147 58.2352 30.7759
37.0718 23.1838 57.6473
46.6907 33.3718 50.9438
38.0542 39.7104 34.0021
29.9546 52.8721 15.532
36.6069 27.1214 60.8927
