ply
format ascii 1.0
comment Created by Open3D
element vertex 736
property double x
property double y
property double z
end_header
37.4359 163.428 85.5487
28.1263 132.048 93.3834
28.3327 96.3175 87.4685
73.0508 160.937 103.03
47.4863 139.354 125.915
30.2875 119.006 82.1696
68.6161 112.122 68.9455
73.558 80.6237 133.605
73.5732 69.8001 138.555
78.4036 91.2024 110.577
48.3268 126.338 131.388
60.255 41.9901 70.7589
67.1519 32.8307 91.8386
76.1398 119.631 71.9256
48.4435 71.2605 123.263
70.2048 112.042 110.695
49.1393 107.515 55.8192
59.2647 117.483 134.129
59.6237 83.1044 139.733
69.9032 40.1307 65.3481
62.7208 72.2562 142.089
51.7839 130.802 60.2419
34.1619 128.985 89.2809
87.7686 105.431 130.509
59.1128 128.031 62.9314
79.155 140.56 106.702
64.7736 51.7723 81.9771
30.2982 102.011 64.9807
53.2049 92.169 83.3971
63.8599 84.5274 46.2959
52.5294 110.596 138.971
62.5263 156.679 98.1601
82.2705 61.4088 57.3386
74.6724 65.7076 55.5422
36.8087 87.7074 81.0321
64.9514 41.0985 96.2637
92.99 126.539 149.423
47.1871 149.92 97.6478
82.5484 101.336 148.318
67.4292 59.8055 71.9805
41.792 81.5213 70.3034
98.4552 61.5838 141.314
52.6987 42.2171 75.7198
64.4054 105.832 113.088
87.8757 106.433 152.8
33.0804 119.466 108.857
45.2824 74.3253 56.5493
69.7101 119.61 58.7428
82.5981 91.0159 151.47
78.3668 81.378 110.31
59.8227 150.599 93.524
61.1223 95.3029 81.3462
36.7844 76.1478 78.4827
81.732 55.6178 70.0909
40.2168 101.397 49.1867
47.975 63.2881 58.9267
35.3003 89.3562 59.4429
40.6788 87.3948 48.1777
99.2143 56.9126 75.7331
62.7971 150.44 76.6793
30.1118 132.111 111.74
57.9379 138.621 82.3563
46.0999 120.906 127.075
32.9485 134.194 80.8069
89.7123 42.3553 86.5334
27.7859 115.653 86.9794
31.035 115.58 144.258
56.0583 94.8976 132.574
53.6016 133.279 112.904
20.9971 114.362 83.7512
43.3534 108.289 53.3514
88.6858 132.632 106.1
56.9067 60.8803 106.235
55.1136 104.197 71.365
45.9272 119.968 138.185
44.4751 62.0647 89.6525
49.3213 97.0283 47.0313
22.5392 127.946 84.4726
29.4078 125.822 134.149
35.3752 114.222 97.8845
51.5937 121.389 55.9652
97.5093 79.9892 142.599
81.7831 137.767 73.6749
50.107 55.8337 104.332
54.2242 91.6389 50.0992
53.1676 78.1329 133.139
76.7251 44.3837 71.6943
48.4949 58.6963 120.187
102.418 148.533 112.634
58.8674 101.478 152.805
33.2453 123.068 69.0872
73.6586 150.931 135.166
26.0625 101.211 71.7257
31.8071 124.866 124.109
52.1056 77.0311 84.2468
74.485 110.208 86.9201
65.9247 155.215 106.947
54.3236 141.771 125.876
39.6318 71.6396 61.7327
40.4671 130.428 136.37
55.356 122.156 136.734
39.1267 54.3996 86.5499
68.0415 89.8853 127.459
86.9958 146.839 128.067
58.901 101.914 65.9921
112.709 50.5216 95.4375
41.7967 67.1445 108.047
65.0618 92.7983 146.541
86.8405 63.4375 132.582
54.6435 145.641 134.297
35.6833 85.1795 95.4568
53.4988 66.9624 127.902
44.9163 140.056 78.2088
69.8349 97.2947 134.393
86.8428 57.9094 62.8465
75.1922 60.6718 103.804
60.4241 60.7477 116.788
71.7137 44.0438 93.264
36.156 121.888 136.587
97.1813 47.8121 125.844
61.5031 87.7358 78.9831
28.3459 101.827 79.7714
49.7202 127.616 102.043
54.2254 131.454 125.219
56.0672 114.892 54.7643
52.4469 54.6515 75.5006
80.2247 67.3106 106.233
66.3659 37.9796 71.3545
55.4459 148.93 74.893
99.6609 51.1779 82.677
45.9614 57.2677 111.618
33.3278 105.179 51.7512
65.8269 104.311 144.366
63.7682 131.14 125.218
64.5917 65.1949 129.317
90.2981 96.9136 104.385
61.2994 69.5061 133.07
71.2586 99.8663 95.9985
76.9225 108.777 99.3923
31.5097 109.299 92.0356
77.2989 70.8176 95.5539
77.4224 55.0692 82.3762
74.2239 57.218 65.4551
85.8128 126.812 145.29
35.9287 97.5235 56.2857
51.0965 138.18 82.7184
89.4881 116.132 147.042
40.3736 69.7628 92.9553
66.4399 138.451 140.517
47.7582 86.9849 45.4761
72.1103 62.9895 132.953
54.6851 150.527 124.779
31.3185 94.292 50.5016
45.8439 130.183 62.5187
78.9239 51.6602 124.407
55.1621 154.833 115.059
102.722 83.9954 150.421
55.4326 99.0217 61.7113
47.5578 64.6901 117.208
75.8639 141.956 74.6776
50.809 128.211 118.567
37.3905 72.766 50.4553
95.6073 66.8708 96.985
49.2955 72.0814 44.8021
65.0585 68.3964 44.6192
90.8967 90.7803 79.0496
39.9501 137.987 67.3045
32.9236 129.771 154.167
88.8724 62.6573 102.186
48.9516 76.1855 96.7805
41.7952 120.755 105.906
62.4175 71.4142 114.01
83.5136 120.881 67.2867
51.1825 115.786 144.968
38.437 97.3735 88.4289
81.8868 152.728 121.852
93.6762 84.0807 151.634
88.0257 156.062 100.618
46.9279 65.4848 53.0547
46.6374 93.1982 89.7638
37.3441 131.321 112.888
42.9337 142.653 84.1402
28.8039 51.5744 177.929
73.4951 103.178 145.612
63.9647 54.215 110.553
41.685 143.623 117.596
66.5546 50.4824 57.0176
47.7543 56.5028 64.5764
77.5236 154.027 110.326
57.9568 37.0907 75.3538
46.6298 115.983 59.1606
48.923 147.67 116.57
34.3908 86.5754 72.1973
83.3917 70.9099 67.1595
59.6938 67.503 106.546
83.5213 44.6584 78.511
35.1101 141.091 101.451
40.112 129.744 104.169
106.832 55.0571 83.6446
45.7144 137.194 71.8005
82.8428 87.3783 138.959
60.6038 150.01 133.005
63.7694 89.7863 110.392
105.179 81.0313 145.216
27.7144 104.672 86.519
31.8786 126.031 79.0029
45.5052 107.228 77.5054
43.5419 124.834 144.238
98.783 74.1056 149.839
43.3271 91.1961 70.6476
80.974 140.24 94.5833
87.5507 111.762 75.9632
35.3696 72.3519 67.5185
67.6663 87.3636 103.933
68.7541 81.2023 143.973
57.99 55.2904 123.965
98.197 102.287 121.267
55.9357 143.468 70.7258
74.5493 54.2686 53.6891
63.2924 47.2866 151.962
31.2639 133.383 138.047
87.6873 40.7331 108.64
31.0427 80.4295 54.8503
107.304 149.643 118.871
64.6663 56.0669 136.317
84.6506 44.4209 90.0936
79.0591 44.3264 107.931
31.5507 135.04 101.574
69.347 133.325 66.1822
75.9413 98.1693 118.201
67.1954 101.543 89.3017
86.1049 62.889 67.9174
72.9073 155.693 129.517
99.5023 118.906 85.3895
46.7438 136.374 103.157
89.4706 86.4516 138.819
50.3865 136.01 66.4996
37.2778 82.2728 59.9872
107.957 95.0803 109.75
72.5005 36.6636 73.4153
49.9751 142.032 69.6983
45.7112 144.924 91.5261
85.0038 35.0675 94.0462
69.5669 38.2808 78.8619
62.7432 139.999 61.7576
25.7594 123.365 73.2932
96.7433 64.4522 70.2714
56.3128 71.5593 132.012
45.6267 133.969 110.357
67.253 85.959 134.684
78.2522 37.4799 94.8249
88.1975 79.3994 120.752
73.3526 58.6162 126.319
70.7756 138.423 77.8003
101.899 74.8459 133.544
74.9055 72.476 51.6811
73.8567 84.0996 118.975
98.9891 72.5883 142.898
54.2896 95.0254 66.7332
76.814 55.4473 131.482
60.9199 88.3361 71.0649
49.8537 65.4953 108.483
77.2512 99.58 105.18
34.3138 79.3462 67.2995
53.2271 114.658 63.0166
75.6161 77.9804 148.976
63.3477 128.312 150.04
68.241 121.319 115.166
53.2549 135.479 56.0795
86.685 132.824 75.7722
59.0906 39.4487 91.0371
71.982 89.655 68.8709
64.1713 119.505 53.1363
42.5402 94.7745 77.6461
62.7931 154.926 127.365
72.3581 37.7216 98.4194
56.4545 66.7546 92.7404
35.0622 125.642 106.817
59.1303 63.7168 123.76
53.7585 66.6797 114.34
40.3902 125.285 60.2402
63.7467 148.08 86.7453
81.3722 45.7817 67.7999
65.9019 34.2925 84.0958
54.169 81.2997 95.4214
80.9266 151.426 133.806
58.9829 59.0321 97.7063
47.0145 116.579 66.3883
88.6426 84.3603 149.177
78.6448 78.0995 142.295
42.0788 62.0871 116.195
57.879 139.353 134.376
41.2245 86.4505 92.366
40.7335 143.686 110.744
85.2481 75.1124 103.407
74.069 132.624 113.819
59.3874 90.0178 87.6246
80.8451 135.278 100.497
83.3357 126.654 64.2299
52.9625 38.3989 86.8708
126.674 85.5086 118.635
94.9255 71.8323 137.108
51.8972 147.08 92.5343
68.4073 67.1575 145.756
61.1442 93.6002 120.821
67.5905 119.128 102.629
25.403 115.212 139.676
91.0052 49.1497 66.378
88.1457 69.5287 138.486
67.2853 95.102 102.062
55.8278 55.312 61.9587
111.953 82.2767 140.766
30.0574 125.063 144.273
68.1552 82.0992 110.154
60.9306 94.4302 70.2424
81.3974 121.099 111.398
71.7103 98.9839 57.8078
70.6193 125.458 108.654
90.3479 26.3257 115.79
32.4417 114.923 60.2806
88.7269 42.4022 97.5181
34.1867 112.337 78.4394
65.0506 132.795 55.4993
60.4999 47.2461 65.3766
38.8375 82.0419 52.514
59.8474 139.097 144.575
92.7425 60.0588 66.1998
85.0086 64.6522 81.9606
93.4132 140.173 134.061
57.4224 70.8075 44.8255
71.2413 91.3216 114.701
76.0901 113.762 59.991
57.9707 140.753 66.1699
38.458 114.255 58.8739
51.0501 96.7185 60.7235
66.7246 62.2473 124.067
61.4049 78.5488 103.17
48.0278 84.8941 88.1915
76.1954 39.8293 78.5115
102.358 149.195 102.296
33.1078 133.985 146.309
58.8603 92.9782 145.178
41.6882 94.067 45.6743
53.6184 60.9839 123.688
68.0032 63.6215 52.4984
104.092 71.8835 139.31
39.6683 99.8878 93.4301
60.2938 101.068 124.63
111.852 70.6297 125.555
68.364 56.93 119.697
68.0811 108.492 132.352
82.6891 81.259 124.67
35.9556 140.825 88.4129
76.5527 75.189 90.6988
99.4576 58.7306 128.205
69.3383 145.906 83.478
95.9695 66.1363 131.919
83.7183 161.376 113.599
82.5156 100.924 66.5044
57.403 73.241 103.517
89.4704 76.3385 111.209
69.2305 98.1235 119.937
36.0006 132.484 94.8972
56.1305 103.677 132.871
73.8851 35.2292 104.514
93.5626 110.034 125.277
36.4048 59.4839 85.2421
65.8533 119.726 65.7079
40.519 136.97 76.1872
68.688 40.6329 146.607
64.1018 94.5197 134.953
85.9289 142.522 103.716
71.735 150.689 87.1036
57.2462 98.2956 138.655
101.199 67.0133 76.606
69.2985 156.029 118.255
78.1635 129.223 95.4144
76.7598 111.465 120.071
54.1399 63.9921 48.1308
71.0031 144.529 141.916
44.1771 71.5106 71.0997
36.3046 141.417 79.9126
95.0206 108.058 83.8235
78.4579 148.893 84.0633
63.9086 38.1262 77.0468
86.1606 128.634 113.798
44.7961 48.7999 85.0091
77.9468 110.141 142.797
29.1051 112.94 74.1376
35.1416 98.9368 73.9378
87.0236 141.934 93.3371
45.2969 63.2994 103.239
89.894 55.7962 78.5344
78.5638 147.538 77.701
70.2442 158.309 124.605
67.3343 142.938 72.9094
66.9144 148.466 136.971
86.4543 149.265 93.7348
121.388 85.4946 111.895
82.0464 72.022 98.8962
67.2954 109.865 56.8212
78.4285 115.876 125.506
76.4501 79.851 77.4474
90.3492 136.784 93.1861
30.8434 125.293 86.1582
61.512 144.035 139.141
87.3444 45.3428 70.7161
48.8054 58.1826 83.5516
71.2639 78.303 89.2377
55.1403 145.581 86.941
34.5738 136.939 74.0847
68.5027 146.805 66.8768
71.9909 89.3811 97.1369
79.8566 144.29 141.872
41.0749 131.67 119.657
71.2074 116.916 125.15
81.8399 79.2685 94.3993
109.839 94.6189 143.161
64.808 106.121 66.0856
106.22 88.5062 116.28
77.2787 115.62 133.633
65.6674 146.954 95.0234
57.9622 59.5354 132.147
75.0493 154.414 116.889
34.6894 99.0937 96.5974
38.1524 129.622 148.061
97.0831 116.664 150.502
80.5157 118.057 88.0768
67.0825 126.856 63.3701
91.5215 47.4978 74.3275
85.4619 135.402 147.13
87.2952 125.445 69.9173
71.6085 77.7886 47.9325
39.1866 64.8802 77.9091
98.6893 131.769 136.911
79.7007 114.717 65.6032
86.6151 161.401 105.903
73.1379 33.9026 81.9247
107.724 56.8725 75.1193
78.0692 139.985 66.3803
61.1127 114.509 58.2806
86.3279 159.007 129.716
44.4731 78.7307 50.6132
68.2566 91.3145 120.794
88.6234 104.332 75.1782
58.0239 67.6633 99.2133
79.1362 154.927 129.371
59.204 103.143 50.232
55.546 112.259 129.436
74.2276 124.162 147.695
33.8053 130.218 70.8572
73.4151 136.367 70.6217
56.9655 80.8284 89.0992
50.7251 146.745 103.546
49.1727 137.192 134.52
112.913 102.379 114.928
79.8616 74.5104 110.307
95.5085 134.064 77.5218
38.4488 81.8281 85.1897
70.3469 61.1042 110.688
50.7456 67.9405 97.6703
54.1465 84.1548 77.6172
115.154 82.276 113.067
51.0047 94.4407 74.9362
104.277 62.414 81.9304
82.3848 38.8977 102.503
70.8064 104.875 124.765
65.6035 76.1013 111.706
90.4595 44.6769 79.604
82.6271 45.1109 120.461
104.858 111.848 126.634
117.241 102.477 109.733
52.8744 45.5726 95.6976
53.1067 67.0687 66.3696
76.0599 108.587 63.2543
55.1936 147.485 112.038
99.2213 78.7826 101.325
59.2628 36.5197 82.1434
83.3957 35.9935 79.801
43.0083 77.0372 88.8989
94.0645 67.7432 112.734
68.9506 114.31 119.134
30.0553 110.957 83.0019
61.0322 156.751 121.992
77.5022 75.7621 118.189
96.6073 46.9261 118.331
91.7776 58.6836 120.562
54.3143 57.7196 52.7561
73.8865 118.457 83.3851
81.6004 114.785 95.2062
72.9318 136.085 141.91
42.4614 106.928 86.6758
61.4294 57.1682 64.0872
53.9594 46.2961 69.3594
61.9591 104.348 135.24
112.934 106.253 140.387
29.1402 117.563 63.9562
81.0954 118.772 78.2507
63.5971 154.661 116.858
55.0214 53.5737 68.7963
86.1058 69.8245 74.3329
95.0576 150.821 135.838
64.174 95.5634 75.4281
94.9432 47.5767 80.9292
82.7761 147.809 114.654
54.8132 106.825 54.5741
89.1117 70.2173 112.727
78.1578 123.731 151.233
35.9915 125.218 96.0067
68.855 62.3072 44.6207
45.4872 49.343 76.1411
72.2657 128.648 75.8572
109.55 55.9256 118.299
57.3246 76.3081 98.296
46.0319 79.5916 44.8735
91.061 116.262 78.8509
48.8925 94.765 81.0038
38.1358 120.931 91.5872
76.7333 55.7818 118.279
107.781 103.758 111.733
48.6108 50.6674 71.5397
33.1762 117.284 91.369
71.6425 103.502 60.2198
105.792 58.8784 125.736
78.6459 37.1101 83.381
60.4418 151.489 112.049
102.138 55.5355 118.249
88.0602 77.1999 142.712
73.3366 96.4031 63.339
86.2292 123.04 77.2557
92.8779 154.812 107.199
99.7581 143.188 139.673
52.5648 140.352 118.519
40.5997 134.843 96.2017
52.2538 153.26 108.202
64.4069 41.2551 123.487
90.3562 112.615 85.1256
68.2945 108.634 78.5691
57.3169 98.6709 73.5196
59.9751 107.774 54.6998
74.0296 119.546 112.721
69.5832 93.4938 109.391
94.609 120.422 73.6101
74.5219 76.2665 59.6586
58.93 88.8624 138.291
93.2567 38.102 101.819
54.256 148.119 97.5665
57.6485 106.879 61.9018
25.4681 48.0997 186.75
64.8688 65.135 98.5908
118.114 108.994 129.4
85.5755 136.78 86.2167
61.717 83.9994 91.1518
61.4513 109.625 139.562
53.6554 88.2478 136.879
94.2905 53.299 77.1186
69.4298 126.407 70.4703
65.1461 62.3269 138.577
53.9605 82.1209 43.5966
76.0504 33.8122 89.3519
45.796 141.744 106.796
74.0005 126.122 63.9889
107.659 70.0043 146.693
88.9201 118.613 91.5855
72.7935 82.7917 96.3738
64.8797 106.485 123.614
81.3297 147.615 137.474
91.1119 127.303 75.8131
78.9211 71.535 59.344
55.5348 129.946 136.847
62.3903 120.073 139.093
86.6468 146.759 85.312
45.1763 69.2417 88.4757
50.0739 43.2818 92.7503
80.3975 59.3503 124.805
80.3874 128.269 84.4729
48.6066 45.4808 80.1455
75.816 146.64 92.0847
44.4048 55.7195 96.3178
62.8914 136.866 69.5524
60.3065 80.0937 94.7014
103.036 51.5674 94.6293
77.2496 126.948 101.1
107.009 124.081 137.25
79.5439 67.6255 140.982
92.6071 38.9449 93.277
77.3568 133.314 142.75
69.6845 150.01 101.469
106.498 99.2502 118.48
96.2088 45.1563 97.2884
66.0386 153.126 132.927
42.1294 90.4616 81.3967
83.939 141.856 79.7489
67.4826 132.244 143.4
83.3554 114.182 140.23
74.0101 48.4187 77.2702
46.8201 63.8195 97.1769
92.917 151.67 102.66
71.6281 120.677 98.423
85.9669 131.452 88.7239
95.0316 57.367 87.1175
80.9338 63.2055 114.274
37.9052 89.598 89.7889
76.7855 139.233 84.2757
95.9139 124.127 90.421
58.357 121.385 60.3962
103.161 67.8143 130.379
103.007 154.827 137.06
48.9285 144.988 122.982
79.0381 122.571 96.6055
97.172 84.5118 132.927
106.93 49.3924 126.067
70.2177 79.4577 78.8305
78.1639 126.71 68.0552
47.5295 153.391 120.962
42.8397 77.6133 96.5177
103.306 42.4449 109.331
51.7155 77.7923 45.6806
66.7324 154.537 112.995
107.479 109.085 116.59
85.3904 91.6368 93.8811
76.9221 151.121 100.902
95.5289 67.4018 104.833
75.7734 125.589 115.181
91.3527 102.605 81.2411
98.2842 110.473 152.422
71.185 47.6928 70.0984
87.9256 126.092 86.4167
71.4202 70.258 46.781
52.0361 105.201 61.4277
29.6857 131.136 127.357
43.6727 144.051 99.3773
70.3379 38.869 123.47
78.8087 90.4616 68.9102
59.2221 82.6953 59.8204
76.0755 143.698 134.336
94.4907 84.3915 120.583
90.1372 150.416 142.718
86.996 125.712 95.7177
62.1145 121.204 115.187
91.9133 81.7144 134.774
82.4434 93.8829 143.698
75.6183 134.167 77.8267
77.5722 154.237 94.5613
87.4597 145.321 111.573
85.5587 142.943 138.538
42.177 91.5669 91.8911
65.8544 96.9093 64.8726
105.583 56.2235 101.766
94.7379 134.226 89.2809
44.7741 101.319 85.4962
88.2033 118.075 133.519
86.7394 50.1881 116.161
64.1075 111.932 61.9123
121.479 72.169 117.128
49.8404 49.3283 86.99
83.1919 121.194 135.93
116.181 94.4952 144.947
63.1865 96.4167 139.981
71.8137 114.8 63.5435
74.2325 152.756 122.531
93.0199 52.535 117.504
89.4041 115.09 152.553
59.6896 62.7452 53.1764
56.6813 150.631 103.114
54.302 137.803 74.9806
35.4016 117.277 104.29
54.4794 155.349 121.422
80.698 135.211 87.6172
17.14 107.384 91.6377
92.2987 61.1866 127.903
84.8214 129.577 100.922
50.9974 71.8299 51.9006
66.5355 78.2444 95.8199
111.006 76.3873 107.548
109.587 132.413 118.567
62.2144 149.008 141.983
83.0279 114.059 132.886
111.487 53.1263 103.901
48.2745 153.5 114.951
106.813 68.1071 83.282
81.4386 124.65 88.5909
80.8648 130.659 78.0238
76.4508 126.101 56.5877
93.8385 122.98 122.5
77.9341 154.354 88.7497
63.9744 84.8924 53.4521
84.3177 144.172 118.554
120.078 84.8723 119.4
35.7357 105.652 4.83604
89.023 56.3348 131.05
89.2502 115.247 97.4494
83.0175 81.5088 146.223
78.1937 121.075 134.912
96.4858 46.8409 89.574
90.8253 138.283 84.6743
65.9783 146.699 142.676
23.0454 117.671 72.2726
60.043 76.1903 44.0163
111.173 70.0333 133.412
104.868 61.2257 132.828
102.27 46.2513 98.8832
61.4043 59.9262 71.2481
76.2144 142.487 146.593
109.107 62.829 126.273
119.781 84.06 124.78
104.909 113.55 147.669
58.5597 44.5605 93.6949
47.9291 87.1295 69.0141
42.2646 120.068 145.459
106.592 51.9336 88.054
42.1483 118.601 64.2375
96.1205 48.5247 107.288
94.0991 47.1901 101.771
101.639 91.2616 134.524
75.2577 66.3957 63.5405
99.4156 93.9739 115.778
119.773 92.701 115.535
87.1381 57.4745 113.355
95.2209 113.908 83.5868
118.898 95.2841 104.714
77.6347 130.751 72.681
103.143 82.409 104.046
83.1889 113.308 80.2159
97.4942 118.081 95.7821
107.791 75.6199 97.1427
80.2113 138.998 144.685
112.036 61.7238 106.109
99.6916 135.701 146.498
109.845 70.0983 93.6641
119.79 66.2892 116.807
102.225 43.5629 92.639
111.794 79.0019 129.851
74.2439 62.8342 116.883
70.2439 61.005 88.7439
110.127 82.8188 105.305
