ply
format ascii 1.0
comment Created by Open3D
element vertex 1032
property double x
property double y
property double z
end_header
16.4421 77.7647 150.039
26.3005 61.9562 145.34
24.2019 105.523 134.063
26.139 79.2081 200.973
28.757 117.385 134.743
33.7296 112.015 194.619
51.3813 140.803 175.582
45.8285 142.653 153.557
27.2674 90.8169 121.634
18.8451 71.6194 144.575
68.5846 108.567 213.938
34.0863 126.299 140.323
65.7368 20.2134 142.932
65.1078 142.824 180.983
81.4866 139.857 181.148
19.5522 89.2698 136.938
60.7104 24.4582 119.984
66.2772 149.651 135.406
17.0415 89.883 170.839
29.4185 60.9503 114.997
45.875 104.198 91.6821
47.7576 49.7957 207.397
50.3823 43.1735 201.42
71.8761 122.26 89.6139
37.28 133.461 174.807
20.2089 107.204 178.75
40.1954 139.219 160.659
57.5396 24.9318 181.726
53.6449 132.175 193.572
75.5453 37.4893 103.544
65.8666 136.666 103.502
21.2752 64.5072 113.087
33.4853 37.1055 132.012
30.1548 144.988 69.2508
59.9998 41.8647 204.003
70.5905 153.128 159.702
47.9566 96.4161 86.3404
18.5107 111.549 160.561
75.5355 27.5096 159.486
28.3948 122.058 139.983
28.6637 80.021 117.012
33.7401 138.733 35.3005
17.2476 95.0252 165.264
44.7622 132.389 116.933
61.2574 107 215.824
19.3104 108.65 154.16
44.4991 45.8075 103.422
81.1896 118.067 97.5398
18.6653 81.7702 185.802
37.52 121.438 118.912
71.6436 150.118 141.338
32.6415 55.2908 111.285
87.5506 126.246 114.724
17.5087 101.33 159.636
65.0099 152.185 157.328
20.9613 64.3068 184.559
43.3533 26.2961 180.845
35.6095 68.4425 209.558
29.6073 116.723 125.93
37.5809 30.1926 131.281
20.307 82.7355 130.375
18.7586 89.7425 188.272
23.5372 80.2681 100.756
37.6801 35.4896 192.125
58.7523 59.8242 212.295
76.9709 75.9357 213.94
43.7873 132.903 184.896
37.4821 26.0982 144.057
27.8331 141.213 47.4499
59.9888 134.454 196.456
76.9977 92.6525 88.8086
22.2484 72.4525 157.41
45.3655 22.6493 145.386
50.7193 105.403 210.659
52.5468 85.9934 216.833
31.1595 127.062 146.979
46.7226 131.999 191.612
27.6182 70.6876 202.936
49.8795 22.8682 170.834
30.8054 94.0478 94.1721
32.899 129.297 177.951
31.2069 101.325 200.721
51.7101 19.7074 147.332
17.9991 74.951 182.371
31.7395 131.537 157.213
45.2651 120.159 102.462
85.8879 44.7493 130.232
58.0567 141.064 163.447
24.5904 45.511 165.299
69.0629 133.168 96.5789
23.8997 60.0605 97.6272
43.8622 68.3232 210.962
27.5712 138.963 57.622
96.7388 139.113 151.076
40.0887 51.2538 103.431
36.6444 37.1889 118.487
59.9836 20.3775 162.254
17.5038 99.0779 182.038
47.8761 135.754 52.6928
17.4524 92.6583 145.471
50.2626 118.522 93.6174
25.7132 39.6018 160.245
38.3072 112.887 106.412
19.8788 96.0434 136.541
51.9798 138.207 186.232
67.1737 39.281 200.617
70.3659 136.067 189.493
68.5765 151.162 168.24
26.1315 99.4296 106.948
61.7944 130.44 94.669
55.1307 148.19 158.752
72.9515 126.034 197.484
80.8599 146.228 170.344
19.5421 90.291 104.973
40.9649 126.517 146.335
74.0305 23.0242 168.69
81.8124 135.596 187.734
36.3797 53.5522 203.518
93.1242 140.415 160.277
16.7743 82.5095 158.725
24.957 101.097 170.763
57.008 147.968 168.39
69.1906 84.8634 208.61
75.2451 149.764 134.733
57.636 21.3412 172.67
18.8649 69.6142 178.357
23.909 57.8268 135.768
74.3639 121.632 203.468
22.9991 65.4098 124.917
82.2277 25.0278 128.926
58.6614 144.355 126.803
55.0713 26.4576 117.504
25.9515 46.8937 149.639
50.2588 135.805 42.7977
80.8466 122.926 198.395
22.4411 112.334 185.608
21.9321 69.1061 92.8728
48.3005 133.648 126.843
19.5711 107.659 169.021
33.383 129.425 189.423
42.9553 22.8766 174.281
25.0004 71.0132 184.196
68.1598 24.822 183.893
42.4958 46.7222 202.842
70.7272 89.3126 83.9817
65.183 125.53 203.938
71.9353 79.799 218.63
28.3688 133.977 49.0208
36.8031 24.9334 159.433
58.8697 147.504 134.112
43.5802 91.7854 212.364
33.2153 69.5766 110.11
22.0956 119.253 170.296
35.6213 117.937 129.581
77.2667 46.4446 100.79
19.1369 107.932 141.022
89.916 89.6709 129.922
88.1859 62.9464 132.168
43.3858 35.8425 113.881
30.6408 115.193 118.645
87.6243 144.16 131.191
87.3358 64.5313 181.262
16.109 99.4139 153.658
22.644 88.9346 128.742
45.2403 112.928 95.8116
66.2283 147.561 127.911
18.4195 85.4856 110.803
29.1047 62.3037 90.4777
43.6027 20.9665 160.239
15.5478 74.9854 161.509
50.2403 66.1039 213.767
15.797 102.724 166.684
84.2047 103.269 100.345
44.5412 83.9734 215.26
23.6861 51.5065 183.456
68.7411 119.852 207.493
87.593 63.4997 171.481
17.0021 74.2874 173.875
38.1071 60.3901 106.499
54.1394 136.925 114.094
36.629 44.5343 199.31
38.4111 141.716 43.3488
22.0967 52.3821 162.75
86.194 56.1164 144.978
29.6549 34.7357 171.027
37.9276 130.777 40.8027
27.9367 78.8809 109.078
77.6946 116.986 89.4389
30.7385 31.4086 159.341
59.4351 75.3068 82.6789
46.4358 28.3246 189.711
40.7813 139.722 53.8661
51.2337 20.8392 134.992
60.0975 102.986 81.5787
53.3653 31.2138 112.726
67.4621 152.01 147.564
37.5197 135.104 183.703
26.0621 104.668 143.773
31.528 106.494 121.721
64.2965 122.994 87.7794
76.113 34.1782 111.022
77.8871 126.082 93.1767
100.907 103.089 167.424
98.7275 135.702 157.832
83.3779 146.743 162.487
61.4611 118.669 209.576
19.7907 74.8083 189.506
53.384 47.8344 96.1803
61.2009 145 152.499
51.1355 22.2051 158.005
16.639 86.2811 144.037
17.3127 105.327 148.275
69.2475 86.7034 218.9
61.1173 18.8297 151.578
20.7172 76.06 138.804
99.3372 93.1222 178.845
97.2349 101.676 156.708
71.7588 27.0592 116.264
46.4755 143.921 39.9692
29.3146 131.216 165.499
61.7589 152.205 150.773
67.9588 20.5708 160.974
77.6654 44.7585 199.055
82.8627 31.8812 125.28
25.3975 85.5741 106.53
27.6729 51.8317 195.761
33.845 111.324 112.71
72.3455 56.2314 209.994
94.4205 113.965 132.557
57.7043 84.3156 82.5686
77.4062 147.211 124.023
76.2824 135.771 189.336
66.217 34.235 194.279
31.5901 66.1468 128.685
21.9408 116.499 148.919
39.0264 131.455 190.636
30.5062 120.617 193.592
88.1824 130.208 189.919
35.9751 99.5469 207.569
18.2065 70.223 152.632
24.4159 51.6973 153.763
22.2231 79.7636 195.558
19.0885 61.8898 158.287
17.7795 74.3686 112.111
17.2175 72.2111 167.824
23.8075 132.853 42.5568
80.3312 75.3906 96.0333
54.9062 147.756 150.367
84.4065 128.068 105.031
27.4801 72.2421 138.348
42.143 132.24 48.4974
46.5664 26.0709 125.145
61.3376 42.8889 96.6467
51.8831 78.7093 216.568
25.086 55.254 190.973
38.9012 103.675 198.547
25.6412 112.84 190.975
25.9456 93.4965 102.059
89.1001 94.3254 123.351
29.7926 106.036 194.239
73.2483 94.87 214.017
87.7141 82.2817 122.388
48.6689 140.58 136.518
37.6398 142.52 62.9917
69.4008 30.6078 189.932
57.0356 19.1938 136.993
19.3307 69.3427 136.764
101.918 110.335 167.696
62.3203 150.618 166.17
42.8465 150.819 30.9325
96.9931 117.675 182.394
77.0088 26.0612 123.201
83.2184 31.0748 164.848
39.5398 28.7768 163.997
21.5184 49.3613 170.967
62.5959 109.508 82.2178
36.9356 118.021 111.167
101.881 108.851 160.996
57.8062 133.602 99.9581
52.764 41.2289 99.6213
32.8306 57.9651 131.358
76.1616 22.163 129.893
32.8221 30.5004 136.667
22.1308 94.5965 194.514
52.9799 95.4515 205.883
53.124 69.8233 87.2553
42.5347 31.8477 190.149
41.8826 135.61 154.961
58.2813 80.5497 210.829
81.0039 31.926 152.359
23.9027 48.2976 177.155
63.2305 21.4573 176.807
30.3388 88.5426 114.715
55.6501 72.8767 211.238
75.9762 108.341 209.208
79.8916 115.753 205.879
65.6808 26.985 114.827
74.5132 30.3811 151.617
70.8125 115.721 212.141
66.4221 141.39 110.341
20.0515 84.6269 191.884
36.656 29.3278 181.967
20.435 99.8162 141.347
62.8673 114.424 214.077
69.2092 21.9945 176.417
36.5403 124.518 192.957
40.0801 113.755 100.301
74.7574 136.594 100.499
22.9759 57.2533 181.606
21.1243 105.736 187.872
68.5989 132.268 183.271
33.9669 60.7254 200.314
56.2922 115.714 211.682
69.5837 31.4181 109.879
75.9655 38.96 194.11
42.8353 127.319 194.542
61.7197 149.521 142.558
55.897 37.3557 103.121
26.4437 112.526 163.053
38.4452 103.369 97.7453
55.0016 46.3947 208.171
51.4766 43.7239 106.108
22.3121 150.444 40.3677
18.5795 135.848 46.5408
43.3351 80.2314 90.6699
38.0656 107.93 204.331
48.9473 135.574 113.85
54.6005 30.2372 193.876
35.8932 33.8713 149.523
24.7127 141.93 37.6067
68.9445 23.0596 121.643
51.9665 148.284 38.2402
97.0641 120.097 130.278
31.5056 153.437 38.8605
78.8046 99.7148 213.366
27.5981 44.0607 131.149
72.2303 19.5939 136.619
53.636 29.3147 186.781
50.3103 122.684 203.481
26.0211 102.988 113.963
35.6039 63.8837 205.156
51.9374 53.355 92.5349
58.6511 91.6258 218.721
83.9473 82.7147 105.526
62.9711 52.9883 210.393
36.28 90.0973 88.7867
48.7596 136.93 156.804
45.1757 23.4169 133.637
48.2312 136.204 33.903
21.6404 118.812 155.702
63.132 139.457 189.941
19.0354 64.6891 145.014
47.8981 47.6855 97.8271
69.1228 104.526 81.2558
34.7296 143.439 52.9948
65.6118 46.2809 207.068
15.7132 90.157 156.173
51.1776 148.877 46.4752
59.8963 35.3806 190.481
17.0426 81.9192 166.372
24.9557 90.8104 109.699
40.2579 126.618 115.515
33.038 33.6757 186.086
87.0815 87.8337 118.827
34.0291 133.272 60.4526
67.0115 144.147 116.64
24.6019 108.97 127.152
31.8672 70.4161 117.861
37.3978 89.3452 208.986
34.4608 148.88 37.2977
30.3779 29.4002 142.514
30.0173 43.8238 121.496
59.4795 143.549 117.509
29.1173 126 156.563
16.4001 85.784 150.914
90.9898 133.769 174.427
73.5754 152.143 148.487
50.0215 38.0891 111.864
16.0942 82.5887 171.795
81.5464 142.329 152.346
15.7859 97.0177 173.384
89.8134 69.2862 150.979
52.6925 119.608 207.791
60.8799 35.6136 198.954
68.9487 37.8772 106.037
91.7428 71.1557 179.99
76.0573 40.8162 167.351
71.9891 47.0335 205.154
25.5669 60.9797 130.162
54.7414 108.897 86.1366
27.9569 52.4071 117.877
50.7395 59.8667 212.914
89.5725 38.9329 134.312
41.7439 134.647 134.4
71.7972 140.548 107.113
40.1392 107.749 101.104
20.877 97.2614 186.312
86.9835 27.1973 135.615
31.4016 99.5877 101.641
21.0584 58.2904 188.424
91.7723 96.7578 142.902
44.6235 59.2227 209.662
81.0906 29.1458 174.614
33.2776 32.5958 177.033
41.155 29.9458 122.192
44.2416 142.8 170.661
70.9731 126.764 100.109
63.7012 116.51 84.3111
22.2497 66.7436 101.526
90.4668 64.8173 195.581
78.478 31.7554 117.11
52.1199 126.119 198.685
26.5164 124.919 181.02
38.6731 82.3347 93.4656
97.28 111.663 139.274
54.8348 35.8536 199.364
30.444 154.256 52.6841
55.021 21.2506 166.017
42.8301 149.187 45.6927
26.9857 46.9838 189.985
47.7639 69.591 87.087
25.62 46.6962 137.178
76.8342 89.7643 214.613
72.5697 103.736 214.948
73.4572 143.672 116.086
59.9874 139.045 106.014
94.3767 99.2733 201.288
19.9807 73.1474 131.713
58.2368 24.154 142.194
55.6727 108.338 214.57
16.9637 90.0486 180.037
50.8186 103.151 85.4845
38.2077 127.197 124.977
22.0613 119.577 163.09
43.5844 88.0969 88.1268
82.5291 147.679 128.284
87.7758 25.5458 143.158
48.8144 88.5528 84.3869
35.6824 33.7935 125.196
80.2465 88.7133 94.1464
86.6356 37.0647 147.429
50.4583 132.736 106.893
44.2777 124.409 108.47
47.2843 54.87 99.007
60.8415 38.6026 110.358
79.4833 20.7744 144.749
42.3337 137.595 179.439
30.7348 128.833 184.261
37.7546 133.722 146.721
19.3102 66.5106 163.395
50.1995 123.394 97.1616
25.47 126.782 176.082
77.8259 152.013 151.396
25.6233 59.582 120.358
35.4245 25.5623 168.184
44.9237 121.505 202.584
21.7586 71.703 193.717
40.5641 39.3207 198.795
35.5861 27.3321 174.045
35.0934 135.406 161.882
35.6879 152.159 51.8225
32.3112 28.7104 153.765
88.337 56.0871 129.568
66.0327 19.037 134.648
35.9503 149.348 44.8009
36.8032 129.32 135.327
70.1152 97.0671 82.1256
86.8795 89.5694 149.597
42.7928 138.218 148.708
61 48.6903 94.2228
87.2471 121.077 102.885
40.1116 156.359 51.0335
46.6742 144.417 161.284
28.0355 114.211 143.282
81.2307 94.7665 97.174
68.46 50.7672 92.7263
29.1296 36.6108 177.756
15.9236 82.0985 177.635
64.3874 62.9801 208.799
39.5414 142.388 26.9747
69.8222 128.707 92.2985
26.2279 122.479 147.466
43.5353 126.942 132.687
71.4473 116.085 85.7053
49.2182 127.914 101.426
33.1388 74.7881 201.287
23.9381 61.9088 194.669
38.4618 59.9866 210.323
33.1448 132.501 149.913
87.6819 31.3894 131.049
29.1076 36.1029 150.864
58.402 124.632 90.823
79.5417 67.7663 96.476
53.9171 129.114 98.0212
52.1524 83.2572 83.6954
19.4109 80.7324 106.604
57.3697 135.626 125.886
86.2835 141.098 123.155
27.2437 96.0737 113.884
81.4727 40.7381 113
66.3067 76.726 82.2723
56.725 114.123 86.5828
96.9472 128.489 174.657
52.4399 141.632 128.825
86.0559 90.2858 211.527
56.1354 138.212 135.602
83.7363 62.4898 208.166
87.395 57.6444 189.428
57.6387 119.477 88.9197
100.017 105.924 173.937
45.254 39.8412 106.737
81.965 22.2397 137.1
93.4482 141.767 139.146
23.409 52.3071 139.336
72.4266 148.013 128.476
52.6632 145.172 144.261
47.8765 77.806 88.2557
80.1618 85.0134 207.841
87.493 37.1679 165.815
27.2503 112.633 130.977
81.5147 84.8746 99.6753
40.0505 79.0381 84.0661
31.8946 60.6466 96.263
24.4407 117.203 180.907
45.8796 140.526 176.822
26.0975 43.0961 144.754
50.4443 95.6167 214.717
22.5413 65.9009 190.53
19.0954 101.52 175.581
36.5654 51.6596 108.29
77.6114 131.529 98.1206
30.5364 117.419 189.119
61.2188 66.0026 85.136
54.853 136.068 106.04
20.104 75.9018 126.607
92.5995 139.49 132.107
97.2429 82.7587 176.358
88.807 55.8231 180.78
69.4172 146.853 122.509
90.8142 129.878 124.717
91.1723 85.2732 144.207
24.5756 41.4286 174.356
29.3441 51.0869 133.359
57.7608 147.299 143.14
47.9375 73.0958 216.824
70.8275 69.8407 217.276
32.7182 104.425 107.319
27.8605 58.3292 198.139
88.3277 120.334 110.204
22.4066 96.9425 124.976
25.7264 148.452 34.3767
78.3628 139.664 108.851
87.3831 57.1368 122.103
57.4675 21.0353 128.379
26.6553 113.163 152.805
84.8823 133.005 110.459
29.7542 38.9811 187.067
67.8846 90.9223 210.051
50.3794 138.172 120.973
63.8243 36.5682 100.831
19.6268 61.6044 151.942
97.8437 135.929 138.968
48.5222 60.4772 90.4831
21.9495 146.697 50.2193
38.0359 23.1323 153.244
59.5231 25.9673 190
38.7344 94.5627 209.909
89.4908 53.0837 174.658
47.4551 140.166 146.462
83.3279 48.2453 112.407
73.7595 62.481 215.416
81.4775 36.1702 171.595
42.5922 22.5257 168.109
83.0062 125.338 98.3509
85.5097 135.848 116.893
53.4429 63.5174 88.7688
91.0636 70.3568 187.087
71.9532 143.38 179.059
32.3518 50.2953 198.835
90.0982 134.34 121.853
46.6809 138.285 186.79
41.0939 149.004 38.8919
48.3159 97.9224 203.908
47.8626 29.1566 119.481
82.4369 103.68 209.067
51.9967 75.2034 84.8075
38.7731 155.325 40.7046
26.4068 74.6185 124.922
32.0863 83.4971 90.9681
89.0567 74.9213 144.378
25.3416 125.537 164.505
49.761 111.118 90.4182
29.3871 78.2767 94.3031
91.8444 53.4156 152.786
69.3239 20.9072 127.665
39.7244 24.89 136.356
88.1055 134.153 184.532
96.716 113.144 189.237
20.5715 111.125 146.932
49.5335 33.8467 196.38
91.0252 141.95 153.9
31.7907 150.985 68.1327
28.4863 31.527 147.82
85.8029 57.7492 150.732
81.2192 150.294 136.677
32.1603 39.0464 124.83
58.2233 144.551 181.623
32.7596 66.4535 104.376
40.2994 62.6527 93.9831
51.2125 21.7076 177.999
54.2601 97.487 82.2584
87.0106 83.8236 210.634
90.2211 69.9699 167.849
26.021 121.091 185.686
45.2481 126.529 43.237
60.4688 140.589 122.599
80.3477 135.45 105.332
58.3181 50.8288 209.143
87.8 146.036 138.439
86.5547 143.13 168.978
84.1623 148.729 147.251
20.0467 62.8705 178.317
65.8136 19.4831 168.587
36.7104 154.793 62.2253
27.4168 85.847 204.142
88.2785 51.2105 125.627
21.4021 113.709 168.855
32.6295 42.5327 194.021
36.0179 44.3164 110.041
41.6516 133.3 126.319
43.0421 63.5817 103.873
31.9092 83.1405 203.834
16.5583 97.3014 148.651
76.7601 105.016 85.9595
42.2645 96.0286 91.6698
63.0528 88.3747 217.16
76.2508 94.985 103.892
78.7487 53.7579 204.184
86.7548 80.9191 127.973
73.3098 33.2806 192.263
90.7224 56.1252 134.9
84.1925 47.7896 118.685
25.6253 89.791 201.239
46.3441 126.38 198.276
27.1236 41.2088 182.592
81.1836 49.9933 106.446
62.6575 128.975 198.926
75.5739 98.5605 86.1423
31.9383 92.0521 198.543
78.6727 55.5039 192.944
30.2397 89.9828 99.8437
42.7614 108.631 207.214
40.7071 103.279 207.365
96.1011 105.011 143.128
79.7245 94.002 121.47
89.1772 74.44 127.279
19.4602 58.2938 164.345
77.9942 28.841 180.894
94.298 103.883 183.579
44.634 36.5858 196.901
77.305 35.8249 160.908
92.7326 49.1736 138.498
81.2485 142.02 116.99
28.8402 95.1624 195.683
40.3561 115.579 197.138
79.9558 131.414 193.197
58.2815 140.015 111.921
75.0483 23.8236 176.159
75.6064 85.1514 217.732
86.4579 96.6456 211.085
100.627 116.78 172.164
93.0142 133.856 129.82
24.3816 70.815 197.951
35.8583 126.326 31.1994
72.5694 21.8412 154.166
84.0424 116.655 196.459
41.1124 53.9416 207.462
67.8958 53.051 206.718
25.2707 44.5266 156.138
26.1435 101.875 196.33
31.8825 96.185 203.433
27.0361 39.2917 137.34
97.8327 102.898 150.082
86.1756 43.6001 168.483
86.1477 140.631 174.955
46.2713 60.4767 95.8934
93.4626 107.158 136.62
33.528 92.1184 205.144
80.2561 56.76 209.129
24.6794 39.4827 152.83
17.0705 80.2912 142.571
78.2902 79.1315 102.22
81.5601 24.9018 156.148
67.6915 58.7312 213.431
58.8695 75.8099 218.175
87.6217 87.2069 110.691
88.4028 70.6543 131.102
83.8704 74.7619 212.725
55.2526 70.2005 119.265
50.9871 54.7419 209.024
34.2663 124.383 130.565
45.5807 129.274 109.34
40.4356 115.913 203.794
74.2288 26.6483 183.53
43.254 98.2328 211.925
71.1758 138.664 182.221
91.7677 106.388 195.092
48.9655 25.0271 183.99
76.4055 145.531 176.483
61.3984 22.0712 133.061
72.1607 110.595 83.1228
29.318 70.5448 92.9192
62.6369 30.0566 108.718
28.2624 152.071 43.3479
87.0162 63.3741 125.157
30.5629 130.087 171.33
81.0121 44.3496 163.937
39.3913 123.913 199.883
25.4686 125.126 170.725
67.7929 95.4896 218.571
87.2003 49.6132 134.512
52.0634 23.6738 127.515
29.3807 32.1462 165.662
85.7646 103.069 123.662
54.362 69.3383 216.637
16.5771 89.0995 162.105
81.4882 150.367 142.601
41.2915 140.063 166.814
98.9446 108.039 147.241
68.7304 133.699 195.671
88.9827 41.346 161.206
91.9564 121.854 191.878
26.1156 49.7022 125.924
91.8246 141.204 166.017
92.6979 51.1599 144.308
60.6109 137.391 184.902
94.0869 79.5958 167.646
47.0222 100.954 213.202
18.1214 81.0514 136.01
92.7639 64.8867 147.684
21.9734 112.581 177.146
77.8245 29.4758 168.513
26.1706 94.4672 130.479
42.2111 133.53 143.132
81.0949 35.289 180.59
38.6683 70.0016 89.3667
21.3317 118.015 176.4
58.8509 68.9378 216.247
36.6076 136.555 154.354
100.965 116.241 152.714
87.6332 71.2113 122.339
86.7308 60.075 200.132
51.5811 146.74 168.725
98.2741 89.0507 184.671
75.2683 150.202 162.481
23.4048 99.5882 131.497
88.91 59.454 176.287
87.5334 92.5302 109.05
86.0729 49.3395 178.236
31.1837 87.9969 91.4552
84.064 62.2052 144.748
88.7299 67.28 203.872
21.7412 56.9446 144.749
91.5205 145.933 145.061
90.5759 78.1112 138.37
50.4802 130.721 178.727
22.7385 101.881 122.436
95.4777 88.6359 173.105
82.8838 63.1812 114.961
81.4136 113.13 92.5266
24.5102 50.9289 144.25
53.2067 144.139 136.81
80.4634 41.1974 192.992
80.5346 41.6302 106.72
25.0757 123.255 157.802
83.9319 54.0355 199.716
65.1098 65.4819 215.077
62.8274 22.9275 126.133
33.262 121.202 123.195
85.5868 52.467 140.02
30.5499 76.0468 101.734
88.7154 115.696 113.42
18.9219 65.0697 172.149
99.783 107.164 155.063
80.8985 69.5662 122.725
81.2505 83.8801 215.329
33.3407 71.713 99.5766
72.3749 39.185 199.032
38.8205 138.14 171.855
91.215 96.3267 130.559
32.8536 86.791 208.985
88.8938 103.161 117.325
44.989 112.026 209.628
36.3938 136.287 47.9672
64.0728 148.783 171.953
87.1873 51.736 184.608
37.0233 98.1532 96.4677
89.5992 112.639 200.886
91.2186 74.6852 150.822
75.9186 140.183 183.302
95.9323 79.4298 182.734
78.8173 22.8598 150.819
100.122 120.008 142.081
88.9998 91.2735 136.176
93.806 114.187 154.377
37.0037 75.7747 93.054
27.3905 63.9905 199.663
26.5523 65.481 170.057
74.4205 130.063 192.761
51.8865 111.74 210.508
34.2826 110.463 202.451
89.6715 36.1247 154.172
35.903 48.5011 117.725
44.7389 138.101 140.265
60.0044 96.2795 79.9524
99.0684 125.184 169.321
73.9109 75.7533 87.7979
81.8047 57.5918 184.015
88.0068 99.4784 126.896
35.311 120.894 197.868
92.4159 89.4356 153.389
91.7307 99.3022 136.411
68.1772 46.1838 95.4686
93.2374 117.747 124.849
57.1275 82.306 218.287
73.0982 56.2327 92.5918
26.2235 39.056 168.326
34.3245 107.495 103.871
96.1967 85.4113 189.596
87.8803 38.3829 127.738
85.5384 43.5337 180.824
55.3211 100.336 217.106
86.0506 113.395 102.614
87.1683 58.0522 164.486
94.0181 126.033 128.838
20.2413 55.6855 175.511
21.0757 63.9039 167.265
25.0978 44.9184 181.904
56.2648 143.637 175.985
93.2639 124.651 122.968
89.2709 65.8487 163.567
28.076 38.1512 141.737
84.7349 45.3099 188.735
86.8273 98.2281 119.567
38.6128 77.3384 208.208
85.3746 33.9057 159.348
63.2064 29.1923 186.247
75.6566 51.6403 96.3359
84.3898 99.5594 95.2796
65.9723 148.07 177.002
92.8504 79.7607 189.804
84.1005 36.3282 120.854
80.7553 124.982 191.775
57.2933 50.9558 92.9075
82.364 106.463 92.1841
78.8617 68.2517 214.484
64.4422 87.5214 82.0235
84.6338 41.2099 117.333
96.7058 87.6335 179.31
94.5353 86.4352 167.329
97.026 126.053 134.127
98.5786 118.862 136.654
83.5416 84.8498 113.027
90.5666 112.781 121.242
87.0218 72.05 208.93
90.6238 50.78 158.507
81.6214 92.9824 212.78
66.9304 20.8378 149.342
89.1313 85.2007 136.838
101.806 127.785 161.233
48.0372 144.547 143.014
98.4595 103.954 191.866
95.9689 96.959 153.21
101.907 129.438 151.164
102.202 122.215 157.378
83.3323 56.1195 107.432
99.8342 113.361 144.333
91.2641 54.2671 160.609
35.1164 135.097 167.432
58.6458 123.147 205.433
91.7608 116.486 118.576
60.0472 150.439 159.213
72.541 41.7956 180.669
40.2254 120.826 107.029
93.7385 86.1177 160.276
89.7973 46.1873 158.562
95.0993 99.3182 147.582
91.032 46.9751 163.967
90.3515 79.8264 208.526
49.7733 113.162 205.07
97.7323 128.42 141.874
81.6509 100.595 114.952
92.2142 83.8822 183.635
77.9351 81.1378 94.6004
100.052 96.5057 188.893
39.6695 69.6029 97.1666
84.4688 135.315 178.084
61.8187 82.2489 218.069
96.6239 131.216 135.582
87.2455 93.6969 115.057
48.5863 89.4227 214.498
90.15 103.549 140.729
72.9511 147.877 171.482
40.033 41.092 112.074
91.2574 80.9031 175.982
66.0617 34.235 107.298
89.743 66.743 176.115
60.3877 91.639 80.7815
49.2682 143.305 166.227
87.4602 143.454 159.248
61.7334 63.5891 92.3767
21.8353 81.4351 122.667
103 114.779 159.897
90.3238 62.369 185.881
80.4211 54.3655 100.874
51.1269 145.045 154.004
43.3538 76.6113 215.923
71.0525 65.703 87.9769
94.2723 93.9966 158.017
90.6843 110.455 111.807
90.9433 42.9673 137.873
22.5355 73.556 102.354
48.0881 30.9689 112.197
84.8445 109.82 97.3262
93.4378 43.1347 151.24
77.0195 85.6813 90.819
35.7895 62.6821 100.877
24.6443 59.7901 156.917
97.0375 93.6357 169.65
87.3851 65.5226 190.422
94.1689 122.305 140.075
98.2814 111.957 178.08
58.9828 148.142 174.271
83.9301 99.0841 109.173
82.7932 54.2172 112.157
100.287 121.829 164.664
28.3018 55.9238 123.882
73.0268 19.7446 147.255
79.4479 86.1945 120.686
86.6254 71.9439 115.177
64.5417 98.2765 212.163
91.7939 74.9231 192.741
90.578 77.3972 161.346
90.0372 46.8296 152.982
92.1719 81.9609 158.666
85.068 89.6182 125.661
85.4932 26.3787 149.27
23.7825 56.9533 171.465
89.3884 51.1514 166.755
90.0131 47.3286 147.528
91.5277 58.4454 168.607
90.6949 44.2109 143.372
98.4309 95.3448 165.042
87.0011 82.3562 149.384
101.096 129.154 145.911
86.5985 50.8793 191.348
99.0947 121.412 153.298
59.3786 32.3745 107.216
28.5612 63.1126 104.981
24.6732 87.3613 196.452
98.3215 99.9811 161.869
22.3126 101.607 191.703
90.7071 76.7844 181.351
89.9872 131.12 180.264
98.5158 130.587 166.908
90.9995 73.6368 204.345
86.5502 104.191 105.713
83.9389 112.083 201.728
89.1959 70.8178 197.523
72.6632 82.5532 88.2279
89.1141 79.122 154.658
40.997 99.4295 94.9213
91.1543 121.682 117.316
33.0096 70.5819 88.4181
80.9048 99.7043 89.93
100.498 120.611 147.054
88.4013 108.488 116.426
79.7834 49.9352 199.907
39.2338 136.896 140.255
87.642 109.823 105.701
67.3686 44.7071 100.203
87.3689 69.6936 137.01
96.8955 120.288 176.512
91.5775 75.9258 174.933
83.0927 77.6888 119.738
99.7446 111.693 150.874
89.9191 90.7525 142.446
77.9362 34.3243 186.392
65.2877 74.8279 216.868
31.1343 45.9616 127.303
98.223 135.145 146.253
91.0523 93.9687 151.981
91.4793 64.6772 157.414
86.0192 62.9918 157.456
94.187 98.9053 174.6
91.5699 126.699 184.846
90.9385 63.4793 152.924
56.2784 125.059 202
93.4652 75.6439 185.838
81.4526 77.6487 111.704
93.2865 79.5741 144.841
90.408 69.6195 172.605
89.2713 70.4674 158.236
77.9631 148.204 165.032
81.2685 41.6673 184.909
91.7714 75.6831 169.695
61.4056 55.339 88.5046
19.7721 54.7976 155.49
74.8856 69.5605 92.263
84.6885 148.524 153.217
83.1921 54.5444 118.219
33.3256 64.4785 122.019
66.8425 65.9439 86.2655
89.2192 78.5575 133.326
90.1248 83.4327 132.206
89.2754 60.3421 138.536
83.7756 61.0132 193.511
84.6477 70.6006 140.833
87.3246 107.683 129.298
97.9518 91.1917 191.422
84.8239 104.997 204.357
66.8542 71.716 211.329
88.4995 107.769 121.746
94.8598 87.839 194.218
79.6906 61.6356 124.029
91.6992 83.7128 152.489
91.0257 72.869 161.517
66.3331 60.2766 91.7884
89.2586 50.1199 170.815
93.7729 136.122 169.635
89.4038 32.9066 138.573
92.3024 76.7772 197.7
