ply
format ascii 1.0
comment Created by Open3D
element vertex 792
property double x
property double y
property double z
end_header
52.5348 59.7708 144.482
56.6104 70.548 146.025
25.9244 188.682 179.458
31.0727 113.157 85.7192
32.3657 99.8896 81.807
59.8526 108.897 140.027
65.3198 111.089 131.238
20.9332 185.393 136.845
41.1992 55.3064 63.205
36.9275 34.8652 52.8155
62.0791 150.232 158.369
28.3875 128.242 244.878
18.2259 163.894 141.466
25.4156 218.58 159.336
37.2261 95.788 54.0638
25.614 122.716 233.28
63.1212 122.014 215.089
24.1857 88.0732 227.105
79.4245 132.617 127.333
79.344 132.074 138.357
19.97 135.221 150.016
20.3766 144.411 162.573
59.4956 175.414 122.583
19.5424 151.602 153.881
64.6118 135.211 65.2607
25.4118 42.5577 142.734
61.7919 128.113 222.563
46.5085 206.627 168.302
54.7265 176.71 181.474
58.6616 222.24 160.214
20.8104 206.741 159.872
51.6287 106.708 144.867
25.0218 48.4772 124.845
21.0218 191.323 150.262
72.9432 206.779 207.717
58.718 75.1978 139.419
56.9054 125.318 37.3504
32.9176 40.8019 148.313
55.3882 185.73 209.601
52.3297 51.06 136.242
20.8872 139.751 170.202
60.1931 82.8081 49.2422
22.9943 159.736 174.334
20.0247 58.8182 127.655
19.3442 159.772 154.279
36.6817 125.754 189.801
58.8576 172.039 139.161
18.7135 173.024 137.514
62.8006 214.106 139.448
68.0516 129.896 180.126
73.7552 155.477 137.634
56.4959 94.923 103.192
36.8319 56.4761 55.4464
20.7186 119.205 71.0287
34.9413 46.8887 157.884
28.2543 130.723 185.383
70.5095 83.3325 100.306
62.412 203.021 199.043
25.7252 104.765 84.9227
56.4256 189.644 175.268
38.9716 129.469 70.2692
52.6932 49.7017 146.96
73.6059 118.866 36.5787
70.4808 102.12 21.5812
28.8874 128.545 74.0024
18.3604 71.4984 134.63
25.7447 140.983 183.526
51.7643 100.708 236.061
71.495 133.475 103.471
19.5035 61.8624 144.798
26.4799 73.4206 152.247
31.3798 218.304 168.194
27.5913 131.033 233.547
47.5287 52.6392 165.461
49.668 176.959 154.579
23.0478 115.859 77.9805
50.1983 145.466 102.354
50.7009 91.5936 48.6942
66.4032 94.8362 42.359
48.0085 99.4651 248.22
30.5624 70.0459 251.042
39.3104 125.797 83.4118
49.8907 112.932 40.3898
19.3137 95.8958 233.382
39.2377 37.8443 135.869
50.5655 58.4172 267.147
21.8857 208.367 140.491
22.2867 215.545 150.794
52.168 190.702 151.649
26.7316 114.595 153.676
29.9608 67.0345 161.468
43.2835 39.916 63.655
51.2931 40.8532 136.756
25.2894 175.746 177.332
56.0673 164.446 176.247
49.7136 38.5473 48.9878
21.4475 108.384 79.2321
22.5289 193.582 165.766
33.2581 123.017 129.604
20.9103 200.405 146.328
66.0052 73.4697 39.1643
26.7097 104.35 209.467
77.4617 157.746 101.657
31.1242 115.805 137.781
52.318 197.894 135.698
39.0435 63.884 166.11
48.5336 196 211.292
35.4115 109.177 60.1102
71.2006 118.5 27.2236
24.0974 182.934 171.273
77.2916 93.0989 133.492
64.7847 100.869 49.3986
68.7599 181.509 210.125
51.224 166.127 97.9526
21.6792 148.685 169.844
32.4863 74.9886 158.368
36.849 115.183 128.623
30.9398 126.845 81.7425
51.1964 86.2265 215.114
24.826 118.861 147.412
60.1456 75.1238 124.456
39.2639 49.9309 161.502
69.0837 147.126 154.614
22.2983 197.083 157.668
71.2101 188.462 230.596
33.1055 40.0323 125.538
20.7249 170.159 166.199
43.5959 158.875 109.473
51.3905 186.151 136.278
32.7552 131.86 212.228
18.3877 178.73 143.43
29.6472 204.264 132.081
60.0608 70.8532 166.778
54.0349 64.6187 133.315
58.2204 173.561 188.222
68.3167 80.1287 31.0492
68.586 197.207 231.505
56.8772 95.1915 221.873
50.1365 113.934 60.2885
59.5762 187.112 117.827
52.3159 205.791 146.355
49.6099 110.736 25.2665
51.4396 101.877 22.8846
37.3335 124.72 122.453
27.9729 174.495 194.218
19.4292 180.748 152.959
24.5112 67.8864 72.3423
57.551 183.523 177.985
47.5131 121.874 252.06
66.568 107.087 18.9954
62.9982 141.898 96.6868
55.1695 130.389 205.396
40.1745 108.717 137.011
51.4331 96.2407 27.9451
27.7569 140.477 192.499
70.5735 129.984 71.7519
30.2862 70.4245 70.6158
67.0461 85.8449 38.2652
39.1441 103.899 81.4106
63.5817 80.0122 150.489
61.1377 101.594 18.1867
54.3824 178.675 137.647
59.7826 87.9442 19.9074
56.3844 53.4738 109.279
53.6487 88.0828 33.7436
43.2452 149.405 111.098
27.6633 221.614 149.99
45.1519 197.773 191.473
45.7768 139.323 110.67
57.817 134.662 218.052
62.2464 135.369 72.7513
54.2799 134.123 237.507
53.6802 135.534 74.2052
70.3256 175.412 219.882
71.7571 100.778 35.3932
47.5492 209.052 180.161
85.967 192.917 215.501
57.7702 102.342 203.186
54.0947 109.958 198.675
22.5161 128.23 138.715
48.2477 103.11 33.7033
45.1462 103.375 199.049
50.5296 122.53 60.4945
46.5363 136.796 196.457
74.8177 143.628 155.86
42.8191 24.8237 47.1191
60.5894 88.2926 96.9743
26.2797 121.487 66.9961
33.3063 120.308 65.6155
46.8689 63.8809 60.2694
50.4353 179.199 191.802
63.1018 215.047 127.834
22.2497 97.1983 219.427
59.3423 176.01 159.61
58.699 185.903 202.597
37.2591 51.5533 261.779
28.417 186.012 189.937
46.0267 76.7259 163.827
32.3692 133.15 193.826
36.5612 93.9422 75.6758
58.3864 56.294 123.371
22.9574 132.073 172.072
18.2326 54.5711 138.436
78.8485 98.8549 121.208
21.4883 67.6056 122.882
50.5164 156.333 99.078
64.7079 122.248 29.1865
44.1713 117.336 119.843
61.5244 117.527 224.579
54.926 183.292 126.877
70.6911 88.3219 27.5925
47.9109 109.544 130.843
26.3862 125.545 176.458
50.8709 191.824 144.673
55.5969 192.219 127.499
56.9053 111.961 81.0848
26.273 150.699 189.551
62.4018 127.641 46.1049
23.5507 125.365 168.564
53.6407 183.927 158.943
81.3066 195.971 194.907
49.878 63.6802 253.888
46.5301 99.1233 71.4242
32.0067 109.486 156.888
52.838 133.591 66.9792
43.8602 70.4286 56.6259
34.2936 137.496 218.747
52.4714 131.506 194.424
56.5788 112.697 163.852
20.8755 184.029 160.118
32.6829 140.922 198.599
58.2336 194.471 195.254
20.4506 61.0422 151.955
66.4003 81.3424 22.2315
77.9922 96.4917 142.095
62.172 68.457 108.838
56.1788 114.949 233.003
64.2798 113.642 82.8408
58.6182 97.1123 210.625
34.6903 82.2551 243.391
77.841 123.236 142.264
28.3181 185.151 122.671
23.2588 114.957 226.464
52.2757 171.176 190.558
69.7845 164.904 130.054
41.8921 119.489 70.1382
66.6356 119.307 115.067
42.5125 189.617 201.561
37.9872 73.2064 61.5908
19.3171 152.572 162.873
86.3023 197.191 207.95
58.0275 165.418 184.525
69.5266 184.363 106.385
18.0822 171.875 155.059
57.6196 79.0749 21.6803
26.6351 179.641 184.884
35.138 221.026 137.415
30.6739 122.966 254.39
61.7229 174.025 174.242
48.313 80.7499 45.4852
54.2568 104.017 40.8154
64.7826 133.619 52.5456
25.8121 69.4769 261.161
37.2646 71.2181 69.5232
61.2039 111.286 204.324
53.5858 191.324 105.446
74.6165 97.5013 27.942
50.5375 107.724 154.783
20.3959 135.702 158.517
72.593 94.5411 21.7301
37.4028 135.422 119.193
58.7592 112.188 40.451
51.2599 107.476 241.294
36.094 64.6828 50.3269
51.2045 193.867 179.393
43.0563 222.075 134.64
32.3407 130.628 126.354
41.3947 93.851 68.3725
58.4222 124.633 84.7552
19.6827 167.303 130.86
68.1975 181.855 231.594
67.3399 104.316 113.33
46.1864 111.747 160.966
43.3996 120.953 64.1894
26.1407 53.0311 158.72
63.4302 125.132 106.416
69.5344 121.805 167.098
62.4039 221.874 144.815
66.5526 113.884 45.9971
23.2678 136.863 177.459
30.2078 40.2673 135.581
49.7889 119.157 198.143
42.5812 85.6206 246.474
21.6931 117.369 241.123
44.6226 97.3808 203.528
52.6538 99.0338 131.72
49.1069 196.083 172.936
67.7319 86.4103 137.684
50.6517 43.2291 125.538
22.5463 91.5698 244.497
31.7966 110.866 142.906
70.4819 163.645 168.476
73.2614 163.083 119.188
52.0853 84.2033 229.543
48.3229 42.7364 152.154
70.498 121.016 66.6415
21.5103 71.8733 142.554
31.4537 122.817 185.177
87.395 184.466 214.332
55.9863 69.951 48.0864
36.3466 108.999 200.823
55.6475 139.053 100.197
55.4085 73.3122 36.8783
25.4632 138.291 131.354
46.6628 97.9322 125.559
23.1276 203.66 170.144
21.2025 143.43 136.348
49.1669 31.418 53.9001
50.8462 90.6808 237.083
33.8256 181.883 201.743
72.5165 147.809 179.726
24.9003 75.6182 114.928
59.8346 181.948 218.086
55.1082 75.5082 60.6845
70.5049 122.235 59.3668
42.6084 38.2138 126.738
28.8867 113.284 165.251
70.252 120.878 154.216
56.4018 57.2653 130.16
21.957 124.3 154.231
75.9476 153.124 159.296
51.7173 95.7476 41.0373
47.8404 69.3198 170.003
36.7789 196.364 120.697
73.9553 163.762 110.611
59.8081 179.612 229.183
50.3166 26.3179 48.1729
45.9796 198.192 183.046
76.3806 105.025 28.7715
27.0466 40.5417 128.188
19.8077 52.0344 148.284
65.7521 120.482 35.0402
28.128 45.986 154.179
25.1602 122.671 142.693
69.5669 129.979 61.2477
22.2252 49.1372 137.136
40.0862 163.146 205.819
61.5091 167.877 132.679
34.3096 58.1997 165.961
33.8048 148.707 201.825
76.4383 203.19 217.325
29.5928 82.8169 235.71
51.0741 189.748 205.333
52.2797 164.348 198.996
64.5195 128.976 80.5617
26.3305 212.23 164.832
46.5447 106.84 80.8362
27.5911 201.847 181.344
74.877 107.84 38.9943
73.8089 176.898 229.441
75.9522 175.476 213.584
74.6013 130.034 109.328
64.4277 82.9302 132.588
60.7535 66.1439 160.446
56.2584 148.756 176.308
25.37 194.732 133.242
43.0202 152.924 201.995
57.0204 137.441 228.275
52.4079 185.665 185.125
18.1222 153.227 144.458
53.414 129.237 58.4124
25.8384 220.067 141.989
58.9716 99.9251 44.9637
20.4923 159.988 167.375
51.3232 220.584 177.533
59.196 149.291 189.851
76.8161 128.432 117.939
24.6729 97.9996 250.907
34.5609 223.647 144.5
55.5583 185.168 230.764
72.1792 111.292 44.8537
43.2306 169.578 106.75
69.6653 194.779 110.323
43.9491 97.6254 255.035
54.2807 213.738 161.08
56.597 205.784 139.811
46.875 87.3036 152.12
39.3001 67.6487 54.8888
53.5227 140.37 219.086
59.4016 73.4927 131.67
38.2791 41.9888 116.589
68.4741 88.6374 19.2271
29.2654 213.686 132.93
67.097 179.85 200.408
23.0747 208.723 148.098
58.7272 196.19 206.93
53.7696 167.001 147.51
52.2722 137.744 211.813
55.4303 169.698 172.316
66.6789 109.207 55.6507
42.6112 192.401 111.489
61.7336 71.3663 117.015
61.0792 122.358 171.064
21.5671 106.7 70.9458
46.4948 80.2372 235.158
41.3502 141.351 233.72
55.2335 124.071 240.747
28.2111 90.7519 213.841
44.4668 27.4301 60.3796
21.7159 206.493 101.197
68.8494 118.896 75.2589
30.8804 98.6169 59.1408
69.6463 114.528 145.913
44.7007 46.1086 107.916
33.9656 89.2575 251.08
65.7026 75.7325 106.254
61.0225 72.3336 27.9257
77.472 143.387 105.86
49.4692 129.974 77.5475
36.299 118.502 199.273
47.4905 174.445 199.098
36.4215 26.3651 53.2301
19.932 136.046 164.067
55.5381 64.7757 253.48
61.6524 196.268 121.961
64.0875 114.244 157.92
64.834 175.08 212.785
21.7639 124.531 160.292
17.8102 165.631 152.444
42.4814 39.4503 148.184
23.4532 147.517 177.425
71.8154 112.774 21.6845
24.3702 99.8099 72.4559
74.9162 123.946 126.09
64.9957 149.085 92.7224
57.2682 79.2149 168.088
51.7361 78.453 33.0909
40.5256 114.342 181.124
24.8904 65.1077 66.661
42.7145 181.641 108.566
31.8911 80.3611 151.373
43.1181 32.5828 44.272
60.0043 108.719 70.4091
29.6605 51.0122 115.144
34.6858 142.041 121.925
56.7683 192.583 227.84
24.7162 211.092 135.186
58.4523 60.6507 99.46
18.0301 105.409 234.112
62.7668 154.32 178.254
85.2364 188.305 194.788
44.6945 36.5825 141.508
44.1201 84.6308 57.3737
46.7772 128.663 68.4304
43.5039 108.635 257.505
43.6392 32.8324 63.2311
41.4827 129.225 77.0552
46.6529 94.9363 52.4752
37.9676 95.2218 257.346
53.3659 187.166 223.388
52.815 182.032 215.644
54.4632 177.197 98.7859
31.4378 98.6364 256.821
63.8898 79.2715 117.102
47.7984 113.067 249.567
68.9903 114.821 124.206
24.916 72.2455 66.5321
43.2359 125.739 115.211
64.818 94.7163 16.6852
34.7979 172.338 204.246
70.808 116.623 135.436
73.08 89.0505 142.011
73.456 118.879 141.217
52.1028 45.1313 116.723
48.4032 197.909 155.86
63.3064 187 229.642
70.4012 174.052 209.128
65.5419 176.66 205.762
46.066 135.048 206.983
51.9257 149.41 193.182
41.1898 55.4107 103.372
81.9969 140.471 119.458
25.6871 56.5741 118.615
37.418 94.5406 204.106
64.7606 177.67 221.406
36.416 156.701 202.883
56.5345 55.8543 152.961
26.8871 131.223 133.228
63.4493 116.975 24.6896
48.6173 135.399 244.797
60.1153 126.216 209.422
36.4555 177.815 117.026
52.1421 91.4187 148.05
51.8429 78.6614 167.217
36.9015 219.25 176.416
40.2261 86.7917 145.792
69.4132 86.5885 156.677
34.79 92.6764 110.204
70.6049 84.2043 116.313
23.5373 197.412 172.306
50.2172 86.942 61.4698
51.0212 95.1201 141.002
17.6215 65.3675 132.247
66.4311 166.316 91.4753
64.0638 178.559 113.987
75.5298 135.181 75.5562
33.5112 210.65 180.711
75.4815 99.7626 109.967
58.9071 122.352 232.793
80.8434 142.742 133.945
62.0404 64.0315 118.184
57.4346 102.755 113.773
67.1779 110.637 75.8728
81.3871 184.867 219.535
36.8147 107.358 148.757
36.056 77.4169 233.903
30.5305 119.672 100.185
68.0252 159.742 148.604
67.8516 100.153 105.73
48.6472 142.319 191.809
38.9759 30.7294 59.2232
25.7955 118.328 167.615
33.4578 138.791 232.075
56.7554 160.89 93.2101
26.5606 81.7343 139.215
60.053 187.221 194.976
47.4089 77.6329 51.7731
69.6138 158.312 177.511
66.5756 147.952 185.973
58.7617 66.8614 125.288
71.7146 174.746 107.333
24.7108 152.837 181.86
50.8574 32.3473 47.9514
26.0174 107.828 254.423
56.8066 73.1271 94.2274
30.7032 214.138 176.08
34.6307 225.162 160.631
79.6281 137.833 166.651
54.8745 98.4283 50.6754
79.6632 128.206 154.006
40.7203 70.2116 248.216
32.0433 54.5701 61.5023
32.5619 53.0933 254.104
59.0998 140.97 194.215
54.4399 225.756 146.91
72.8997 143.035 96.9039
33.4765 89.7014 126.366
74.9837 171.303 97.5691
45.2647 223.951 169.329
52.5482 188.862 215.649
42.695 180.193 205.203
58.2055 155.507 168.31
75.7013 153.446 150.102
46.8111 227.489 159.507
70.07 92.6663 34.2309
51.5049 49.3749 158.436
41.0962 23.3376 55.0338
48.1474 205.301 154.572
35.5013 50.8692 67.7566
30.9896 107.513 257.648
28.2082 70.4531 61.8717
68.3179 83.5546 126.976
43.8195 70.2029 64.6683
49.2514 91.8815 206.812
61.884 111.468 215.966
67.0331 201.477 119.463
61.2393 164.269 141.414
60.2711 180.567 207.925
53.7617 56.3009 250.503
58.9096 103.63 220.571
57.6102 152.583 93.3402
61.3917 174.5 149.28
63.195 207.159 130.535
63.5982 158.014 185.885
37.1042 105.727 260.081
76.2172 182.547 230.361
64.9981 73.9445 159.685
56.8434 120.434 111.176
55.6469 195.893 219.194
29.8765 87.4321 220.312
49.4766 199.449 110.773
19.2616 133.289 142.056
56.6581 91.5542 62.6851
50.4519 128.159 108.659
52.8817 194.56 162.215
26.1186 147.981 129.705
27.5429 162.256 193.88
56.6321 111.791 32.4623
37.9508 96.0734 117.74
66.1331 163.703 122.26
51.2339 82.2348 221.457
52.6357 153.403 199.787
49.593 107.737 72.6587
22.6735 108.095 65.1071
38.1904 203.508 194.035
62.3678 182.896 97.2229
36.1856 48.2595 110.938
73.527 161.286 147.357
44.6878 145.259 209.73
34.5224 126.918 203.038
19.3652 104.011 244.632
51.413 46.6907 110.046
62.6328 203.276 209.915
43.4111 105.752 159.107
40.2822 130.597 116.293
61.0275 80.4432 137.251
40.3549 71.8221 102.664
58.1124 181.288 224.082
33.1568 189.959 120.693
76.5839 149.347 131.854
78.0481 190.714 222.154
42.7062 105.775 144.845
44.3235 29.554 54.4779
43.3802 53.6469 270.457
58.1799 117.68 31.2705
34.0159 71.9941 57.2841
35.6121 153.244 119.257
43.1094 97.1916 120.214
76.697 95.6464 66.9177
43.308 226.27 149.907
81.3785 146.306 109.056
47.3434 22.5179 52.8398
40.8845 70.6483 166.803
41.2042 217 183.958
32.5985 66.3729 57.1647
66.0433 104.206 64.1378
49.4676 69.3232 258.44
79.05 196.628 215.013
49.9596 35.725 56.2802
73.0309 189.822 189.107
60.7797 178.018 215.085
38.353 223.491 168.44
58.5276 108.46 43.868
56.1455 102.355 64.1789
83.3619 179.374 205.137
43.3729 225.924 142.989
64.9772 202.414 224.199
30.6751 157.172 200.894
56.7963 214.065 152.645
25.3819 115.895 211.097
41.3217 172.02 112.189
27.1675 153.254 194.479
79.274 141.906 150.482
39.4317 142.998 201.899
36.5612 112.687 171.658
57.7258 152.847 194.958
68.709 122.713 47.5391
38.3179 90.8862 133.198
27.2079 60.9316 258.575
31.9959 117.275 176.678
35.3271 211.112 126.737
54.9473 197.662 202.514
65.4253 139.054 167.723
62.7726 193.036 230.978
51.0892 83.5615 158.378
24.1653 68.5451 154.954
77.8515 91.8863 110.255
75.9438 165.766 101.3
46.966 162.791 103.258
76.8609 179.554 203.444
52.3942 115.372 243.262
70.9169 235.689 104.854
26.4267 67.9002 114.094
40.7357 88.0926 209.153
54.6248 194.024 212.454
58.5021 93.5363 149.966
68.9605 96.578 149.661
68.6142 201.967 196.475
74.7466 155.181 169.582
35.3144 135.935 245.356
25.805 86.5441 239.259
36.2091 161.256 119.207
58.885 111.477 20.304
69.0783 156.338 164.704
51.2188 113.704 76.3328
72.6354 156.747 130.001
23.5541 80.3121 132.328
69.0429 87.632 123.702
64.0541 88.0324 52.4682
30.2156 81.3834 145.304
25.7882 108.093 59.804
54.1243 191.568 221.597
33.0577 83.395 106.602
65.5648 157.393 90.8176
72.1063 136.381 176.947
55.3161 121.791 169.06
45.7308 39.4818 119.94
40.7986 94.1504 60.3222
35.1859 110.39 162.251
44.4504 217.993 126.757
69.3783 112.228 69.9916
26.7562 55.2763 256.996
53.0731 143.325 197.727
44.9904 119.005 75.3942
75.6715 192.817 232.829
66.7189 205.205 215.984
54.0017 224.047 137.556
43.6016 133.394 250.063
77.5313 102.748 129.215
24.0146 59.2793 157.013
57.0883 170.641 95.2934
78.3505 128.622 147.582
53.3844 215.157 123.622
49.1601 186.297 168.843
25.0551 167.249 178.379
76.8034 150.764 106.882
64.1154 197.598 216.228
29.671 53.7519 262.589
66.0239 189.112 191.048
38.3593 59.6191 246.369
42.9745 83.0407 158.687
39.148 88.8414 103.894
38.1219 81.5243 224.822
66.5014 169.701 172.225
54.9881 183.316 147.145
32.6381 70.2193 64.5506
80.882 138.987 140.924
45.3615 141.502 221.361
45.8935 81.6241 99.1688
75.7938 148.662 142.802
49.6206 55.3185 99.0735
60.7798 103.37 123.167
59.8777 55.6593 116.863
64.5844 174.955 92.9207
48.4963 189.086 158.397
82.3425 186.263 226.004
51.086 66.725 95.8956
60.265 61.5998 106.362
50.3793 108.133 30.5868
68.9664 90.3462 56.8909
21.9014 210.371 79.7824
79.1585 182.247 194.921
43.1652 208.119 118.793
32.6608 78.6143 227.404
79.1423 180.769 223.731
66.9244 156.678 170.476
71.3664 186.967 98.9215
70.1721 180.738 222.871
81.2166 148.262 126.898
65.7002 120.855 42.7872
48.6087 60.3279 168.843
40.2337 77.7688 238.176
59.7997 131.334 101.627
72.5179 182.165 194.745
69.3548 152.062 160.559
71.023 160.148 126.496
45.4302 80.5579 225.183
41.2367 123.349 256.87
57.3189 176.154 171.142
57.4579 115.687 124.241
70.6009 81.6615 106.073
64.0014 80.8643 163.624
75.2878 183.636 215.633
70.9653 205.079 224.408
64.9318 193.972 102.497
42.6494 209.32 192.302
81.8709 195.066 227.859
75.6764 108.054 67.5414
28.2843 157.137 126.816
25.6913 160.867 186.62
51.171 204.954 114.443
41.2745 82.323 216.053
82.109 186.697 231.927
67.7943 104.115 124.784
58.6229 217.155 125.504
76.0123 132.046 157.463
76.6985 84.1977 64.099
71.9626 149.914 93.089
61.4249 76.18 62.072
38.9947 108.54 166.04
26.7139 64.8143 57.1325
78.1355 179.466 217.633
55.4917 104.811 31.784
64.176 92.7877 155.769
75.4378 88.9555 119.125
34.406 67.8316 272.565
58.7892 89.8929 161.091
79.7259 157.416 110.77
49.7875 96.5133 107.169
70.2203 132.636 167.239
70.6995 174.079 91.884
70.8594 102.132 134.783
21.4496 204.135 85.8108
70.1165 113.281 64.4247
46.0225 50.9223 272.996
63.7059 198.972 208.656
81.7966 147.92 153.957
34.3551 80.6704 221.053
74.2006 181.388 223.561
35.6666 75.5446 259.194
28.5425 58.3655 268.985
37.1521 55.6784 275.539
