ply
format ascii 1.0
comment Created by Open3D
element vertex 330
property double x
property double y
property double z
end_header
27.7712 47.3104 170.293
35.3251 81.0837 160.618
18.7874 208.165 52.2021
20.4496 202.444 70.0242
60.5404 58.6818 187.939
61.6333 201.902 44.9752
50.3029 61.928 199.437
34.8174 94.5015 180.533
37.2235 174.431 47.3485
52.6296 89.8727 170.83
60.9959 209.754 50.9196
29.7748 66.5037 154.547
27.4636 175.383 54.0102
57.0551 194.969 41.1133
17.8688 88.2892 184.746
57.8948 75.1655 185.112
17.0463 190.486 75.3131
18.7236 193.775 96.4386
53.9194 34.8439 171.527
43.7582 50.0911 198.632
27.7866 165.228 72.5721
32.7468 207.141 40.3805
36.9408 37.908 183.1
71.1053 182.111 70.4558
26.9944 81.3636 201.854
60.2122 172.389 91.639
58.1387 67.9499 180.243
29.5943 181.065 49.8834
20.3086 192.826 84.7621
21.3122 48.9749 192.943
48.9069 164.941 69.2294
19.2502 71.8295 188.99
48.1055 201.694 31.9026
63.1505 63.6267 163.529
47.7271 217.285 99.3101
41.7915 30.7331 176.654
16.4697 184.972 79.944
34.0412 41.9181 170.749
33.0267 58.5831 211.793
41.8345 164.045 98.0053
25.6378 61.7182 195.74
30.8729 71.6006 183.22
25.6181 71.2275 198.66
26.4142 168.121 88.0927
22.2726 207.875 79.3137
48.9189 40.5683 185.739
68.3469 181.017 95.7435
23.5895 65.6719 174.949
51.5757 50.7971 188.635
60.872 62.779 149.48
27.4758 190.156 80.0983
26.7034 217.372 50.8144
17.5214 59.046 180.412
38.8169 183.007 39.2778
59.7845 78.459 177.286
46.3746 219.884 92.3011
28.8008 57.1218 160.989
56.7493 68.7949 146.911
35.1618 163.874 80.9652
30.5997 53.3667 206.812
58.0353 44.1012 183.698
42.2348 56.3026 184.679
32.645 192.65 40.8451
63.0409 175.356 106.224
58.4295 54.8629 179.088
32.9655 44.3462 179.246
24.0682 195.485 48.395
54.3527 213.809 47.8224
46.5228 83.1899 152.935
19.0267 63.8232 192.603
40.3095 53.704 151.134
37.4301 199.412 74.5404
19.2793 172.382 67.6844
52.6939 186.575 46.4387
68.8291 204.576 56.6164
26.9576 176.909 105.149
57.3706 169.827 78.0292
36.4051 170.809 104.836
46.7951 174.623 109.891
35.4284 31.6891 185.816
39.4252 90.6542 193.118
64.6908 56.0993 157.131
31.7681 194.787 49.3231
15.2908 178.764 86.216
23.9546 60.5739 206.118
67.4061 178.994 80.3955
51.7707 80.1234 189.883
49.856 32.5382 166.915
47.4736 55.9552 203.638
43.4695 44.1792 189.348
43.845 162.02 85.8299
37.1118 185.981 77.875
45.8389 191.453 81.7874
63.0884 185.567 74.8503
29.7959 181.795 114.014
21.1266 86.1193 199.759
50.8282 205.655 53.5715
43.3803 42.7969 156.404
60.4247 214.929 74.8841
30.7331 189.757 58.393
68.5201 197.193 105.264
20.9493 57.319 209.028
43.6934 91.6226 164.874
53.9564 84.2037 183.209
30.1042 214.636 103.827
59.5444 193.084 110.885
44.3491 83.383 192.94
32.5718 49.7095 193.387
27.4328 56.2885 171.974
22.1561 55.8989 196.963
42.255 169.035 52.0655
33.7238 68.1267 202.173
18.3901 70.4135 179.996
39.2425 34.9089 189.489
48.3078 54.5496 145.165
26.5445 48.1524 197.743
43.8292 36.1577 195.43
36.9195 43.0751 152.202
34.5284 215.391 107.57
62.9734 175.589 74.2659
42.1777 56.4516 205.913
41.8073 202.313 31.6822
57.2016 84.3233 156.161
36.4281 160.292 89.9476
58.4944 41.6496 173.161
22.6279 194.632 60.8906
75.0798 208.938 102.132
59.5221 224.548 76.0889
47.2566 29.3114 182.067
52.2366 168.713 99.8845
56.2103 46.2314 150.563
60.4433 44.9372 161.104
24.6774 46.1421 181.232
45.5713 174.479 42.9019
54.3881 183.327 109.983
15.8679 73.0745 197.047
35.7868 169.447 54.1397
29.1276 187.354 46.3884
13.3586 76.1997 186.373
16.5391 179.574 69.2662
39.7242 195.986 116.84
73.2301 197.209 97.9874
53.8673 76.3461 148.703
46.6599 207.462 33.1237
25.7293 85.1468 172.537
57.8138 53.5458 146.968
27.4746 54.8637 190.587
32.8424 87.9802 203.282
63.5643 221.834 92.4186
34.1096 185.326 41.4467
54.2599 220.904 89.6805
19.9355 198.355 91.6572
19.7843 177.258 80.9208
29.5041 67.3192 165.94
35.4436 40.1153 161.318
37.34 201.268 37.2793
48.4662 217.311 78.3512
65.2568 182.761 54.9085
41.7107 92.3659 183.815
31.9104 51.2798 161.064
48.7152 221.025 83.6836
22.475 180.86 75.4164
39.7486 173.942 111.436
28.2463 183.126 79.5337
57.6594 49.4868 190.226
50.8311 53.0437 198.837
33.6196 53.3026 153.999
40.3169 188.034 67.8576
49.6317 45.5333 144.541
37.5126 173.339 64.2962
31.543 189.647 73.2918
53.5032 58.247 142.574
13.4963 70.5048 189.705
26.5093 89.2156 195.528
27.4627 38.0431 189.217
42.0966 216.916 90.5027
45.0489 95.8983 175.983
35.7849 166.142 61.558
32.2656 93.2363 196.529
22.4442 51.2217 184.642
30.3947 36.9012 178.227
21.4795 78.0693 176.569
67.0712 213.452 103.925
53.2175 215.587 73.6759
53.6458 173.42 109.059
44.4404 34.907 169.429
35.2052 46.2166 162.656
43.7614 185.869 38.3066
24.7889 41.6845 186.102
61.7761 71.9853 153.224
48.754 169.016 92.2999
54.0834 42.6611 190.399
42.5105 176.233 50.3968
22.2016 199.931 84.1749
63.3054 66.1948 185.648
53.1363 36.0759 178.771
49.114 166.294 56.446
60.2172 186.013 44.5672
22.8905 186.591 56.051
29.7258 198.53 105.99
44.5642 182.398 46.5813
36.7551 206.671 113.016
26.1711 182.01 67.3712
68.2197 214.214 70.394
15.5124 183.67 60.7809
55.4647 211.189 110.758
61.3947 70.7189 163.485
54.2404 61.8422 186.005
38.0049 65.5374 149.89
24.0048 58.6699 180.938
29.5969 191.486 93.8558
69.3261 224.828 74.3182
29.6436 63.2299 209.562
20.6134 52.6835 176.713
19.9882 71.6567 201.75
54.4933 202.202 115.811
25.5718 186.505 101.566
76.438 202.018 89.8359
35.384 55.5396 147.444
48.337 216.603 53.4398
55.7346 70.1175 191.289
56.2771 39.8386 154.091
50.493 70.5845 198.643
43.9537 190.103 116.875
42.2229 85.2684 200.865
43.7312 93.2404 188.869
39.9675 73.5243 147.988
38.8057 46.5737 198.353
45.515 208.914 115.688
33.7785 184.406 87.5985
54.0433 36.0166 159.402
39.2751 51.5745 209.789
26.2417 93.4614 178.266
41.245 70.8206 203.545
28.2283 40.4334 173.426
41.142 196.101 37.0361
19.5372 83.7609 188.546
36.8004 189.255 91.8306
61.6783 218.567 84.7872
29.8394 210.848 99.2795
64.9617 75.091 162.001
31.4471 44.9289 198.235
22.7894 197.757 102.363
58.9425 165.667 85.0283
39.3997 201.311 94.1876
19.6774 182.941 58.303
34.8757 48.3605 204.495
38.3479 59.1011 211.981
32.7642 194.883 116.066
18.7937 79.2173 201.768
40.4304 214.367 43.9143
30.1356 220.829 83.2016
34.2951 202.404 46.1155
24.7086 190.496 54.8406
62.9875 195.689 49.5677
39.8282 215.518 102.147
49.8651 33.9941 183.483
60.8525 82.831 167.78
41.2261 34.5645 158.661
36.4348 81.0454 199.804
62.0957 50.4578 182.466
40.7939 219.024 82.9171
61.6251 61.9513 177.779
49.5824 220.472 65.7448
60.3534 53.0741 154.508
43.2587 62.2353 178.274
60.8679 215.244 106.218
17.5075 192.102 59.2854
41.722 181.992 116.813
44.5466 61.9635 211.106
20.9595 196.252 54.731
35.7874 198.209 100.23
20.2264 76.9632 184.213
25.7039 219.654 84.1346
59.0337 57.0417 169.884
71.6077 220.485 83.898
28.9995 80.1418 208.188
31.098 187.549 97.5085
46.1888 64.1043 205.243
52.7494 214.234 63.0242
31.4378 224.299 44.761
59.8735 179.75 111.979
35.0432 44.0658 207.449
28.1283 195.429 84.391
25.3823 51.8195 206.975
51.2246 175.789 40.8468
79.4949 191.31 94.4287
30.4815 196.378 58.7201
23.2441 185.519 108.074
42.8865 203.785 50.0668
44.0299 194.572 59.6829
55.2882 219.642 105.326
46.1643 78.4501 197.889
54.2017 195.684 48.9429
68.9692 188.06 108.964
28.835 190.86 109.006
44.7996 67.4059 200.713
47.9694 68.4286 143.15
19.1436 181.163 100.95
42.9427 206.796 39.0934
44.6898 165.274 63.6014
47.5441 191.204 48.6005
69.42 216.919 78.6513
28.2417 196.55 42.5112
46.5123 74.7238 150.343
47.9478 74.737 188.308
48.0355 213.416 108.876
76.6725 210.123 80.7841
64.1173 174.345 85.048
73.2363 217.606 68.0029
55.6839 38.5573 183.227
37.6052 88.8083 160.938
27.9362 90.9796 171.807
72.8103 206.147 75.608
48.49 202.598 90.7298
34.5439 70.5057 207.199
58.3734 215.407 60.4065
26.9598 205.902 104.895
27.8235 207.135 91.7018
72.6653 208.814 66.7409
65.5353 192.518 56.8272
27.1532 200.512 99.0304
81.8801 199.214 85.6433
36.841 208.809 98.6098
63.7596 51.5213 172.585
60.8199 198.116 115.132
25.8813 222.756 44.2423
35.2489 69.199 157.623
63.3812 207.251 109.658
42.2882 79.0879 204.434
