ply
format ascii 1.0
comment Created by Open3D
element vertex 276
property double x
property double y
property double z
end_header
20.5451 26.0495 78.404
51.7975 128.102 68.3783
42.514 75.5407 207.668
27.319 124.219 211.677
17.6174 78.7894 92.213
14.3827 56.7515 54.3763
55.131 122.008 187.104
42.0034 83.7267 208.887
15.8445 35.6082 71.9251
44.648 92.976 217.598
24.489 25.3379 103.566
25.0484 119.459 199.603
22.689 96.6951 199.403
15.2392 41.8326 91.7296
41.746 74.9845 216.906
32.3365 81.5372 196.726
16.3994 31.5625 84.158
76.9144 112.229 227.31
17.4499 44.8579 52.4808
60.621 24.9161 29.6283
21.8575 115.249 213.629
31.1293 124.225 59.068
17.3622 37.0253 104.39
35.2712 129.39 207.753
68.3927 75.6659 224.468
31.7003 104.039 216.76
36.2765 18.6282 87.2489
14.7379 43.5577 70.7553
42.58 85.3002 191.994
33.4485 119.287 220.696
22.7837 100.912 57.8401
25.4921 22.4675 90.0147
15.1207 53.712 101.752
33.6421 85.6445 215.979
31.3186 81.2728 209.338
43.075 108.728 138.511
32.6949 108.027 226.066
48.4824 127.702 89.7443
71.2557 89.1516 238.019
48.201 93.2134 183.449
51.9796 128.61 209.185
53.8076 118.935 231.274
75.1325 100.306 234.143
26.9371 114.117 182.595
40.3579 121.62 95.964
47.5779 89.9268 234.086
35.7736 74.8207 183.095
38.3303 75.2951 93.4764
61.0691 25.9605 50.9081
55.2709 117.539 177.461
47.9526 78.0208 181.53
47.5846 121.461 223.377
56.8279 34.7279 43.25
57.1954 110.761 235.56
17.6347 109.224 208.5
37.7908 119.706 227.443
44.5269 91.1958 203.971
15.1507 51.768 117.421
51.0067 130.668 201.849
34.4962 57.0269 96.4765
15.1185 65.3176 125.15
45.7741 79.1294 83.8018
17.8323 118.513 202.509
27.8652 48.0959 44.6447
66.2374 85.3369 180.416
46.9755 94.5295 40.8035
65.3327 92.58 241.552
17.6216 38.8999 114.261
23.4708 109.539 191.703
53.5654 95.1057 84.0915
27.3909 121.758 189.28
38.347 127.361 195.612
29.2221 103.17 110.129
44.5301 91.4762 96.4763
45.6299 110.772 223.58
45.9982 120.089 72.7963
42.6783 23.461 90.4256
57.8551 89.2137 186.872
29.8709 93.3461 197.26
44.8577 110.185 231.439
42.968 81.2737 197.509
75.3121 108.272 220.978
56.7824 101.797 97.8656
38.359 127.185 219.359
35.6904 122.672 79.4056
27.8198 64.8601 131.799
14.7731 54.468 75.7747
55.5448 124.483 227.33
27.4616 60.4078 124.356
41.9549 65.0221 85.9224
42.5535 122.706 220.834
16.128 35.4817 96.5019
38.2901 110.107 181.089
38.0146 44.724 42.838
16.7413 73.8762 127.367
36.8924 102.284 129.856
46.7323 71.3641 192.743
44.4519 83.8148 42.1223
44.178 68.6802 205.138
28.2653 98.2973 214.472
44.0456 6.94836 17.0821
49.9625 63.298 214.153
37.9835 123.69 88.3879
37.0823 127.914 65.8488
48.5803 105.203 40.9453
34.7655 35.1017 101.915
48.9697 91.8122 191.723
15.8655 98.3647 86.3617
16.1642 94.7743 69.296
65.2759 3.8157 29.6517
42.7182 116.637 229.965
55.3538 122.636 57.2803
38.8865 35.2146 91.9808
16.4639 91.5811 99.5733
44.169 117.413 184.304
48.3867 47.3747 78.0695
57.2205 125.209 214.942
22.0854 95.9324 116.39
40.8282 98.1374 225.737
36.7694 29.5001 52.8513
28.8682 69.9571 105.825
66.7525 103.716 239.082
36.7731 111.773 227.042
37.4142 90.2219 210.404
37.1417 106.839 220.684
15.3441 61.0105 44.793
48.8003 118.943 190.803
33.8862 121.094 184.132
75.1608 109.656 190.279
27.4883 117.738 216.304
69.0402 112.946 170.174
29.168 72.9653 132.549
47.9619 116.676 176.648
51.6175 89.2033 180.14
18.8118 29.1132 67.5305
48.9393 125.815 99.4017
60.624 124.197 68.942
50.8303 101.525 236.146
33.7962 91.9539 186.639
38.9301 109.82 121.913
58.5376 126.451 208.434
23.5018 95.515 211.714
28.4859 95.2723 129.653
53.4708 104.551 119.438
41.9896 120.67 189.415
59.8157 51.2804 71.6278
31.8974 19.1579 74.731
51.3687 109.707 234.782
33.0957 95.1635 218.447
42.7343 55.0755 85.0172
56.8906 117.265 195.993
31.9757 84.7638 201.898
61.153 70.1157 230.107
44.7161 26.8412 54.317
21.5185 112.82 58.6055
53.1979 109.164 195.059
47.562 45.9031 41.6819
57.4502 73.5551 194.776
55.8599 125.496 221.637
24.5309 105.204 210.036
48.6119 80.9731 189.551
51.9989 39.9133 42.2961
71.8866 97.6862 225.741
53.6264 20.0039 42.9152
65.3862 120.779 232.955
27.5198 26.8306 60.5659
32.3486 79.8469 42.4886
31.5945 119.975 193.709
43.5766 105.536 214.203
42.6306 85.4842 184.151
68.4481 71.3107 210.148
30.106 119.635 82.1984
27.8488 110.184 197.534
42.4776 114.552 178.698
53.6402 122.952 194.7
57.7066 39.8577 71.7287
60.4211 125.551 96.313
56.1812 29.0074 73.1592
27.1443 110.586 206.276
54.2872 14.0419 41.7409
22.7641 47.1867 129.739
66.8034 114.517 186.32
48.3683 110.247 178.557
57.4252 62.1227 215.293
42.5649 39.2806 44.4247
59.1832 101.249 169.598
25.6573 23.284 68.7389
59.6095 124.998 87.7221
60.1628 123.642 102.761
15.3849 60.1955 83.1157
51.6691 64.7523 77.4942
55.2111 113.821 184.82
33.9461 84.4304 106.242
67.4272 85.0202 224.207
58.7094 98.9641 39.5593
38.0157 123.25 188.253
49.3569 67.5721 218.865
46.281 76.2836 230.392
42.3478 120.522 105.642
69.4831 120.434 225.495
57.6308 129.017 203.399
50.6291 71.8139 230.488
65.39 112.857 237.663
30.4718 41.3927 102.645
39.8305 122.395 183.097
55.0851 130.659 82.2195
26.8312 64.9375 120.824
47.2803 122.719 228.959
29.5991 70.3334 40.5697
30.7409 112.952 190.897
69.9447 71.8584 200.68
47.8065 75.4859 197.87
49.7515 119.815 182.786
58.473 105.473 240.253
20.6513 59.9396 136.666
22.6002 68.7012 139.348
55.9299 68.8109 74.7043
21.1256 59.24 41.5797
56.3074 86.0166 236.714
37.1298 22.4303 62.5327
26.2638 93.4908 192.82
65.6038 123.1 219.258
58.8636 64.711 206.283
46.9585 18.5205 66.4693
56.1434 20.0783 69.1962
69.9599 86.5857 231.092
36.2911 114.843 47.5315
59.4662 56.3216 36.8822
55.9084 86.3721 77.7827
24.5806 78.8743 41.3588
41.5398 71.7089 42.3045
63.7484 15.171 25.8893
60.458 63.8191 222.625
51.5748 75.3795 41.9441
58.7368 126.594 196.04
73.1464 110.143 235.248
51.7828 77.4925 193.69
59.5108 120.601 232.816
15.7191 96.1377 93.1325
66.6858 78.2687 236.907
38.4947 79.7107 42.3936
60.6096 108.561 97.2505
59.9724 90.2698 180.01
65.8427 125.961 208.46
69.462 98.7022 186.781
62.3204 39.3738 40.9325
58.3377 121.701 206.378
20.3937 97.7245 101.212
47.3614 30.583 81.022
56.1966 44.37 40.404
59.8173 65.562 137.035
32.9152 87.5851 44.0619
68.452 100.458 165.447
56.4389 118.151 113.586
55.3832 108.368 66.4459
51.9009 20.4409 62.3857
37.2036 100.718 184.827
30.9233 81.4449 123.376
56.6913 1.17303 10.1539
52.4491 87.079 190.227
16.2981 75.4928 118.957
70.6725 113.004 195.618
54.3844 113.699 190.414
51.4082 83.0389 232.714
71.1289 91.7201 185.209
60.582 83.4084 178.704
19.238 75.7992 39.8962
14.0331 60.4355 97.9389
55.4524 9.74579 21.3273
69.6226 123.165 207.083
66.2537 92.5151 181.75
50.0245 115.3 120.59
25.5706 37.7538 50.5055
59.4183 122.195 219.691
60.0116 114.223 108.277
54.769 94.7409 113.977
