ply
format ascii 1.0
comment Created by Open3D
element vertex 1046
property double x
property double y
property double z
end_header
15.4151 116.898 218.936
12.2198 26.1285 207.442
12.4202 29.993 191.063
22.7678 145.623 31.4197
11.4689 155.58 63.7566
29.871 147.245 22.9438
23.468 123.819 101.898
54.9986 98.7182 213.983
10.8089 72.9155 203.32
57.02 100.692 257.769
39.6411 112.934 37.2068
23.3679 104.228 254.416
38.057 25.4498 200.13
12.9572 24.2135 195.868
33.4258 66.281 225.006
39.2338 52.5985 170.977
13.0806 164.248 55.8161
11.034 30.3706 216.132
81.0255 103.569 45.7827
10.9046 144.587 67.8848
11.6806 95.3457 187.499
34.2896 186.256 48.9507
44.1418 218.16 141.261
10.3142 45.342 196.387
57.9641 74.1847 267.062
54.6017 118.195 208.517
56.5767 51.8707 256.683
35.1073 42.4624 192.218
10.2907 106.981 209.554
56.8316 129.952 13.2107
27.7298 16.749 235.205
18.2615 255.048 143.804
33.3041 55.7021 228.406
69.1103 152.591 48.1734
26.3676 12.1477 204.718
51.4471 117.865 197.744
35.0613 49.774 191.019
11.4642 239.443 182.216
36.978 158.089 16.3879
33.0255 20.5986 187.765
55.3736 91.7155 203.971
11.2957 138.819 62.6172
33.0341 112.518 71.8021
31.6707 179.207 37.9727
15.0358 137.91 73.0856
14.593 129.783 61.2261
10.7161 63.5381 177.178
21.4611 131.406 95.5897
11.9699 41.2888 219.785
14.7943 32.3926 179.325
44.3535 75.2158 210.712
32.0372 37.7233 262.436
25.687 128.797 33.4994
45.6835 250.045 174.06
28.2547 181.803 47.1297
63.2017 79.0391 244.761
19.8587 149.075 83.0501
34.0823 11.8053 210.257
58.7782 111.821 208.668
23.9425 124.626 203.717
61.0891 88.5665 109.668
20.0286 123.109 230.281
47.0218 257.238 153.492
9.72672 72.0025 182.368
10.298 32.4477 203.735
24.719 267.027 167.906
20.3677 163.782 38.1736
41.7264 174.911 98.6568
62.4012 167.047 66.904
27.8423 172.489 32.4048
54.0904 105.271 25.7864
33.4649 109.952 33.9088
10.2732 59.4785 222.435
10.4938 33.5589 231.43
39.7518 186.83 53.6981
10.5172 50.1183 235.484
65.3397 165.266 48.7682
55.1474 66.2577 272.021
24.8722 19.0062 186.653
59.4552 61.3454 262.572
65.7984 169.832 163.441
57.9499 174.479 28.1655
37.8642 47.7515 177.52
52.5129 178.472 31.359
62.2929 235.068 183.959
14.4011 149.3 63.9434
54.7426 247.151 170.491
42.2145 260.963 143.179
58.9377 84.491 257.693
11.9456 58.1119 207.915
57.8027 97.1384 243.355
57.3029 102.869 198.334
34.0863 63.6025 206.704
10.4996 43.5426 241.249
30.7172 59.49 211.992
15.6772 231.787 187.163
45.2711 155.493 166.056
55.3916 87.7012 181.243
38.6151 109.509 176.538
10.3397 42.9659 229.174
38.493 103.735 54.1959
24.6878 128.293 74.0489
29.5151 108.579 174.14
66.3606 158.622 52.8952
32.5013 48.4819 199.162
33.6851 265.297 147.98
56.587 85.4646 249.935
29.6798 47.8527 211.472
9.89062 41.0146 202.52
41.9452 208.929 158.264
10.2358 66.2287 190.958
19.8949 129.956 43.6107
54.1752 84.9524 113.936
10.5105 43.3523 187.875
68.2004 154.478 59.5093
40.9815 112.216 76.421
12.4791 243.9 155.099
69.253 122.064 68.5003
10.9904 54.6323 196.525
41.009 257.759 162.993
40.7943 125.569 207.451
37.5854 42.833 185.103
10.4132 87.4761 212.661
38.0229 12.0835 219.15
10.0343 78.688 193.286
41.296 65.4821 238.489
14.3629 263.603 167.152
40.7818 167.218 88.1129
27.2858 123.022 197.001
54.2982 53.056 268.926
45.6648 108.949 72.3504
45.4302 120.873 192.129
53.3651 142.213 160.073
51.0973 125.275 222.449
35.2414 39.536 176.879
19.1359 112.2 243.786
17.6035 131.532 68.425
41.1281 186.082 41.5713
10.5504 254.911 165.775
94.7545 259.278 193.494
13.3812 39.5247 245.538
53.463 178.864 64.9712
11.9974 106.971 194.615
10.2216 67.6614 240.549
18.6595 15.0233 204.434
12.6057 50.4021 219.085
46.7861 186.883 45.8849
58.5255 173.821 66.148
24.8388 114.214 47.1858
13.6082 233.356 174.562
24.3441 116.649 58.8172
52.1195 171.448 19.0839
65.6182 104.734 28.4621
64.5861 162.311 158.912
22.7497 109.161 179.717
21.7418 84.4075 164.203
36.3578 16.559 194.817
10.048 259.161 175.88
53.0102 182.227 50.2887
22.8706 170.91 37.6662
54.5623 251.083 158.032
13.0901 252.001 153.924
15.0836 114.887 205.467
48.9958 141.549 10.985
11.1982 246.672 165.824
11.5145 63.355 198.534
48.7433 130.468 87.8546
44.1575 122.74 200.656
11.8357 104.42 229.364
45.2128 90.1235 228.481
10.6802 84.6322 204.576
44.9428 82.1947 112.538
27.3275 267.817 157.29
14.7092 247.492 148.09
40.4121 160.336 96.5813
81.0156 130.812 35.4546
39.8757 119.038 249.494
16.3472 103.223 247.799
35.3635 29.9493 261.892
48.3679 78.1886 276.603
67.3334 151.284 26.8818
34.3766 129.967 81.8564
42.2772 186.267 63.7523
9.82328 67.5389 225.118
35.7358 184.968 65.2813
29.5204 114.286 180.919
50.2332 71.1079 247.49
16.3325 263.795 153.561
30.1729 183.228 57.3029
45.9157 26.0559 238.448
35.4918 71.8606 218.622
66.2362 160.354 37.4021
40.3909 125.13 230.687
87.7736 260.909 204.364
12.9827 76.2243 170.193
50.4704 105.883 177.059
57.8626 106.523 212.281
20.3779 178.245 74.4006
27.4325 10.6167 225.755
15.414 241.328 192.248
10.6144 96.331 213.645
40.3182 118.146 79.3796
67.3282 133.292 70.7395
33.3355 182.104 74.6635
17.8607 37.4706 173.209
41.9997 205.071 140.166
33.312 48.3362 267.328
31.8879 108.512 56.1594
59.1896 76.2589 259.649
14.5827 47.9816 172.329
9.68545 102.472 202.428
36.7899 39.1736 226.734
70.886 247.553 191.697
33.8606 265.619 156.136
21.5302 31.2553 252.491
30.2743 117.626 248.535
48.4798 243.478 136.496
42.866 82.8421 122.058
40.1554 52.1277 236.278
15.1754 136.282 57.6458
18.6808 230.159 162.881
21.8289 136.429 32.8064
42.7463 183.359 73.4712
49.7992 49.8843 245.302
56.0302 160.206 96.3758
22.1401 169.873 82.3897
30.7557 163.029 22.3225
10.5336 55.1587 175.522
17.1294 121.741 224.128
15.7986 157.653 80.7093
50.8875 141.193 147.237
10.5899 23.4404 220.359
56.5201 153.01 83.4011
28.4101 162.669 93.5826
52.0879 246.465 178.454
60.1934 195.374 159.864
28.3501 30.1057 253.856
49.9748 98.9639 172.382
54.8768 100.657 52.2118
16.9701 87.8019 256.023
19.3612 19.1149 235.219
14.3294 128.49 97.1968
22.0154 120.785 193.483
46.198 75.7164 202.095
10.2004 57.9905 239.01
60.8505 140.233 83.8675
21.8309 156.494 87.8954
10.6232 82.7061 219.803
72.5388 147.26 40.9676
43.1272 139.148 143.377
21.5052 124.615 66.7932
37.1333 76.8957 161.214
44.2116 67.5943 189.619
21.254 118.213 96.2433
91.5841 252.573 185.463
22.449 83.5912 262.846
31.7247 158.71 150.292
44.638 95.1141 117.537
28.4815 100.071 262.482
17.9937 189.155 165.34
36.6222 33.0029 216.709
11.6859 250.35 182.41
29.9961 170.867 81.3481
44.1475 156.335 140.578
57.8025 129.997 76.4181
62.0846 150.832 80.3177
33.9553 59.5399 163.384
36.7481 111.632 257.749
50.8725 104.459 71.3492
35.5993 177.159 92.4398
16.6465 105.343 184.715
13.8994 151.306 75.9195
53.908 94.8589 178.457
59.7517 102.775 249.146
74.0032 92.6403 32.589
60.2266 164.984 88.5121
42.4951 133.256 85.5937
11.0256 37.0901 188.858
31.6676 125.112 236.78
16.5713 96.5605 252.578
30.7134 30.1228 175.36
10.9165 38.3128 236.484
39.8977 191.367 123.685
26.173 125.639 94.5138
41.9818 46.8804 237.773
18.8248 120.508 202.756
12.7906 150.915 54.2516
46.0207 72.8513 240.488
50.7425 229.021 202.826
69.0583 153.37 35.7857
52.4003 45.5792 267.09
65.8654 248.991 196.002
37.5059 32.9041 206.364
15.2804 83.1607 168.256
35.2449 237.307 205.403
44.9275 140.656 91.9691
47.1105 186.198 53.6785
15.5008 139.376 51.948
10.029 86.2139 194.863
56.2915 90.8462 264.158
72.3063 140.958 61.4512
39.184 70.7928 206.022
55.4639 221.978 194.582
30.2438 172.445 94.1384
37.4486 141.815 87.1215
14.7987 257.765 150.88
20.0305 100.897 175.351
71.9583 142.216 45.644
18.5705 117.909 238.797
10.7215 94.4264 239.355
10.4943 80.9373 184.815
78.9025 119.633 32.3917
42.307 201.425 152.396
39.1511 221.512 162.576
41.5512 92.238 163.851
52.7738 44.2657 250.389
11.6552 49.4411 245.958
29.4831 220.056 173.999
9.85917 105.343 219.329
35.3002 105.869 45.1659
48.1523 258.202 145.706
10.7202 88.7706 182.563
10.2941 96.4561 198.284
60.2291 243.661 165.739
24.7082 222.257 178.069
39.8657 149.022 94.4965
30.8883 118.443 188.288
43.6889 31.0998 232.343
12.1786 261.277 159.33
41.4567 177.115 121.635
40.5736 101.66 173.077
27.801 73.0119 160.889
12.1568 238.478 167.872
12.3369 163.546 62.1182
39.0301 54.018 185.729
49.0323 176.309 98.3078
35.1712 16.9332 240.473
15.2594 116.298 232.011
25.471 121.685 36.8259
67.6275 130.733 90.6836
10.6536 46.0671 212.782
40.2159 242.753 135.324
35.5539 66.2334 232.317
47.8592 81.0917 209.076
54.1887 91.0478 109.692
34.9066 36.2634 201.324
61.8255 156.896 74.8779
27.4505 43.2891 265.003
41.3612 122.753 16.5121
62.6884 239.442 142.911
35.8024 172.756 23.6908
49.1307 122.873 80.0387
19.8593 53.3951 260.343
43.8909 234.844 206.949
39.0598 34.7406 263.526
47.7102 61.7791 244.188
42.1921 156.04 90.3221
24.3326 153.153 27.427
9.55926 32.8666 224.417
36.6555 35.6325 192.405
43.0069 149.542 13.4721
61.4742 168.967 24.9296
19.9575 122.631 59.9532
31.4358 61.9108 219.489
41.0326 125.048 84.3411
22.029 96.5478 259.061
61.4388 149.605 18.6808
31.4908 45.8607 217.506
78.67 109.26 50.0435
65.3535 159.365 28.81
11.8773 68.6166 169.471
47.1364 181.435 31.9992
31.2103 54.478 205.122
13.3009 108.647 239.027
41.8671 69.2969 198.224
22.2841 176.244 159.206
25.963 19.9743 242.978
74.7294 143.55 52.5379
28.7681 139.252 21.6558
10.343 78.0693 234.902
49.6115 206.362 164.427
45.3676 154.561 125.906
12.2483 21.7289 228.015
16.4067 144.604 43.9985
60.618 112.807 74.4801
34.2717 57.8552 198.926
35.8444 205.776 142.199
30.9175 36.9986 170.183
48.2514 90.9614 222.086
43.0848 58.4044 180.933
34.6597 116.975 30.8767
69.5524 99.9823 54.0527
58.6058 227.376 146.09
26.0658 129.123 104.719
31.0599 122.614 25.3565
81.2358 257.569 186.778
48.1703 252.813 161.084
62.5647 225.911 189.21
19.6667 225.06 182.733
55.5218 144.667 12.0401
57.4281 111.018 198.867
27.1654 62.3295 162.924
31.3543 218.889 184.539
25.5583 123.029 235.477
15.1375 236.378 159.126
41.8623 81.6563 220.771
62.6228 122.847 74.6766
33.1574 38.3698 213.47
59.2307 109.441 245.664
19.2103 131.923 103.417
34.881 156.673 91.4338
38.8013 121.665 190.4
15.1709 70.0233 256.466
41.2853 165.873 127.091
58.8873 186.453 163.542
42.3274 103.532 30.2546
25.3807 225.182 190.662
19.0062 50.824 166.777
74.5188 136.419 37.4261
70.5564 261.139 201.926
10.6731 26.6022 233.217
21.9653 64.2604 261.637
38.2687 253.021 182.726
76.0508 131.707 63.1161
47.4032 41.3578 267.265
34.1636 256.494 175.507
31.1012 205.502 149.194
38.239 109.489 68.7506
51.7818 94.1684 115.985
30.5031 261.78 171.339
67.903 132.692 18.3666
30.4791 145.285 91.8038
40.549 20.0845 207.619
31.1798 123.392 79.9719
63.1184 169.018 33.8933
14.5679 17.6771 210.968
25.542 13.4667 215.169
10.6103 244.607 174.839
60.5567 170.028 40.5089
58.1964 98.5614 115.32
55.5302 178.281 40.0575
15.8425 261.423 185.574
39.3747 219.281 173.575
24.036 264.177 178.566
65.3304 231.591 150.588
29.7955 23.9102 180.522
16.5859 62.4137 166.103
18.633 163.369 80.9723
42.7229 72.8697 276.769
11.1323 110.585 228.484
26.3514 142.365 86.015
30.5547 8.65679 218.788
64.8735 160.876 63.0482
41.8526 100.987 62.1882
35.2666 28.3002 185.457
64.591 223.793 161.168
34.3203 160.973 97.8328
40.4549 188.227 156.994
48.8396 218.154 188.053
52.8563 109.325 183.359
16.5059 176.276 67.1552
16.2887 35.6652 250.37
41.0711 102.532 43.3539
56.6754 91.6405 34.9723
16.0668 127.29 55.0639
39.87 62.4507 192.605
68.1569 230.688 167.733
57.8672 60.9336 254.287
36.177 124.952 201.353
62.0945 100.078 64.3422
20.2783 189.34 157.549
73.5108 147.352 2.89682
20.3717 123.567 213.215
12.4488 101.529 239.297
12.9405 86.231 173.543
35.0517 46.608 168.976
33.4469 123.077 193.686
40.9216 77.1005 236.391
35.4052 44.9279 227.564
31.7994 21.5953 249.428
25.5538 127.703 210.598
25.2316 205.729 155.185
45.8362 156.037 12.7286
22.1685 76.8011 163.546
35.6163 32.2206 180.77
29.3274 184.621 67.8128
52.1905 142.445 84.7701
57.8971 94.5814 195.478
53.0488 97.5885 226.86
47.6667 74.3926 192.015
78.8419 266.401 186.592
22.8816 31.8276 174.848
48.465 217.878 171.822
19.4207 113.572 188.548
47.8187 125.566 230.968
54.6725 108.884 75.7982
27.5483 120.54 72.2026
38.1779 24.1697 191.183
22.7888 76.1394 264.651
48.1922 85.0311 215.675
49.4325 98.6764 59.1279
22.3516 225.865 168.964
24.6113 91.7032 264.511
13.9996 56.3022 246.47
35.8117 182.714 42.4852
42.5101 39.201 232.594
44.1597 175.818 86.7719
46.7943 92.1569 124.919
20.5522 180.967 65.2226
46.1458 224.107 198.766
54.8074 235.708 138.903
20.4484 177.532 50.0712
43.6723 161.056 17.0717
40.8468 143.964 11.9449
51.23 168.088 91.8629
41.3474 225.735 149.479
46.6629 81.2924 239.277
53.8256 125.878 86.3599
28.006 129.832 81.4184
21.6302 183.166 154.469
13.6278 32.2571 241.814
61.4714 119.838 19.471
41.2233 82.3058 162.317
43.0659 27.2677 227.061
59.6048 164.552 75.3593
15.8243 46.1871 250.421
11.6713 59.9953 250.373
29.2317 252.862 135.977
57.8487 161.897 14.5752
46.1043 25.3089 245.708
38.6076 164.978 17.1265
48.1449 83.7361 273.787
82.5574 258.091 207.329
29.4209 238.886 137.336
59.5515 69.2346 256.338
35.6647 75.5955 275.252
61.3735 92.1192 115.662
46.1485 232.202 139.926
10.5973 40.1262 208.682
68.5157 92.1638 28.3029
42.3494 16.5537 226.447
65.5994 96.3583 25.0837
39.1589 181.54 76.7161
52.8153 61.5977 250.278
52.8034 129.931 81.1635
35.6418 209.455 158.309
44.03 247.038 192.229
21.3862 181.216 57.4181
28.9312 116.223 33.081
37.2027 174.661 33.3388
65.8898 92.5685 35.6305
55.8389 79.7304 271.163
47.8491 84.2099 165.995
29.7041 108.064 259.776
31.253 127.364 205.868
25.0996 166.088 148.785
36.4056 229.272 203.869
31.7628 153.32 18.859
53.1335 115.699 82.0272
57.7044 176.573 54.9751
16.7116 250.035 194.451
48.1467 157.024 83.886
9.82332 56.1179 188.34
42.3491 20.7501 219.912
24.7497 125.153 221.969
50.1963 172.593 83.915
35.1427 63.7869 198.369
42.1066 182.792 35.0124
20.3533 56.4894 163.134
33.0155 48.948 225.146
29.4904 91.9013 268.431
19.9032 236.615 195.201
52.3561 164.305 16.8963
41.139 96.7892 270.291
38.6638 31.2963 222.406
42.4187 177.105 23.5771
45.8345 115.317 184.423
30.4054 113.931 39.4395
9.49132 49.2071 184.671
24.3237 159.945 25.4979
43.4059 64.576 183.738
75.3709 253.767 193.679
24.4895 265.633 145.907
28.5079 127.433 216.208
35.4047 98.9671 164.855
40.8822 24.4582 212.655
91.3073 261.883 184.197
50.2875 79.9536 183.263
17.0068 154.901 47.44
27.8221 159.815 88.6232
74.2965 98.466 20.5282
36.6529 233.371 138.909
53.1 217.553 178.694
33.2728 62.3109 272.126
37.4669 78.2908 226.047
64.9934 140.613 19.1195
57.971 143.773 74.7796
64.2683 156.481 19.8929
49.5514 124.434 209.297
44.513 107.462 36.843
40.7498 60.6119 274.061
17.5634 172.381 75.7642
50.7845 33.7317 250.513
51.833 94.2131 269.751
14.0736 21.3919 238.459
44.1162 139.768 153.375
23.003 264.753 186.388
58.9095 155.511 13.6615
45.1256 20.3492 234.594
17.6784 169.509 48.1581
23.9235 114.205 249.378
70.4127 145.61 33.8511
71.4841 253.988 180.453
20.7905 16.4264 192.362
60.9971 168.134 95.466
68.2134 159.42 44.4726
69.5789 138.118 32.0431
16.43 18.5912 198.321
43.0081 90.199 113.234
51.7522 93.1041 234.086
76.9064 245.731 187.3
55.5907 97.8901 23.5957
59.9991 109.566 238.111
62.1028 164.042 20.982
20.6442 135.388 78.202
34.2643 25.8978 254.702
67.8078 170.857 4.74609
35.4289 96.3932 266.665
41.4486 217.177 183.063
82.3886 121.568 55.3407
52.6499 97.2136 219.996
51.9049 157.198 12.5981
14.4369 161.124 50.3993
50.7312 124.363 20.8705
24.9907 233.44 143.365
55.2508 235.136 199.283
58.3055 132.379 141.318
32.2857 230.814 143.464
51.4608 85.5802 206.578
46.2792 101.141 67.4145
14.6653 160.267 70.9121
11.1756 80.9136 243.074
35.6198 125.148 19.724
14.1748 168.069 72.9499
58.8593 92.5825 256.645
38.1016 253.071 198.239
23.9849 192.486 138.291
37.4763 75.1334 232.285
48.1017 44.0115 241.871
22.8882 43.7576 167.721
55.5787 169.453 77.5071
72.3875 257.815 209.143
67.0165 237.077 163.126
32.4504 88.9945 161.727
39.091 193.808 178.617
39.7812 206.886 167.275
80.2744 154.776 5.80327
21.9704 12.5801 225.325
36.1604 255.822 190.716
29.895 135.21 84.9829
25.9547 53.7402 265.636
23.0317 194.168 149.971
19.0076 26.1113 246.439
45.4374 88.8416 272.6
46.3676 175.768 79.427
28.5589 258.524 194.499
49.337 157.085 100.836
49.2734 133.862 11.8725
52.756 181.985 58.9006
63.6981 165.36 57.3204
62.2485 97.6238 57.4878
57.6329 99.8407 233.353
49.8058 114.803 76.2572
67.5436 114.059 67.1502
32.3057 262.268 164.422
37.8519 207.947 150.132
12.4478 144.306 50.5768
36.1534 126.381 217.624
50.804 88.6049 237.617
36.908 178.099 28.8306
86.3788 265.844 197.943
28.6307 168.588 163.572
82.9919 245.144 204.373
62.109 246.708 149.511
48.2726 88.3497 110.97
77.2855 96.4957 50.1117
28.8585 228.82 150.029
26.1201 237.669 201.847
30.9167 110.885 64.1561
39.4784 192.974 151.847
25.0269 11.3849 196.78
67.0063 239.291 148.623
35.6181 225.573 152.333
30.4504 71.9251 270.464
50.2476 204.988 153.978
89.1361 244.346 190.643
53.1142 40.8139 257.755
24.9208 177.382 41.6679
20.195 135.406 38.122
25.2338 35.8308 260.451
39.2643 117.477 184.14
34.8225 52.3215 163.728
23.3683 149.872 89.0961
48.5818 181.621 73.0396
86.3291 251.605 191.146
48.6284 110.904 259.622
15.2093 94.01 176.215
64.1441 235.57 170.021
72.4698 104.779 57.1618
22.9579 63.3688 159.851
21.1216 267.558 152.948
43.9974 112.974 178.906
40.0262 43.6652 269.391
81.8013 122.997 17.576
51.6653 119.966 15.3908
45.8603 139.477 85.7926
25.985 115.966 68.3266
49.3956 128.246 14.9911
52.0999 59.846 272.692
56.5117 106.913 189.221
51.0923 97.9485 30.9358
88.9504 250.462 201.051
34.8231 116.909 23.7112
48.6746 84.2725 127.116
25.1994 68.1878 266.554
23.9627 248.701 138.02
15.6851 114.57 194.553
23.0918 159.839 31.7537
69.4733 104.669 21.8595
47.427 220.224 161.996
78.2673 123.102 60.3382
16.0593 62.5371 257.998
64.2904 144.894 68.2598
37.4128 109.903 27.8385
28.1378 168.802 25.9221
54.9773 68.1749 252.187
53.5695 239.976 188.889
42.2361 181.987 84.3729
62.4719 242.416 160.025
68.3082 91.4933 41.5483
42.8297 97.8037 167.912
57.7371 101.893 69.2085
25.3426 183.819 63.8781
40.028 22.7354 250.509
42.1063 59.1639 169.473
58.7833 83.0198 265.677
46.8024 182.263 63.1663
87.1066 263.535 187.049
59.2447 232.469 192.965
50.0384 36.0685 257.768
48.2594 146.853 91.5597
39.3285 219.105 189.492
26.1824 137.029 28.8922
61.057 67.7961 265.592
44.7847 69.2216 175.363
47.7868 100.034 267.015
17.1294 228.714 176.213
24.3778 245.569 202.102
44.8566 76.7668 171.25
17.5953 123.711 99.0842
54.5433 101.711 62.4526
78.5833 95.9904 40.14
55.0235 112.868 192.269
55.6184 45.6202 260.916
57.9981 145.986 87.312
41.3183 251.736 134.186
67.6837 229.83 160.36
49.0648 73.3848 178.413
11.1566 47.4544 179.063
37.9495 125.22 240.303
41.1741 138.4 14.111
54.852 90.9386 246.219
14.4444 266.792 177.897
29.2102 44.9419 165.162
58.0648 114.057 25.3861
73.767 136.799 28.3538
35.4556 128.589 227.508
37.7508 69.6612 160.942
65.8175 92.8245 47.5056
55.5639 96.1346 60.965
49.0523 245.693 188.507
52.2636 188.957 130.259
34.7028 140.317 93.2562
17.8048 269.575 170.599
60.8481 106.317 63.6394
60.2391 169.719 49.1828
38.9075 257.758 136.675
70.7587 96.3022 48.8313
29.1753 184.126 177.748
36.5026 12.1706 230.488
30.1276 224.257 162.03
40.8023 104.44 264.912
50.2614 163.14 86.5035
70.4484 130.916 64.8073
44.1324 36.4251 263.923
55.5254 174.237 73.4885
39.5388 129.454 20.3274
68.0696 131.532 3.04599
27.9613 101.863 168.55
19.4998 23.8987 181.829
53.9686 86.9573 271.385
22.0548 178.967 167.335
84.164 267.993 187.845
46.4332 54.4877 273.419
15.2371 51.2492 256.475
41.0409 261.209 154.827
56.9406 77.6588 253.865
16.8714 236.528 149.768
77.5003 168.447 3.29404
68.2541 240.72 155.231
20.409 258.848 194.042
39.3193 133.636 15.5204
57.2671 117.399 219.726
49.8848 151.551 89.1679
41.0314 201.085 127.385
35.1313 132.028 88.5439
34.1362 178.138 125.853
54.1254 124.307 234.729
58.9011 166.908 143.041
87.5421 106.716 49.148
71.2431 148.485 57.3971
57.3781 155.458 98.6622
33.1404 225.122 198.866
46.0192 174.201 20.541
66.872 112.487 18.3177
59.0407 219.101 165.175
16.5089 137.966 66.1655
58.7371 101.389 187.347
58.2817 95.9547 106.727
47.2643 33.0873 240.166
49.0739 241.448 202.588
56.5852 95.4879 41.2081
34.2549 250.089 203.353
15.7201 132.539 49.4954
19.3825 22.5717 241.203
23.4268 117.285 186.981
41.9696 18.1229 239.417
41.0506 144.945 134.572
41.5012 86.2086 116.89
20.1585 40.5317 257.898
55.8172 161.62 79.9865
35.574 160.521 134.553
51.7183 177.362 90.4935
58.9664 250.601 145.59
29.1946 177.948 173.661
14.6048 18.7927 221.286
12.9842 100.999 185.103
28.4974 178.401 81.0183
25.9062 93.4299 164.545
30.1121 56.1142 269.703
64.0706 132.231 79.6277
32.814 65.4885 159.912
35.541 12.6521 201.045
56.4906 174.791 46.2057
75.5381 159.442 119.989
38.1681 122.055 26.1903
65.3603 143.853 74.632
49.9103 90.9097 167.292
83.9147 107.985 28.5362
70.7468 259.799 190.206
23.173 42.3847 260.82
72.6361 132.53 24.3782
55.8337 91.7902 190.79
23.5482 179.909 48.4382
43.3691 125.184 240.979
73.7024 90.1451 45.2379
77.0328 243.187 201.169
29.1793 150.72 92.9638
16.5216 152.063 42.3208
58.4942 117.765 236.267
56.2849 117.858 76.4923
76.761 246.315 209.885
39.7324 75.872 214.736
35.8967 179.465 103.262
19.8505 243.049 142.597
53.049 148.99 125.729
51.718 100.587 40.2945
22.9822 139.782 81.4169
58.1031 112.158 15.6376
52.3502 110.642 33.0306
38.286 189.428 102.644
34.2203 147.407 15.9022
51.2105 178.529 77.9121
45.1659 26.2768 252.801
72.1827 144.386 28.5594
33.4633 114.883 48.6319
51.8012 79.1602 245.655
64.8385 160.452 6.88642
60.0602 143.214 126.531
30.4047 159.673 143.488
78.9346 123.612 48.5227
61.2642 167.47 4.87207
62.5445 98.665 45.0847
63.9923 168.089 43.7347
36.6956 262.107 159.552
52.2976 137.319 87.9822
24.1963 122.162 48.2454
60.2645 133.317 154.462
45.6549 67.492 275.601
42.8951 107.434 170.723
27.5556 123.208 29.9351
34.6345 86.545 272.61
60.2432 148.904 168.296
53.7091 165.466 2.54176
55.2056 122.739 228.326
35.5847 173.232 163.117
48.0678 160.486 121.806
69.0121 107.568 62.804
61.339 138.703 14.3281
56.332 208.883 149.675
60.0627 99.0487 33.0144
47.8498 101.679 50.0193
15.6032 169.05 67.1044
71.1466 110.317 13.2245
61.1797 218.852 176.064
83.5278 109.279 36.7867
65.5655 116.507 72.9108
77.0004 136.142 56.2821
57.5815 183.804 111.227
83.097 241.653 188.27
37.3936 176.143 155.663
54.4819 106.613 259.065
34.0482 152.984 143.016
49.0236 143.222 131.091
71.2239 96.4454 39.4418
77.5481 116.975 54.7217
36.0892 222.054 194.489
18.6965 16.5453 229.44
44.1493 166.204 14.7483
33.8408 244.319 205.395
59.6311 169.869 57.5725
28.2038 127.103 226.928
67.0585 227.693 176
52.6804 96.471 46.1263
63.3087 236.329 175.039
80.6532 261.389 182.423
34.3143 262.97 140.583
43.055 127.591 217.974
36.7839 167.677 97.2124
57.8532 110.063 20.4209
44.1903 116.709 255.206
24.401 228.643 156.312
75.6856 116.685 61.9191
18.324 156.404 39.1596
76.3831 107.253 28.4064
52.0441 133.953 154.061
61.8544 134.551 73.8958
44.3623 102.455 38.0788
56.0916 222.076 154.244
81.6182 243.077 195.422
58.4274 95.8576 182.726
47.6265 38.1763 239.89
32.2862 191.052 127.646
45.9724 171.542 104.756
57.7617 120.833 81.1515
45.5408 106.387 64.0605
76.1866 128.283 33.1865
72.8933 261.572 184.788
61.6491 107.998 70.8321
86.7675 253.029 205.711
85.045 266.985 192.629
78.6222 130.355 56.8454
45.6569 119.696 84.6799
74.595 112.122 57.4821
58.5312 94.2522 52.9636
45.4686 226.096 144.112
89.0869 257.382 197.457
57.0445 175.702 89.1004
67.3287 128.248 74.0467
86.9691 124.018 48.1112
40.6077 252.233 191.208
22.8126 120.469 41.7198
44.9188 144.698 144.555
83.0593 125.577 44.6468
81.2589 112.766 25.5036
38.978 154.735 134.877
34.0485 170.622 170.579
65.1739 155.229 68.9389
75.417 132.28 41.548
84.3464 115.246 38.0247
58.6493 219.311 186.455
85.8478 120.278 32.7364
39.9696 57.6337 237.6
50.3181 143.916 140.166
31.7092 164.847 88.2392
81.8391 115.521 18.6907
44.7805 99.6556 45.9828
55.617 120.203 241.735
66.21 145.944 168.166
46.6671 202.137 159.069
78.742 99.8157 54.0234
30.1652 11.891 232.815
57.6053 157.051 118.431
39.1783 57.5639 281.038
58.8216 109.451 224.221
59.625 114.69 232.184
46.7779 205.496 148.759
49.2994 87.2453 174.602
13.0375 183.728 153.403
75.7763 125.015 19.6572
48.3684 97.0414 36.2683
82.9504 129.572 49.8258
90.3071 116.735 43.638
55.5572 133.731 86.5958
82.1616 112.722 43.4915
19.653 13.8124 216.294
49.791 117.113 250.004
79.5346 124.367 40.2678
55.3586 170.645 115.612
40.5631 51.206 272.228
45.8916 167.533 93.2453
52.0476 172.579 99.5191
79.9652 133.197 44.9177
77.4893 133.33 1.56702
53.1659 218.856 163.782
60.0895 247.705 161.7
32.1645 208.238 165.123
86.4647 245.035 197.458
70.7843 142.179 168.313
54.6727 170.58 87.0135
55.2824 242.846 180.846
54.9767 101.82 31.8705
72.9315 101.764 31.816
61.1529 204.539 154.388
67.4502 149.806 119.573
72.8708 139.261 6.27965
82.7613 113.442 52.3264
68.3873 122.707 13.8207
48.0985 161.641 108.338
68.7004 141.574 67.5152
52.7333 161.826 169.828
21.5595 186.655 174.41
36.5259 82.2632 288.29
64.3732 160.995 68.743
69.1588 98.7579 30.1075
48.5807 121.547 241.036
88.7719 123.894 34.8015
80.3062 252.969 211.986
72.325 129.457 150.545
49.5717 128.215 215.946
19.5825 169.777 53.6342
80.4947 127.28 27.434
49.8357 170.971 176.236
57.2481 238.398 180.839
84.9298 106.299 55.0528
76.6276 100.753 44.057
