ply
format ascii 1.0
comment Created by Open3D
element vertex 1176
property double x
property double y
property double z
end_header
43.2997 161.164 346.165
41.6148 93.0785 135.157
32.168 111.533 134.487
23.434 64.4985 103.891
35.852 147.949 333.478
23.9589 79.7684 59.8937
26.4967 43.3878 136.948
24.4923 70.0763 88.1162
24.2884 148.274 128.623
24.2433 178.112 212.632
36.4724 148.793 320.781
24.105 135.064 158.101
24.4455 50.2841 129.374
23.9306 157.491 193.629
38.4689 155.973 339.969
28.0281 58.3117 178.954
23.8334 128.096 146.071
108.627 61.632 177.315
24.489 152.044 181.197
76.8723 84.4028 180.804
24.0641 109.249 156.65
38.9795 149.525 345.163
24.8569 166.063 69.6701
22.6843 180.944 127.577
74.1537 90.1873 190.527
24.0671 169.827 133.777
23.7353 139.092 142.663
33.1824 127.594 322.925
39.1848 140.553 175.103
24.6037 142.674 338.807
61.5114 96.8168 33.8528
31.165 157.951 112.156
23.5515 128.083 190.565
23.3566 192.255 199.798
33.8711 140.353 132.277
33.2621 195.866 112.377
80.1257 109.916 178.203
51.5442 165.793 378.813
25.9321 148.835 307.243
24.788 170.274 176.231
35.2184 129.152 150.611
24.7287 149.103 150.017
42.513 169.014 331.768
25.1186 178.657 183.694
23.8174 141.05 203.08
23.5184 141.472 185.828
30.9975 142.068 116.402
40.5169 145.425 84.2774
39.6004 141.008 94.2775
38.2582 147.057 311.898
24.4488 165.561 209.708
22.7942 203.102 83.425
45.7845 183.763 361.992
59.6456 65.5553 196.692
25.3738 131.975 88.668
46.1427 154.952 352.37
39.7362 155.904 306.224
33.6287 163.22 160.683
76.9317 85.4242 148.57
36.2033 157.481 329.514
24.4169 150.069 332.622
24.1294 64.4623 77.3735
25.8441 170.01 93.7935
36.9915 160.943 178.032
30.9261 215.047 313.956
67.8882 184.351 69.7088
23.6441 180.722 200.651
25.2433 106.298 75.7215
24.1717 123.32 216.661
62.6778 172.715 65.8591
51.7882 177.683 327.336
25.8012 97.2398 80.2477
32.883 206.089 111.83
24.6419 76.9633 76.7495
24.8309 160.555 145.438
38.4662 162.207 318.414
24.7621 55.808 140.902
24.5038 146.424 166.005
23.9197 85.4076 125.025
27.5706 214.972 322.183
30.1294 232.121 146.456
71.6404 117.721 60.698
62.9331 97.3221 127.552
30.2742 188.126 130.254
111.163 60.2101 158.232
22.7208 219.622 154.768
25.3826 153.315 377.687
27.2218 138.882 39.9539
22.873 237.319 175.057
24.37 136.492 345.58
36.1612 145.884 145.351
24.4803 162.655 179.379
23.9086 140.339 51.6263
24.7713 52.2334 94.3217
23.8934 150.645 363.07
23.4377 189.169 97.2385
24.4916 184.938 303.135
49.7559 108.783 73.547
51.1166 116.312 69.5444
22.7033 172.243 122.956
24.2764 83.1239 173.446
26.3405 130.025 320.917
46.7598 123.349 192.213
22.4654 211.351 142.726
23.6505 135.016 60.7962
31.9117 174.394 120.773
25.0383 183.876 70.7265
23.3846 98.0678 67.5008
31.1901 39.3785 146.36
24.3667 162.36 157.735
24.0149 186.104 81.4399
38.2294 134.391 167.019
23.8216 159.731 328.27
42.1826 156.608 192.349
25.9737 199 303.944
25.0505 142.749 314.2
23.347 155.795 342.258
23.1296 229.814 182.452
24.8944 133.387 213.338
38.0493 231.894 110.305
25.6084 48.4965 148.255
24.1817 159.669 371.903
33.5414 191.935 157.054
24.1539 118.214 190.126
64.9744 181.777 331.955
35.4054 205.673 159.939
25.6872 154.24 100.656
46.1545 188.834 355.587
51.2464 180.225 309.57
27.05 194.126 58.7768
24.8544 167.479 59.0946
30.6538 124.434 121.602
23.9477 96.8604 144.34
68.5344 220.472 81.3576
54.3962 145.05 368.204
23.7171 135.023 326.575
40.691 143.72 32.3456
34.9044 188.265 165.093
24.5 61.3448 153.062
25.817 145.021 369.43
26.2311 120.595 203.518
56.7093 143.173 377.292
84.0775 69.3908 81.6741
32.967 120.276 152.863
24.5642 207.504 73.2909
25.1362 180.173 296.718
24.1143 102.97 189.949
37.3469 148.191 97.3253
50.8684 180.986 317.844
73.8149 109.86 173.182
26.6244 255.588 156.206
94.3809 68.9874 67.6056
32.945 184.352 109.554
52.9764 139.03 375.546
28.6285 203.423 57.4613
40.2411 220.91 313.127
83.5312 223.318 63.302
24.3328 156.796 118.26
36.3325 182.191 82.4289
24.6704 137.096 360.004
59.068 174.285 370.545
22.619 210.418 115.895
36.2259 103.788 113.929
117.027 55.44 123.016
32.346 133.068 131.566
97.9681 68.2218 91.2362
24.3057 88.7848 110.098
33.8411 157.048 142.382
25.8032 53.225 164.609
46.3438 132.781 370.542
53.7427 151.391 387.525
23.3661 141.283 122.552
27.284 179.185 52.0809
23.8894 78.0993 192.952
57.7426 188.694 353.402
57.1316 111.01 62.2945
36.0779 142.529 300.684
22.6645 175.169 334.803
24.9497 72.0323 152.605
25.2957 124.551 46.4247
44.9796 184.247 40.5049
24.0526 68.469 173.79
28.2923 224.972 135.435
91.8492 187.02 59.2625
43.1135 94.487 165.138
40.3772 144.312 187.129
33.4778 133.543 376.448
44.4367 172.822 317.125
42.7446 212.112 300.64
56.421 158.432 383.417
23.9605 69.6096 66.9016
40.571 120.921 90.0266
24.5062 87.2244 151.724
24.1959 168.021 194.527
24.1813 103.412 49.795
33.2107 234.413 164.795
115.416 74.5774 144.85
30.3233 256.855 133.334
22.2161 256.62 161.95
24.1735 68.3256 138.04
56.9716 160.453 359.726
31.3148 187.415 146.202
35.6142 219.825 166.616
47.4476 198.894 82.8982
52.5711 220.553 89.3144
58.9981 198.927 287.157
51.4238 177.577 366.92
30.4912 96.8111 39.6119
41.4453 63.1756 194.703
22.3332 193.822 121.808
27.1155 216.354 389.274
26.9791 133.696 312.285
23.5124 125.432 135.944
36.6823 132.377 331.92
22.6532 195.242 149.803
36.564 45.8688 169.43
23.3741 115.665 125.787
39.3586 253.03 108.83
46.537 133.339 379.508
108.387 54.1804 168.219
46.7795 132.841 69.092
45.6208 141.673 72.3303
80.9502 116.262 223.265
38.4664 160.982 86.3436
27.1478 159.744 299.075
23.9213 159.417 353.085
24.1483 70.5166 124.878
28.7286 243.128 182.072
24.0619 87.4492 187.862
22.5039 242.924 151.788
53.8226 173.757 37.0465
91.9694 48.9125 189.728
119.478 168.095 28.2527
36.8168 227.422 179.005
24.1047 168.033 111.918
30.1091 245.836 141.108
24.2605 131.14 336.255
34.2292 129.475 140.735
60.3182 101.539 63.3261
23.9243 87.1633 70.2024
28.4077 140.996 376.444
24.3991 82.6207 104.359
24.4208 91.8048 203.106
23.5708 124.572 62.8876
24.2882 157.198 127.539
28.1257 135.25 370.592
22.8162 190.068 131.33
23.6155 109.083 132.574
61.5786 185.433 301.374
24.2461 92.6898 118.763
23.4453 225.027 70.7515
41.4231 155.85 78.1571
45.5374 33.9878 113.563
27.1925 159.555 309.708
23.799 122.301 108.332
23.7745 165.549 361.033
79.7965 48.6164 84.9636
25.4581 148.929 356.271
23.2632 57.2866 112.932
23.5301 194.359 140.292
33.9614 238.787 176.327
58.507 185.372 290.946
24.0464 47.746 117.585
22.5855 190.466 108.879
56.9833 102.897 30.1421
43.3118 102.466 94.1419
23.9905 209.417 194.915
71.8024 176.38 350.168
86.611 83.6985 164.481
48.8244 199.816 196.978
25.8114 177.848 84.6033
24.5405 141.714 195.258
38.3256 208.734 178.193
50.8415 188.019 74.9584
62.312 151.987 371.868
35.6297 246.719 112.615
31.2262 219.251 124.163
115.521 63.1394 128.853
32.1278 141.872 383.989
24.9196 134.944 97.9276
27.9112 205.689 318.13
43.0457 117.973 184.132
26.9717 185.723 313.733
51.2053 138.893 385.161
35.0672 120.167 165.569
64.5437 88.0526 164.145
51.459 141.807 193.88
34.1526 106.751 152.755
57.1758 181.917 285.179
24.0003 255.968 107.126
37.2034 139.247 308.721
76.7162 102.201 185.033
30.012 246.876 165.454
34.9282 174.519 172.43
37.6585 40.43 94.693
74.6423 74.4013 39.3163
24.6118 157.527 164.032
27.795 228.525 92.401
87.0239 66.8333 210.223
30.9526 178.749 143.55
66.8388 31.3755 146.98
87.7816 96.6698 216.055
70.8061 91.9096 222.285
68.708 92.6209 132.697
23.5413 72.6719 163.847
24.8195 160.878 382.215
33.668 179.059 96.4668
27.4527 66.1213 190.47
47.2211 145.325 388.854
46.1965 160.524 66.6504
55.7106 83.585 134.911
39.4176 154.388 384.796
23.9323 61.0033 131.485
106.989 62.6349 84.139
33.1793 205.757 147.331
52.3151 110.037 189.999
25.2207 137.786 219.737
88.2405 83.7836 27.7581
81.6282 77.6724 103.265
36.3357 173.035 88.6158
25.7312 166.051 81.5129
44.7215 162.353 288.644
24.3343 70.475 184.35
24.0776 98.8354 137.016
24.581 132.943 205.444
67.0766 30.4404 128.167
40.3426 187.235 357.521
39.4707 173.283 77.445
44.5448 170.026 310.927
31.4877 197.283 140.204
24.2482 112.207 213.273
63.3656 83.3869 144.401
53.5418 201.793 81.5605
35.421 155.821 164.106
24.1196 118.65 73.4951
36.925 134.228 316.166
47.8314 113.694 28.5588
96.0688 181.661 52.8413
37.6325 125.538 172.384
23.2754 134.163 69.0888
46.8766 125.411 70.067
81.7597 73.0321 92.3244
22.8186 130.821 119.913
53.3471 187.82 201.981
22.5237 204.04 108.519
50.051 173.324 334.368
92.4078 90.2481 219.782
35.4834 38.1687 106.532
36.8939 99.2756 117.698
66.495 197.296 305.218
74.2093 94.8962 117.631
99.2358 21.9976 101.332
21.8629 224.656 78.0725
53.2367 184.895 40.9318
43.9913 33.9354 136.102
23.6891 195.928 80.1616
30.976 214.276 141.071
98.5589 134.015 207.553
38.3126 226.929 61.1978
118.727 55.6848 82.424
22.4434 235.468 74.9324
23.6437 218.172 185.686
57.7736 82.9434 99.3757
79.3719 83.44 122.465
40.8288 196.876 214.323
48.2964 192.412 348.493
22.1264 250.96 171.37
24.2211 127.395 171.231
36.9385 169.705 180.218
25.154 46.1856 106.609
24.7899 174.885 69.5847
47.741 36.4007 154.979
24.6538 149.017 321.765
70.4019 82.9237 69.9704
44.1838 161.555 380.397
27.2089 141.863 91.0387
41.1768 91.7427 35.7678
84.9223 23.1125 120.645
80.977 78.0431 65.4707
24.0186 152.725 208.811
68.4879 201.275 321.654
57.861 165.666 379.728
53.2713 89.3312 36.0232
32.8503 247.978 129.457
23.6699 178.484 154.378
32.5094 215.22 112.286
23.1096 254.97 131.752
24.3896 237.36 185.84
26.5676 162.434 317.483
25.0807 262.924 137.9
59.288 92.5902 183.141
53.4897 73.8095 42.7292
105.206 26.4794 136.23
61.7584 131.95 207.525
24.9346 127.367 344.46
26.9328 150.937 91.7651
128.563 95.9345 36.2936
34.4022 146.794 107.847
89.1821 102.87 53.0211
49.7707 34.3848 124.397
120.598 56.0185 113.809
106.054 23.6224 96.6599
84.7947 123.087 46.0036
22.9958 207.975 166.517
75.7997 213.305 75.5395
31.2163 114.7 35.8026
28.5605 143.142 302.079
34.9888 146.308 37.1596
70.9989 176.303 64.5561
38.3293 150.335 179.4
34.2042 175.39 223.446
24.6655 71.1959 115.64
60.1779 39.3355 81.6175
37.5604 146.442 166.717
117.81 61.1734 91.4387
23.8082 175.482 377.025
47.4043 122.642 28.028
25.5739 195.395 67.4886
39.435 101.201 102.905
29.9092 179.101 371.866
24.9362 192.191 208.968
56.5178 150.021 59.0633
23.4108 108.081 63.0824
117.086 66.2668 100.095
23.6763 156.123 135.685
23.7374 132.743 183.398
70.8005 103.624 187.453
58.8311 218.755 308.769
83.4779 52.7631 53.5866
24.1394 115.876 150.455
33.025 194.115 48.0189
87.1713 101.237 19.6585
75.7379 105.387 25.0007
49.0212 88.5234 149.899
24.0906 83.8189 95.7067
33.8302 158.437 385.242
36.6743 138.329 335.748
42.221 193.949 81.3934
31.0798 123.793 342.087
23.4207 62.3065 164.08
49.1323 149.119 359.764
60.754 81.1969 208.841
37.279 137.921 321.54
75.4509 127.684 224.325
78.4357 227.777 60.9401
28.039 150.697 222.916
56.7456 88.1363 160.022
56.1343 231.634 67.8744
52.6042 88.5972 93.9975
44.6847 228.192 97.2471
25.4852 56.4868 158.609
23.8931 146.48 349.869
26.1362 169.343 219.041
53.6811 99.6258 184.448
21.8595 250.439 100.704
26.3853 204.545 66.5139
23.1557 113.236 55.9106
48.8152 97.6136 216.946
42.6703 33.5258 127.56
31.2111 228.173 124.302
58.4065 82.4785 39.6571
68.6837 86.0768 216.026
29.1516 152.045 387.202
33.7737 83.5764 208.096
61.372 192.546 300.426
66.4566 154.591 217.54
36.7396 136.563 155.089
47.6502 88.816 124.157
42.0956 131.799 362.339
63.4689 201.601 302.093
50.4204 94.2704 176.085
25.3104 204.667 204.873
54.1138 175.246 286.598
30.8984 167.042 113.676
62.2397 166.091 33.0285
41.0382 99.0521 32.7051
28.0758 184.392 118.83
22.924 207.608 353.647
38.6675 35.5804 140.724
48.6625 155.379 229.156
59.6749 192.195 40.9385
85.8243 172.958 55.3214
47.4534 66.6404 197.606
25.7473 104.607 215.119
41.1952 162.521 307.557
87.7059 54.2905 136.22
84.8185 127.008 202.699
27.7098 246.308 81.8988
56.4354 37.5516 159.093
52.3066 187.822 356.936
88.4769 111.647 49.3342
27.2757 40.4973 118.596
23.5506 169.171 371.117
31.2175 129.273 36.1393
59.8529 113.621 197.95
46.6832 122.256 226.704
23.2482 92.5437 53.4584
48.2146 157.383 198.117
26.7682 215.847 63.3484
60.3837 163.057 58.9518
57.6912 173.154 342.637
24.7069 142.497 102.225
31.2689 164.635 383.145
54.1123 132.726 59.6973
44.9 168.155 301.542
80.658 111.477 211.874
39.0491 140.344 228.329
87.505 207.912 65.5238
36.2711 213.385 304.67
37.7315 257.114 96.5474
66.126 81.1048 104.76
62.5475 73.9505 42.2155
69.0212 113.025 48.4698
42.1114 135.111 189.792
50.077 175.821 297.584
35.1026 205.949 50.7612
73.0777 85.7161 156.689
39.4124 218.116 335.826
25.7407 91.099 46.2172
122.934 62.1272 106.618
37.0503 181.008 362.801
62.5231 30.71 109.566
87.4376 165.662 51.1843
130.608 64.4809 46.5335
110.931 33.4981 130.293
113.046 58.6689 142.047
117.889 49.6578 116.035
37.1529 136.069 33.7113
51.2639 34.2209 105.565
23.9979 183.233 171.785
130.037 53.0128 51.8321
51.5393 146.034 62.2652
22.1098 183.167 354.651
61.5184 177.723 34.6939
46.4509 57.2142 58.6777
62.3564 100.167 192.864
24.8475 100.755 107.95
29.6244 187.497 288.599
112.671 48.6655 43.8204
33.4401 250.196 117.94
42.7467 203.825 292.991
59.8478 183.724 69.86
23.3689 97.4529 199.543
33.82 36.3567 137.513
47.4993 178.969 220.733
34.244 230.863 191.371
50.2722 138.682 65.0357
69.8697 203.741 312.512
23.6325 128.449 52.2726
26.5675 131.101 363.097
82.1772 80.9743 218.304
48.1907 86.7097 113.539
70.0127 103.743 167.116
76.5316 80.0151 108.706
41.809 176.613 282.057
66.3197 78.4706 89.5273
56.1379 85.9058 152.181
23.706 121.813 209.253
26.4506 46.9018 156.676
62.3591 217.135 55.2602
83.0645 143.88 45.7527
49.8121 97.0632 32.733
25.4913 117.211 43.4925
38.0118 111.333 100.61
72.8641 191.858 329.126
32.2832 164.48 98.611
78.627 103.871 170.539
77.7797 126.031 44.8328
45.4244 139.401 196.92
82.1154 210.993 69.5349
62.6015 173.243 347.314
23.3286 80.2777 164.099
110.082 65.5627 90.3834
40.3423 221.281 195.477
41.2339 162.744 35.8439
37.3752 121.347 30.608
107.375 38.869 160.661
29.9549 220.517 199.756
55.272 167.803 63.4457
38.5154 136.128 347.152
78.1292 68.8254 207.438
55.8653 33.5203 132.689
29.2839 223.668 62.6971
84.136 133.561 44.7179
31.3631 174.64 41.3678
40.8447 216.158 188.373
47.1811 140.557 362.795
59.7906 35.2112 154.503
23.2092 98.8844 90.4396
38.6069 219.464 325.688
68.3571 178.261 362.596
64.705 80.6718 81.8103
114.845 29.2144 114.575
39.2784 130.854 353.304
32.3261 183.194 154.171
24.1933 156.22 215.465
81.4175 97.6283 23.815
56.1722 91.8282 80.7591
118.201 77.6909 25.8234
29.0794 73.16 199.543
74.6275 82.104 116.45
28.3121 190.787 365.203
104.76 37.3368 63.8183
29.25 165.39 290.686
61.1694 55.8451 59.1695
104.369 49.7408 43.6451
42.524 79.7411 40.5435
43.8909 172.488 370.389
104.916 44.0005 52.8421
72.1177 129.741 43.7822
51.8411 198.918 284.751
40.3319 141.125 354.597
72.004 74.7985 210.947
36.4676 204.233 297.754
37.8544 54.772 185.786
31.7584 232.063 156.593
66.7285 174.232 370.013
54.2173 117.951 28.699
37.8229 248.51 85.2956
35.3639 125.847 367.541
32.873 215.336 149.068
41.5262 173.668 225.04
65.5938 82.2878 112.626
92.5374 186.838 29.9705
63.8669 209.351 306.045
25.0486 117.537 101.347
37.1703 133.225 381.85
67.7404 196.075 312.247
120.035 43.9027 49.2306
107.606 83.0822 20.5125
28.5438 249.834 173.287
66.043 160.754 366.623
56.1659 176.864 215.114
60.0937 189.586 73.8924
49.6688 171.255 371.159
122.97 153.681 25.6127
28.6254 171.915 381.195
27.7133 190.446 296.409
38.6398 140.866 342.88
66.3435 99.9117 182.866
101.25 21.3922 113.087
62.9415 190.474 314.04
45.4915 176.742 70.578
76.8792 221.984 74.726
53.8869 55.2934 60.4466
84.6406 154.62 48.947
61.2588 180.413 363.288
76.5513 149.597 26.6594
87.1436 43.1709 73.0798
43.6869 259.352 99.1418
68.304 30.1438 111.149
80.3332 191.418 33.5254
26.5045 217.034 337.127
26.0974 53.4302 79.9694
58.271 33.3066 144.52
27.0812 113.273 40.4506
76.731 172.187 60.0851
67.0615 234.838 68.1685
72.6362 208.915 48.4128
58.7663 180.178 327.143
46.5267 174.863 326.112
46.9077 148.2 230.012
41.6866 129.127 368.55
34.3585 189.495 357.491
54.9464 153.272 362.345
41.2523 41.4553 164.885
43.3851 170.807 35.9755
84.6868 172.82 27.5472
40.1272 232.945 103.787
75.0767 110.464 184.553
55.8414 210.53 330.218
60.5569 191.441 295.067
36.3635 191.18 218.659
24.1386 121.866 94.579
63.1859 210.512 313.715
50.1298 171.276 291.73
106.452 27.4581 122.648
65.7202 146.218 51.0825
32.2776 105.249 35.6553
43.1042 130.426 227.395
35.0731 229.416 117.24
109.511 63.5417 187.17
67.9796 208.485 311.076
108.652 23.8652 110.027
90.9344 47.8697 54.3265
44.7029 117.349 80.2873
39.7058 114.903 223.395
28.3348 181.21 310.549
97.1775 94.963 17.4495
125.009 18.6416 140.04
25.3358 194.204 317.318
88.1348 68.8729 74.7072
49.2778 161.457 354.629
102.381 143.859 16.3888
71.2962 192.18 321.35
78.4383 181.026 66.8393
76.2072 62.8686 47.1988
71.9111 28.6187 101.87
58.1868 33.162 127.056
122.392 55.6317 99.5981
32.3971 213.502 342.71
65.3064 35.4752 85.8401
41.9213 36.9698 103.407
59.5603 201.215 46.2096
48.9617 39.7493 161.842
57.6687 181.919 303.291
37.9413 34.7272 119.975
66.4873 186.162 324.111
115.5 74.4656 135.079
39.9526 163.798 377.831
36.1749 142.572 155.275
36.0711 126.122 345.91
46.4859 43.5472 83.043
67.6714 78.6247 96.8403
31.6445 141.876 226.918
46.0214 167.79 342.426
57.8175 168.293 351.022
59.9717 148.645 383.596
102.489 127.442 13.5934
44.2053 109.329 86.8634
46.963 155.192 33.4894
31.8439 161.548 38.3622
77.2501 83.6427 129.907
22.7707 190.175 351.286
49.3343 245.237 97.8823
91.7105 179.183 26.3855
26.0615 183.85 214.959
41.3405 136.408 386.009
63.1176 112.696 56.1825
38.8609 129.472 31.0311
83.8541 104.062 213.283
29.9454 208.247 207.426
52.9598 194.703 45.188
50.2459 213.307 55.4253
81.6948 73.3201 212.918
31.2493 144.837 124.461
24.0189 79.5925 154.84
77.5724 101.734 177.742
33.8676 124.315 354.769
94.1638 169.681 49.7617
85.5402 32.6664 163.771
61.7975 231.967 86.6772
50.2784 243.327 78.8019
65.0446 40.3581 171.265
66.6676 197.91 332.724
77.7725 85.9298 31.2503
97.0032 30.8871 78.1501
47.4397 207.309 87.7293
81.2841 157.647 25.8776
31.5129 166.848 224.158
73.4058 100.995 51.026
25.4587 80.0121 137.909
74.4195 108.279 205.27
32.208 85.3308 41.2672
100.677 62.0825 79.5172
98.1082 50.1761 48.2193
118.202 45.5347 110.543
67.8303 98.967 225.5
96.0883 169.465 25.1512
70.2922 193.868 40.2934
53.9548 149.992 203.576
50.969 136.674 229.367
127.2 110.528 26.2733
25.4193 112.973 83.2839
39.1271 169.681 282.151
43.6292 134.793 29.9546
84.7746 23.7694 133.596
46.9253 168.671 281.672
116.981 72.9721 107.931
21.9131 236.342 93.9993
34.6455 173.23 369.573
36.7937 49.254 177.58
125.426 91.6699 24.752
89.971 41.9517 63.6282
67.1358 144.8 226.58
62.8303 80.4336 127.726
64.2527 154.765 377.771
63.0959 162.429 381.119
92.8318 86.0005 138.408
48.3446 190.535 211.573
62.7839 183.568 38.0182
95.0697 70.3572 30.1098
73.6823 182.429 338.669
38.5643 63.6631 207.939
50.0968 217.29 326.464
44.0703 222.779 326.65
37.2301 38.5328 155.557
53.5165 121.665 198.087
68.9502 157.912 28.9665
114.388 71.8578 162.784
75.6267 75.433 95.1996
31.6295 37.949 114.26
96.422 21.8829 135.515
97.7886 85.047 21.0646
77.5569 94.2488 228.048
35.8178 55.6298 199.717
57.4905 43.7413 171.126
112.794 120.45 11.9672
101.532 21.9252 127.558
86.7507 36.097 75.5363
101.616 182.567 29.5243
113.248 57.2323 35.7119
38.4795 168.637 372.666
29.5707 257.355 101.177
51.216 171.753 340.119
104.728 40.2523 168.293
36.1958 182.993 41.9183
33.6542 175.059 160.891
33.4034 38.2175 127.634
34.8358 107.409 117.748
90.1508 170.67 25.4204
35.8859 157.393 289.971
61.3296 165.126 218.769
23.964 76.9219 89.9969
53.0841 161.334 225.907
123.124 15.522 131.718
75.9842 73.0126 83.7027
27.4308 40.5483 128.721
37.7225 202.22 92.3569
24.1655 102.681 147.278
38.315 154.129 35.8866
79.8371 205.951 73.3743
124.997 39.1823 110.509
66.7192 168.133 356.763
73.2894 27.148 126.448
63.3003 52.7711 185.761
30.7128 197.641 213.799
61.6714 86.2291 169.344
38.1987 145.27 389.974
38.7757 77.5456 205.408
68.0776 82.4543 38.6032
46.3638 149.307 352.487
88.3263 44.4245 149.318
43.0113 91.3934 213.529
64.55 49.0846 69.969
77.3715 56.6782 51.2775
43.1406 109.274 31.0037
56.6112 209.851 84.3445
31.3324 149.735 296.126
70.1627 48.2004 183.794
60.9354 178.193 335.176
79.2368 100.889 206.187
75.108 125.383 214.933
105.125 36.6549 145.888
94.6963 21.6646 128.101
114.039 51.022 132.623
65.7691 72.1352 205.564
47.4411 155.179 386.703
46.3297 86.6412 37.024
73.5527 188.34 339.732
84.6847 68.8659 38.8115
93.7998 119.047 14.7501
83.3947 178.573 63.2323
32.9977 42.4362 160.015
31.5472 51.2961 176.885
60.6539 32.9228 118.634
59.5679 83.0855 116.829
32.4512 125.106 331.15
43.9871 235.965 101.125
68.3789 198.154 291.884
53.125 47.5443 70.1503
90.7239 80.6944 185.516
103.593 56.3779 38.6613
28.0251 43.4577 100.157
61.628 204.128 295.372
103.612 51.4259 186.257
38.2703 240.932 112.985
106.501 102.31 53.3222
68.9358 36.0408 160.551
91.9646 86.0436 200.731
81.3663 190.063 68.8354
71.8365 31.887 90.5112
91.8056 204.36 61.6155
85.3014 105.257 222.376
37.8564 214.539 204.413
118.438 75.8712 116.587
80.2879 205.187 43.475
69.2798 86.1195 170.096
48.7726 78.24 205.173
65.1365 45.2673 177.339
69.095 177.852 341.704
82.3399 199.87 70.1689
100.717 189.568 34.555
128.534 68.169 34.2797
53.5509 180.358 300.863
33.8877 140.154 38.4073
61.0704 206.034 81.4822
57.4332 156.187 58.8321
54.7721 229.836 89.5238
57.8648 141.624 229.481
56.5588 157.479 31.3206
29.9582 47.6492 84.9516
127.312 60.162 36.9873
52.8143 95.6802 84.9547
114.915 137.943 14.8078
71.5949 97.3376 196.432
54.9556 215.196 299.484
94.4666 20.6055 115.343
25.4733 105.1 96.1681
60.1343 210.585 326.038
32.6431 134.443 307.519
41.6999 106.412 177.249
28.4185 117.992 222.84
102.119 79.151 173.9
66.4483 106.12 227.406
53.3988 214.848 86.4446
93.0546 35.589 72.9218
114.189 129.861 12.7806
52.2212 185.454 280.486
71.4514 172.739 359.614
61.5119 215.392 318.743
50.4242 120.469 87.9311
101.981 109.599 51.2083
47.4148 106.842 220.996
64.7966 200.569 312.046
52.0988 42.8627 80.0266
76.2645 36.4159 79.7872
70.8682 164.084 57.3766
45.2435 206.552 50.2423
126.554 74.8585 30.5258
103.692 28.5514 81.0166
51.9213 116.841 225.273
36.7996 111.403 30.7019
71.6139 95.2013 176.545
72.5155 223.695 77.4856
71 184.989 349.572
87.5469 121.563 17.1222
75.3404 152.643 50.554
78.6363 164.514 51.3823
70.9513 92.2105 29.6852
49.537 105.3 86.8752
44.8119 214.503 332.444
81.4633 25.3613 105.181
33.9479 65.5388 55.1518
45.1325 185.264 279.865
69.6996 45.4685 73.0529
56.7553 177.982 203.281
42.5711 220.09 98.3423
27.2272 176.281 322.088
101.059 81.1105 166.39
32.4909 156.351 226.32
94.1575 81.2597 194.321
118.027 66.9291 30.4212
27.2427 154.683 54.0154
54.4897 193.329 76.906
65.9192 101.09 175.663
51.9316 252.993 91.8612
59.9374 115.946 27.7224
98.7253 26.8796 87.4779
36.1149 90.4413 37.3981
46.9146 164.971 197.164
63.5414 164.049 360.093
100.231 126.107 210.99
71.7575 115.673 24.3748
90.86 63.5455 37.6271
98.0432 105.691 14.3482
34.5622 181.701 284.475
68.804 99.9697 133.964
26.3618 147.314 74.7252
64.6458 224.9 84.5319
66.3065 214.988 310.232
110.513 31.3846 74.9933
66.2612 111.346 174.964
52.0217 236.194 93.6574
122.258 63.8356 132.972
110.015 155.005 18.6253
121.829 67.6069 117.349
30.2911 93.9332 212.925
68.8518 181.717 356.68
48.0732 34.4315 145.913
59.0776 66.3573 47.639
32.2258 131.003 225.909
92.0843 57.6806 44.4049
64.8331 139.966 27.7236
70.9974 115.005 205.641
125.941 48.0906 91.8254
58.2163 245.449 82.398
97.4804 87.3462 55.5301
109.804 77.4023 171.506
74.5408 119.882 210.667
70.5709 138.664 213.952
59.8333 31.6907 98.855
47.98 131.33 27.9028
26.3844 162.583 61.2168
102.322 41.6639 174.701
43.395 213.725 54.075
85.3247 84.6504 141.193
90.7096 25.2285 151.275
23.9338 137.469 176.04
55.4349 106.59 223.008
36.8 131.063 346.731
26.4733 123.081 82.1567
52.5312 197.355 340.982
42.9019 50.4518 69.7691
120.57 32.4007 70.4582
117.538 72.1608 128.102
85.0549 92.3634 228.123
44.6847 203.622 340.194
60.2257 33.3154 91.7858
42.1356 128.451 84.1041
67.8629 226.75 60.7284
68.9313 51.5814 63.5922
51.6482 203.884 49.9086
75.7251 84.0212 166.119
36.9149 104.726 219.504
103.702 63.1396 34.1507
78.4712 45.8812 181.668
42.8103 232.915 69.628
44.7545 139.796 356.587
52.9817 221.456 321.221
64.4363 158.858 55.2455
94.8244 162.963 47.3189
60.4375 199.03 77.8601
114.38 40.8703 53.2515
111.923 185.463 37.4927
32.4024 124.239 361.941
80.7357 26.6137 97.4846
60.1458 95.1258 70.3588
24.227 158.694 64.0874
75.5125 188.539 70.5809
57.1953 165.644 223.255
58.2597 149.941 228.897
34.7613 173.919 282.085
53.996 53.8769 185.867
63.223 116.027 229.224
54.6499 203.613 333.867
26.27 146.779 378.491
90.4043 53.3822 48.8349
107.776 74.0116 191.199
101.305 79.8707 203.866
67.2131 105.304 198.969
43.7281 242.152 101.917
91.7764 22.8769 123.406
43.0375 170.236 322.581
47.9072 52.6186 184.408
127.164 37.1167 65.3292
63.1154 62.4942 52.1611
85.4943 101.732 229.073
75.7131 114.622 232.374
124.873 115.819 21.1822
86.9823 110.158 18.4121
63.2825 185.058 356.036
24.189 97.8346 154.486
67.1444 123.733 26.3907
120.296 68.3683 124.501
101.688 136.048 14.7277
89.0472 82.3799 114.817
115.554 38.2955 114.076
68.2477 66.9847 45.7022
118.746 33.8842 106.638
90.1153 76.8834 218.096
55.1283 63.0355 52.2289
64.8067 190.182 347.864
111.668 68.0625 172.199
96.282 85.1881 211.748
70.8934 75.5547 84.9976
115.248 24.961 100.733
110.955 40.6072 137.296
23.49 190.262 367.759
111.401 109.967 11.5423
47.7374 138.89 47.0388
48.9659 43.4649 173.088
63.1809 58.8019 192.82
90.4705 23.1 105.394
24.3632 146.006 206.617
72.0792 183.465 35.2098
43.2284 70.0102 48.2854
55.1535 108.014 85.0455
81.8244 180.705 29.4724
101.473 115.703 13.3879
123.322 95.024 44.9169
79.5278 26.764 141.767
96.3406 83.7972 128.397
105.517 22.179 117.125
88.0978 190.729 63.6212
113.194 63.1575 136.588
37.3249 72.2927 47.6338
24.2384 105.222 138.923
128.463 46.3251 102.54
82.6526 57.9412 197.456
52.4977 36.7996 92.0116
33.3395 241.814 125.472
118.213 30.1671 128.574
86.1086 64.5289 148.214
58.1997 128.557 229.731
92.472 200.331 41.0928
93.0369 70.6559 213.031
57.1366 126.021 19.1718
79.7971 97.5547 201.846
62.6006 101.391 181.723
97.7203 25.9782 152.312
107.095 84.0665 188.096
48.9488 206.608 335.04
114.243 78.4006 129.196
45.2266 110.949 101.541
85.5286 27.5043 89.3662
113.207 94.0778 15.6788
94.8288 32.9489 167.339
104.489 67.7768 60.9251
59.6043 196.319 340.045
116.078 30.7041 84.1287
116.38 36.4054 60.5828
97.3231 24.2035 146.701
122.613 124.272 16.3572
86.1952 47.0036 186.983
121.021 54.8237 137.221
122.445 56.3818 37.4156
88.2255 58.927 202.076
74.3649 231.818 67.7045
67.5251 234.867 82.5343
85.6895 26.7515 144.937
128.439 73.4336 44.7853
86.0107 85.3443 224.735
92.5956 163.323 23.2957
124.53 47.3342 45.0939
85.2467 25.9553 152.566
99.6808 53.6705 193.56
65.344 194.333 340.035
94.9294 84.1052 157.316
56.5459 97.3867 219.285
66.36 196.918 75.284
69.9112 205.667 78.0572
104.659 74.6161 200.66
84.5648 46.5392 62.634
125.374 41.4145 55.0719
95.3761 92.0703 56.7651
115.097 26.7787 92.5128
111.061 24.2201 104.818
121.069 85.9335 22.7545
97.0841 79.7507 179.944
30.965 194.116 357.398
30.4214 200.175 293.783
45.0886 219.68 319.085
82.4432 37.901 170.722
46.068 110.126 80.8468
95.427 61.5577 204.908
120.324 45.2984 103.974
102.471 189.882 52.4086
64.0539 242.059 83.4442
64.6551 92.6345 66.8208
22.5491 82.6833 135.305
109.206 78.0464 55.9825
61.1188 171.221 210.358
90.478 75.9393 101.82
91.0815 41.4309 180.2
30.521 212.042 120.178
63.8653 155.007 208.766
73.8926 198.515 74.7441
103.102 164.628 22.8825
70.6579 55.3215 56.5245
28.9777 74.3372 50.1654
63.3604 206.241 325.912
98.6488 37.0721 65.4046
54.1744 142.682 205.006
63.4661 98.5265 78.4515
48.1964 117.969 75.4702
110.918 52.3715 158.25
74.6119 165.045 28.2826
66.435 138.449 48.0124
126.843 99.4719 25.9672
92.1634 26.3507 139.64
59.4615 142.512 19.3685
65.1863 206.381 48.2452
92.3348 63.2634 151.282
120.269 27.5903 100.364
34.4909 220.251 319.545
86.3897 53.2283 175.687
92.7801 135.037 17.9391
81.3931 124.454 20.7498
79.0863 34.2557 165.008
70.818 167.339 367.24
27.4049 159.817 51.0691
96.3135 42.8354 182.089
44.3924 214.493 193.732
91.2778 37.662 174.82
72.7871 176.49 30.8458
