ply
format ascii 1.0
comment Created by Open3D
element vertex 205
property double x
property double y
property double z
end_header
41.626 71.7725 68.4435
37.9109 51.6944 77.1961
36.5177 47.2469 42.8508
43.1891 40.0265 31.0533
39.33 54.0918 70.2718
49.0923 24.9102 88.822
47.407 46.0682 45.7252
27.6274 67.8823 51.9393
41.5975 53.8876 37.4713
39.6315 47.1683 58.0053
21.2444 82.5522 50.3194
40.3275 36.5809 90.7881
49.8101 48.1563 57.2529
54.585 20.5034 60.3634
55.6085 32.9569 72.2674
40.6005 66.8133 48.5931
34.053 63.4514 59.1409
45.5022 69.9241 79.8451
34.2227 52.2002 55.649
52.6233 67.9179 108.346
54.81 25.5922 81.2097
40.2669 52.9744 91.2625
32.4965 70.5634 41.9828
26.5309 73.4861 69.956
49.8328 31.0821 43.855
34.2116 62.0214 45.5783
47.8022 25.1064 37.4247
24.4 88.2173 54.7839
42.4382 46.7594 51.6895
30.8512 59.0351 65.9301
28.4802 61.2538 45.3533
35.8602 57.9871 83.1137
38.8129 43.9078 81.0216
48.6177 59.4042 78.2384
47.8123 66.1132 49.6265
25.0975 59.2466 86.283
36.0033 47.8084 95.777
44.1072 48.2085 95.0053
49.4762 61.5893 130.776
55.272 49.7629 80.7953
41.6796 72.2364 54.8648
42.105 60.5048 87.4125
25.3503 76.3155 76.6705
34.6781 60.1561 33.7884
52.7056 34.639 36.6853
31.4078 53.5067 70.6986
48.4734 70.8072 129.24
21.3177 81.62 61.171
57.1074 54.1437 60.0196
59.4509 43.9909 71.7136
48.0279 65.9424 40.8563
31.0922 77.012 72.6505
58.8831 47.5376 58.0381
41.7911 65.3608 73.0756
35.5235 75.9706 67.7454
55.2356 45.3606 37.7255
45.9057 76.1396 122.156
57.8522 71.3144 119.378
53.7334 61.6269 120.268
41.8515 40.4511 41.077
44.2938 61.2629 42.9083
21.5045 69.2516 77.5094
49.3398 53.4834 37.5756
37.1399 49.4341 35.0302
62.7129 48.5256 67.2496
27.8735 44.1152 68.6507
54.3066 48.3478 43.5616
32.3271 56.7257 60.3058
49.5107 69.4262 57.087
52.0489 30.3821 51.2137
44.2527 47.5126 81.9026
27.0586 71.9626 59.5816
43.5214 49.9352 31.4269
27.4989 68.7953 76.9206
30.6484 78.3437 66.0649
36.8435 69.1946 49.7895
47.8239 36.5127 83.0534
49.4395 49.1428 71.8918
48.2671 33.2021 94.279
52.3238 32.3038 89.5646
56.5281 43.3782 86.3548
37.2453 56.1732 45.0561
62.1817 42.1886 43.0827
42.5407 66.4923 125.501
33.0757 68.863 49.994
52.7919 55.77 115.082
54.7576 49.95 66.8288
64.7235 35.6572 47.2078
26.0003 76.7408 63.497
67.7296 51.8688 60.683
33.5162 72.7447 78.5422
33.082 63.2884 39.0049
59.6742 62.6705 56.6508
36.2519 75.4421 52.3142
39.4182 62.1064 40.3238
36.6079 75.3227 59.953
35.2806 44.7854 63.4808
44.4242 55.1687 80.5246
37.2125 40.6233 28.1361
38.1946 64.0339 85.9986
48.468 66.9834 120.303
37.0138 53.2675 30.3033
41.3541 58.5455 128.744
51.5759 60.0251 68.3363
53.1714 40.9543 91.6597
54.3981 63.0187 57.7943
65.237 34.7849 66.4922
48.2862 65.2255 75.7425
33.1712 67.8248 72.5055
41.9824 65.5413 118.812
34.3398 40.9012 94.3536
62.2384 32.3772 42.5541
62.1863 22.1858 77.9819
53.3115 41.0161 37.8213
45.8514 60.217 112.107
66.47 33.6826 72.565
33.0513 46.1053 74.4719
58.0667 42.5022 49.6453
50.9827 46.4995 87.0737
53.4156 18.5515 75.7568
61.2029 37.5627 86.3561
44.4216 48.7284 88.7066
46.9546 38.6269 39.6308
26.1915 77.9413 54.1575
35.0799 53.7197 91.9318
45.4115 55.7293 88.4624
42.6258 71.515 127.798
29.7355 52.0689 98.6629
51.161 21.7813 68.7164
46.4663 43.5127 88.2816
45.595 33.6805 36.8278
51.0251 23.4117 49.705
30.2949 59.4927 82.5808
43.6678 31.3141 95.2077
55.6229 47.8237 49.2609
59.5727 33.7841 51.4052
31.2998 72.5977 63.2068
59.8693 26.62 52.3107
64.5813 42.2606 49.3955
69.3199 37.8318 51.1465
63.2633 30.4653 79.7896
32.2274 64.2983 78.3169
67.5216 28.9045 63.3791
32.3301 77.0985 55.9835
49.9883 46.5475 38.7717
31.862 59.1591 89.1719
40.5128 39.6036 99.943
35.5489 86.854 5.52924
34.3401 45.4598 68.4183
56.6716 57.7268 68.7782
63.098 34.4706 60.5435
36.5765 60.4724 78.3326
43.8724 72.305 61.9269
39.5068 69.6263 78.191
56.1837 19.8343 68.3903
53.6836 27.8924 40.8469
60.1077 23.8181 66.9049
64.2256 24.6497 68.7752
49.1231 41.2729 95.5482
51.5844 31.4646 80.0662
55.1692 37.6397 45.7598
31.1266 68.8515 83.4249
49.4217 59.2991 44.6785
48.8923 53.0219 83.7959
66.4197 40.2969 73.3695
56.5039 57.6071 49.0744
54.038 58.0264 73.8974
58.2907 28.7063 47.2289
50.6726 54.2565 78.8746
29.7608 88.1695 7.46602
39.2405 55.5388 100.907
58.6348 21.0498 72.8678
44.0574 63.8892 132.359
62.5547 27.0889 62.0488
53.9295 44.1999 79.497
50.9768 57.1017 40.6271
56.5356 32.6428 43.9986
46.9392 43.6004 38.2992
40.0128 63.9309 95.2894
39.4143 46.8677 101.957
56.5922 42.1481 43.6638
38.3224 56.3313 119.431
59.379 38.2034 78.2014
42.0923 40.743 86.7993
63.5899 40.8866 59.6236
48.0372 50.6961 33.8005
44.7418 64.1982 79.8673
57.9304 37.1083 56.9731
26.6269 68.9541 83.7149
53.7394 65.9161 51.408
37.5761 58.9653 90.3089
46.2471 70.833 46.4436
59.5616 48.9301 50.7049
65.8952 35.3434 78.2049
55.4766 50.4448 74.3293
61.7971 38.5611 55.3924
36.8635 69.239 74.4646
55.5159 24.7864 47.4506
65.5129 24.8085 74.4701
58.6887 31.5414 58.0491
58.5987 22.1956 55.5431
58.7472 62.5163 65.4313
30.5851 71.9378 54.2232
43.1199 45.4801 33.6212
53.1311 39.6983 85.5264
