ply
format ascii 1.0
comment Created by Open3D
element vertex 866
property double x
property double y
property double z
end_header
26.7301 119.8 197.118
22.965 115.515 180.967
29.2221 169.399 150.672
31.0742 116.8 204.623
31.3791 163.3 89.0146
49.7883 149.988 195.353
25.7906 98.3636 99.8917
32.6575 130.842 202.327
57.1584 187.265 112.379
44.7577 60.5977 81.3735
20.3321 128.597 130.865
21.4156 115.58 145.515
26.1937 108.071 196.972
54.4716 176.2 163.39
53.1143 89.6479 196.19
31.9283 172.594 161.826
30.5116 76.7396 182.107
78.3517 149.733 159.207
67.0927 139.211 182.011
37.1123 120.814 210.827
51.253 63.922 131.09
47.4525 149.158 70.0398
34.4621 72.8554 157.848
24.1267 164.961 147.632
54.574 188.195 124.765
52.8635 62.4694 75.1671
23.2984 161.014 154.901
47.8944 153.09 37.1748
28.9913 128.849 22.6548
61.2942 74.6772 114.459
57.1296 131.58 73.4104
49.3453 183.294 108.52
26.5439 83.7282 181.246
44.4785 65.2513 129.384
20.6709 125.559 92.7643
23.2436 33.1296 73.3219
26.3077 93.8285 127.94
51.4673 187.836 117.598
20.1799 105.402 166.94
56.0562 170.29 78.6332
62.48 149.505 190.096
24.6544 86.4591 173.923
21.9271 158.717 145.222
95.2246 5.0688 93.7656
25.8323 133.029 196.025
33.1473 73.3846 135.556
56.8834 154.013 191.212
39.2327 173.033 167.759
23.3118 118.418 167.962
35.7615 178.255 133.22
32.7605 85.8721 193.629
54.3044 68.2136 160.009
41.5055 64.9438 136.399
35.4319 68.5181 139.565
34.7995 132.529 75.2665
65.8744 171.582 167.619
28.1848 101.37 201.731
22.6548 150.505 170.289
23.9211 146.653 180.26
60.6065 166.772 175.188
39.2653 74.5342 181.72
60.7808 182.938 97.5082
53.778 142.193 70.5115
23.9979 118.049 87.6649
19.9929 117.474 103.459
21.2544 142.685 106.548
34.4461 95.9699 88.0109
44.3029 109.855 207.381
50.9551 67.5489 117.264
22.2719 152.983 151.234
20.7552 17.3035 187.588
24.4233 90.6064 149.141
47.9773 120.607 133.061
89.2287 9.47428 86.3827
47.6844 40.1545 78.049
87.3057 153.627 128.869
64.7229 100.127 103.159
61.1046 77.0217 157.611
19.0945 109.191 186.703
32.7506 55.6215 62.7533
29.3723 109.283 203.33
37.302 68.002 130.154
31.7637 167.978 133.887
21.5784 146.975 164.404
50.5593 137.678 203.622
64.2017 179.385 92.1705
20.5608 102.796 149.154
46.9061 72.7921 177.625
32.865 163.773 155.479
45.7175 184.968 119.736
56.5196 66.868 120.923
34.0343 72.4644 145.655
24.9706 100.03 110.696
16.4206 127.462 99.9806
51.5322 85.0909 98.2096
61.4565 7.25677 70.9153
75.2064 97.8951 159.086
69.46 188.538 129.245
24.5921 133.787 88.1319
51.8469 123.471 205.8
22.7297 122.857 187.632
84.6544 91.9265 126.863
58.9638 131.634 197.613
42.2243 181.821 109.234
24.5857 160.454 136.285
21.572 110.678 103.73
62.8606 76.9465 147.667
31.7747 41.1501 180.099
37.0384 82.3697 97.5435
23.1768 101.257 156.583
51.6603 120.302 72.6486
56.5111 92.8933 188.284
50.1727 99.0443 201.702
45.2941 129.45 73.5971
41.0396 148.087 45.4272
24.8506 105.768 99.3278
27.6189 164.292 162.228
36.2826 128.273 207.638
22.8945 163.027 105.58
75.3686 98.5888 135.657
30.609 77.1773 139.697
29.5878 108.856 83.8925
38.5878 60.9537 81.3952
27.1868 147.697 84.7622
82.9665 164.986 112.641
22.4107 108.305 127.739
28.1051 84.3742 123.706
51.1599 73.7864 168.47
19.8463 113.858 157.103
34.1331 175.239 113.919
82.4091 150.403 148.415
49.7176 63.7552 140.382
53.8474 156.34 184.129
41.5315 138.407 75.7501
28.7739 101.28 89.8359
34.1259 110.414 208.781
37.2224 161.969 34.1044
27.7113 132.916 81.2877
33.0456 30.1498 80.5802
74.8598 161.916 151.587
30.7459 78.8818 127.165
35.6445 178.622 122.699
24.0827 130.919 187.684
51.0114 163.883 180.745
57.9959 145.913 194.426
65.8607 183.732 104.304
27.5407 117.785 127.613
50.4912 78.2875 100.207
43.4083 175.86 82.2331
38.5995 102.915 206.512
66.9475 129.134 86.4669
28.7155 81.8762 115.319
42.2202 159.601 177.877
22.9461 89.7536 192.315
61.5988 190.972 125.478
21.8555 138.573 178.699
78.7023 174.785 109.495
31.6489 24.2899 192.574
27.8481 82.5023 146.96
36.5491 71.3822 118.714
53.6611 115.017 76.0603
71.4683 142.937 175.091
55.5692 66.2078 136.981
45.2366 67.19 158.437
75.539 152.383 93.2906
49.2794 54.4027 70.3922
25.53 78.7948 175.787
37.8145 176.709 92.7115
64.5066 87.3112 109.329
27.363 162.088 97.0813
22.7421 104.154 105.635
74.9441 183.527 124.922
55.4452 172.429 173.055
24.7221 127.222 85.0956
31.4236 85.2345 99.0986
74.5743 164.132 161.562
60.8005 174.164 171.748
42.3587 64.0348 143.483
54.3434 107.792 78.4239
37.973 170.087 80.7598
47.767 66.0829 148.452
46.3444 172.183 169.843
37.6995 110.048 83.7904
47.1038 56.1086 87.0457
67.0259 119.093 181.323
41.6945 150.41 195.313
81.581 162.917 147.511
20.1984 98.6341 188.592
36.5317 172.126 87.0255
62.1263 70.6063 122.967
49.5931 155.022 189.999
26.405 165.44 119.021
30.1425 148.096 190.736
26.9185 139.752 80.8056
19.3763 119.476 151.163
18.5222 133.068 112.278
21.9089 124.064 146.597
57.7389 124.752 74.3065
56.4083 99.5679 86.0292
74.712 143.807 97.0628
48.6984 67.4106 164.371
57.4895 163.372 180.82
39.8464 177.371 160.766
36.1116 69.6804 151.387
17.0755 125.165 108.805
39.2883 113.333 209.966
37.0523 166.283 171.983
23.3086 91.2335 157.355
19.2954 49.9217 80.0017
62.6689 159.584 77.583
63.8176 76.8703 121.32
19.6093 134.732 90.1395
61.0599 67.2008 131.068
53.1148 182.9 154.708
21.051 146.623 93.9593
19.7773 137.54 161.882
33.6065 140.118 76.2953
26.8021 81.1993 168.897
34.2391 163.258 177.175
35.0405 48.5342 90.0593
31.0871 174.955 143.134
27.242 84.3897 189.781
25.0745 44.1181 81.2609
26.716 88.7872 113.135
76.4346 169.95 154.669
70.4104 102.553 110.652
25.9542 126.785 33.0747
44.27 73.3014 112.19
37.065 88.5999 89.8929
40.558 138.462 203.168
28.0674 99.557 124.403
44.3544 181.654 99.2622
19.5084 136.644 171.251
42.9225 94.8176 86.752
28.4405 119.351 80.0829
20.825 100.515 120.292
31.1029 84.6735 131.385
51.9655 54.8687 83.484
26.4309 128.451 163.865
53.881 186.397 138.047
54.62 64.6144 150.844
63.5666 82.0837 151.979
54.1311 178.863 84.3088
65.6391 147.868 182.058
73.1429 181.725 107.985
24.9601 147.364 153.746
64.6889 188.029 115.557
16.8134 135.747 122.751
26.4141 169.097 129.099
33.6662 35.8801 84.4748
32.0012 76.4386 175.602
31.7222 76.1858 150.497
33.1721 104.091 205.898
40.0638 66.6868 155.453
55.9086 79.8088 179.794
78.4343 101.419 152.909
47.3175 92.8721 201.602
63.3426 72.4982 134.861
54.5845 114.703 202.697
36.512 75.876 187.898
22.0972 97.1896 164.526
24.8641 135.595 32.9894
45.5763 101.722 82.069
50.9256 179.983 91.5906
24.8684 153.139 176.088
24.3098 140.367 87.4069
65.9165 99.0006 114.383
33.9399 19.9056 104.613
30.7775 167.273 168.394
42.3542 71.3657 169.506
60.7442 66.3429 140.423
46.9347 185.06 132.19
35.5451 140.239 200.795
70.4474 156.238 179.301
74.2913 182.495 115.796
41.5206 56.5582 88.4667
32.44 174.644 125.201
61.6425 138.484 195.058
54.4716 150.871 71.3883
67.436 136.579 84.3197
67.2725 165.619 83.0737
50.5678 143.312 200.852
57.1898 173.498 86.6429
63.3907 175.055 86.4718
60.0142 98.0213 107.481
23.0802 135.673 133.38
45.584 77.734 187.663
41.096 106.081 78.0403
43.4902 144.174 202.078
72.3667 162.889 170.316
41.8704 169.256 75.5797
54.4285 66.5693 126.537
43.1711 184.863 137.074
21.272 112.237 95.9882
75.2009 135.899 163.402
40.8096 67.4779 163.559
48.6913 183.307 141.643
23.9642 145.577 136.534
20.0837 40.2695 71.3591
45.7779 84.0797 194.072
63.4819 186.448 146.703
25.4494 147.075 186.71
81.3797 172.527 122.676
73.9428 138.493 94.0487
24.1655 115.041 162.382
22.6945 139.904 154.589
21.088 106.452 193.299
31.196 143.933 196.582
35.4995 157.383 179.917
70.6751 151.148 87.4174
27.7494 92.2518 195.99
43.1066 159.216 190.1
59.2735 114.603 78.9753
53.4629 130.759 204.73
21.5545 99.2266 195.205
79.4775 179.443 117.457
44.2236 75.9999 104.585
20.0751 141.696 127.503
71.6193 92.549 138.831
72.6798 118.262 107.825
59.9636 188.889 119.456
54.1828 183.635 95.3112
43.4771 126.323 205.786
20.3448 119.092 111.502
39.1807 75.3976 109.858
66.2913 177.569 188.972
24.007 56.0183 75.0174
34.1919 79.6304 110.822
76.1701 94.4275 106.782
43.9424 57.0902 65.5484
21.1943 124.043 156.854
26.4289 127.573 198.541
34.3275 23.464 182.492
25.9482 86.0766 156.387
26.6568 118.307 96.923
17.2623 137.748 107.474
31.983 157.876 42.4454
71.1692 126.242 174.915
63.1129 83.759 179.83
58.7873 187.075 142.249
16.8908 126.752 114.727
39.9789 134.534 208.371
69.2272 158.902 84.0374
63.1094 169.387 82.1922
56.787 80.2596 103.501
51.4683 82.4882 189.814
73.191 158.061 90.5766
25.7217 87.9104 137.415
28.9009 139.108 194.975
23.6098 130.07 178.684
63.3748 134.977 189.125
77.4672 173.093 139.491
84.7638 153.117 141.055
56.0579 17.6573 90.8285
42.764 179.177 89.9389
32.0538 35.831 73.0109
59.2294 169.256 166.981
42.3858 84.5138 93.7487
26.3141 108.107 93.2282
75.6747 169.592 95.0215
33.7601 96.4532 196.676
63.0852 79.9901 109.293
29.4927 131.161 149.978
86.6394 4.80389 92.3187
41.0169 181.012 118.015
64.028 107.34 186.809
31.1426 123.759 206.685
76.4549 139.285 158.141
41.1627 119.74 76.478
53.4743 74.9127 106.432
25.2641 148.223 111.72
31.3133 128.123 79.1685
69.6945 107.943 107.674
46.2108 88.2845 93.2736
29.5111 92.6384 94.0385
41.3402 180.186 150.686
31.7436 154.01 186.563
37.8091 32.1346 75.2112
79.3536 114.49 133.049
55.2784 162.907 74.586
78.1037 2.53668 87.5745
31.8673 75.3691 166.467
38.2678 103.146 82.1624
61.8142 139.519 76.0156
17.9544 129.731 124.753
16.6438 131.78 118.067
36.3522 177.738 104.588
20.2289 149.516 142.756
57.5532 184.316 149.983
77.0983 168.122 146.581
69.8521 5.12178 76.7959
41.3409 66.1106 149.318
49.4886 99.4507 85.4948
48.0597 184.829 147.669
22.3082 102.329 127.249
25.3841 153.004 124.839
61.7687 72.0022 162.733
26.0612 139.102 188.575
69.9808 150.868 174.963
66.5293 5.25467 100.175
40.2731 94.6082 203.543
23.9633 155.212 158.663
45.9331 116.36 74.8513
29.1396 94.1923 138.499
26.3016 159.501 171.873
22.1024 124.782 173.63
40.4416 182.762 126.988
16.8134 134.684 98.5213
23.3217 46.8394 64.9359
79.1328 155.999 104.443
67.5103 184.198 150.69
16.9893 139.785 116.917
66.9206 186.973 110.164
64.6438 115.322 191.298
55.1579 103.982 201.891
27.8619 95.4186 115.54
18.4711 124.847 121.297
48.6978 173.504 78.532
24.1667 158.856 101.123
45.7002 117.816 210.132
79.9707 173.381 130.951
60.9793 153.354 75.9346
24.9913 127.329 134.304
25.8526 152.533 99.8419
55.5223 157.263 73.5913
59.2361 8.33389 88.4619
21.8305 104.673 113.094
32.5193 176.913 151.912
72.8465 101.13 165.43
69.4179 174.9 91.1286
34.745 149.687 194.805
20.5665 111.474 109.455
41.1402 148.177 70.8411
63.0216 129.659 79.4499
71.4296 183.568 138.385
17.5981 179.038 14.8325
48.4625 109.8 77.1565
27.5205 23.8421 173.347
19.7647 139.804 94.026
88.0984 158.029 123.471
24.3752 87.8104 166.114
38.9725 85.7034 197.904
39.6296 79.5279 102.9
62.1578 91.6312 104.311
56.5224 186.454 103.947
62.0612 183.005 154.884
60.4467 146.633 73.8755
65.4664 189.323 137.807
23.5966 179.664 12.6622
59.8696 107.477 197.788
62.5197 93.5447 114.088
81.0316 166.118 106.33
30.1146 159.294 81.2228
88.7209 97.0555 123.71
16.2987 132.795 103.752
48.6774 72.775 105.375
20.742 114.297 114.531
68.5825 133.302 92.1822
51.6173 168.506 172.909
29.9035 124.262 85.3658
30.1345 62.8451 81.7883
26.2444 138.376 169.644
19.0665 153.343 120.387
81.527 119.716 158.309
27.3216 169.092 110.439
57.314 124.925 200.291
60.582 71.2643 156.138
19.8425 114.257 122.698
26.8749 99.8835 145.485
82.4842 112.428 109.14
27.9854 153.798 182.405
52.1204 75.6825 113.341
42.4566 46.2262 90.3884
31.3001 89.4186 103.62
79.9585 92.1564 114.247
20.9681 147.271 102.007
50.638 127.419 74.489
71.3593 179.281 150.879
56.481 138.599 199.732
58.4303 178.958 89.2249
18.9309 141.593 100.127
42.8999 98.6132 205.634
20.5997 94.8799 184.015
52.1713 47.3535 76.2629
29.7504 173.987 118.027
62.4056 178.43 161.339
22.0832 105.394 179.382
24.4761 86.6507 130.188
60.487 112.355 84.042
40.3857 51.3219 89.7899
28.0862 165.864 101.359
62.3635 70.3539 146.62
70.017 88.2717 161.251
24.1474 132.018 144.935
33.2586 172.322 99.3056
25.5232 98.3693 132.253
24.7891 145.089 146.304
75.2983 184.549 131.28
63.8027 106.888 92.3625
23.0758 35.3732 181.48
25.4577 93.4207 166.441
72.2212 106.014 167.862
68.2607 149.978 80.7863
82.3077 126.98 102.488
45.0601 115.823 134.492
24.0435 111.346 171.273
46.2195 169.308 175.947
20.1111 148.371 125.866
26.7655 160.458 126.501
55.8888 74.1559 116.964
25.7801 121.325 135.532
32.0535 173.423 106.822
22.4318 101.849 172.099
38.7185 79.3589 193.624
24.0659 154.304 105.473
21.3205 145.964 118.452
34.3306 95.0687 202.756
76.8966 155.388 152.379
28.7515 168.377 140.72
21.8481 96.0603 114.245
36.4151 180.029 113.982
66.7723 188.465 122.903
60.3954 75.9732 171.712
24.3627 114.22 194.962
30.1079 136.07 199.692
20.638 160.185 127.108
20.3391 62.1339 194.656
57.7124 70.6349 166.33
38.4509 140.429 68.5242
91.7501 136.92 123.956
40.7436 67.7125 122.128
78.595 118.62 103.705
81.7913 87.0264 121.643
27.3667 155.389 90.6925
68.5188 74.1723 142.11
74.3701 92.4179 155.453
84.6267 164.503 123.536
37.07 124.258 74.6437
45.6853 136.903 207.193
24.4258 147.933 88.9049
63.1233 67.7213 152.107
29.6708 160.38 175.669
85.2919 1.78387 100.612
55.4378 90.2766 104.023
83.6032 103.419 111.768
77.1561 183.345 136.705
37.6003 163.195 80.0822
38.1756 153.05 73.1449
48.6911 46.5171 69.9001
54.4882 72.3433 173.88
68.3736 95.7176 170.51
33.0633 171.159 92.0582
29.3962 82.7033 160.462
61.8957 102.838 193.601
61.8504 85.9863 162.643
22.4421 156.753 111.097
32.6812 72.418 128.12
34.7372 126.632 35.505
63.1364 73.1546 128.145
45.3151 160.668 71.8719
20.7605 129.255 162.98
72.9249 4.20846 86.7216
62.6927 79.0014 165.794
63.8376 82.6636 137.769
16.4904 145.101 13.0317
42.686 31.6683 78.7282
37.4164 38.1843 173.947
61.8386 91.5546 179.966
41.7223 160.541 44.0023
64.3891 81.6283 116.047
28.5361 83.6819 108.581
23.612 137.285 183.341
46.591 49.7483 87.3638
21.4699 122.872 127.754
25.5438 90.454 143.102
25.8476 39.9777 87.5855
52.0229 92.8623 91.1813
72.2929 109.018 115.21
24.2621 155.921 165.435
60.1291 192.09 132.603
45.3945 166.226 181.542
19.2596 135.178 127.917
64.722 157.081 185.404
90.1942 135.217 110.877
19.4936 42.1069 77.8614
46.9024 65.6942 122.591
25.7672 153.417 85.0659
31.6315 149.921 77.0698
60.7582 121.678 78.414
24.5246 93.7581 105.439
21.21 122.887 116.755
68.1864 80.215 125.416
68.8673 57.5251 121.764
66.978 165.152 175.903
87.6934 14.2595 81.6118
71.1308 169.62 88.062
48.7915 186.589 126.949
50.5554 47.2434 82.0243
85.4362 13.1528 93.2629
50.8145 107.565 204.465
68.7141 91.0807 117.334
23.1596 108.843 135.841
45.7286 103.809 205.863
74.3325 113.195 159.152
45.8857 155.432 70.621
47.998 162.906 186.368
32.9087 147.375 82.1891
23.842 154.226 132.608
22.9403 143.885 173.587
26.2714 56.8916 67.0781
54.8505 98.4906 101.931
76.9369 114.145 112.967
70.0794 185.349 119.621
82.5203 108.292 140.923
29.5545 110.408 122.608
69.4757 88.6513 155.026
46.5674 139.469 70.3545
74.7616 97.4475 150.628
58.8052 83.4021 174.088
75.4427 96.2335 98.4289
78.3894 158.136 143.404
62.0273 103.757 98.0367
33.3006 43.2405 93.4375
51.2704 74.1182 183.113
27.5844 32.2898 79.6517
58.6624 99.7436 92.174
76.6389 115.51 164.832
70.9557 183.787 144.442
58.0518 90.3422 98.2496
24.203 162.352 112.495
41.7752 112.768 76.8068
29.7933 121.434 142.747
46.9095 44.2937 86.3513
47.3783 60.942 74.8344
26.0934 49.8702 87.425
67.371 82.8809 119.649
74.8966 104.67 91.2439
28.5064 112.21 88.346
32.9708 102.825 84.3181
74.2629 99.1322 118.819
56.1342 97.4828 199.035
68.475 87.2421 123.892
65.4438 145.861 84.4732
63.5415 188.86 131.459
73.5428 88.1404 151.187
51.9576 135.651 69.7991
14.3866 19.9181 184.409
71.0232 82.2219 146.497
33.9079 60.2378 76.8261
83.1256 150.636 107.608
22.408 87.6368 116.915
30.4821 155.502 120.933
19.6046 110.133 153.415
65.8552 113.612 107.568
40.0327 35.298 81.1613
46.0371 69.6544 115.288
43.8588 88.5908 199.87
35.9399 158.422 77.2068
70.5324 87.2676 134.644
83.8367 111.025 133.652
34.0156 49.3381 66.356
42.9405 40.4602 85.3422
25.0834 135.811 39.1908
47.5778 93.7146 89.5626
21.3542 185.285 2.95878
27.8943 114.66 139.795
79.8214 110.212 159.172
75.0893 163.934 92.3712
78.6178 165.356 98.9665
46.9661 178.887 90.5557
69.4664 102.581 134.135
68.1856 76.3632 136.775
61.9836 160.956 182.085
59.028 93.9734 195.773
85.0318 125.64 152.869
71.1775 89.4637 145.342
73.7913 101.57 143.436
60.6641 104.594 85.9171
63.4431 140.187 83.0659
82.1439 139.706 154.872
17.426 140.607 111.837
24.8434 31.336 190.672
71.2511 90.1518 109.95
82.8735 167.914 118.791
82.8885 114.687 153.847
77.2633 107.501 153.56
86.238 6.36329 77.0793
38.3319 149.449 77.4769
31.5316 87.403 93.2873
67.5762 88.4749 170.47
26.3786 83.153 152.743
86.9213 143.853 162.431
84.5642 162.663 139.441
72.2032 127.803 169.497
73.8469 116.941 75.1037
76.3599 104.964 159.78
77.5492 176.968 146.623
69.1032 181.174 96.8748
44.2536 177.064 154.948
71.3231 151.715 165.597
70.1309 113.62 174.706
22.7235 141.442 121.516
59.9026 97.4666 97.3878
38.7551 61.549 75.0936
89.1085 144.668 131.138
72.9394 175.445 157.254
77.3235 136.826 102.202
20.8197 140.652 145.852
78.2087 11.4155 86.7132
74.1595 176.126 97.6381
57.4401 82.9924 185.408
64.1303 95.7778 185.966
18.0708 44.2227 83.5628
20.8775 157.847 116.446
82.1155 120.615 150.775
68.2587 107.698 177.328
72.928 93.8979 125.86
55.4543 187.992 131.606
62.3612 87.4333 172.695
77.1316 157.811 96.7309
22.6879 107.646 160.138
66.838 100.846 181.727
38.2376 42.2873 87.9751
39.4714 74.0465 176.003
36.2047 31.9831 182.577
76.6388 114.764 151.134
76.9245 158.365 159.196
50.3141 176.034 84.3657
89.9023 129.379 104.747
87.4973 132.16 139.176
67.6586 82.9869 142.184
79.8838 102.217 145.636
32.6391 40.2741 87.926
22.1607 129.615 140.253
65.4211 121.633 97.1946
30.2355 52.1144 84.6254
69.6558 86.5084 129.213
69.5896 173.438 161.734
41.4337 163.58 184.463
67.6416 76.9895 129.539
77.2128 3.01248 77.2229
75.0653 165.321 140.648
83.5946 152.903 118.274
39.4718 36.9272 87.9813
21.8875 108.345 116.564
32.3835 87.3512 111.4
86.1611 134.001 149.387
14.6869 87.7077 173.599
87.9655 140.291 135.03
84.4513 106.862 95.4219
37.5962 157.057 186.162
70.5769 109.501 134.846
63.8133 115.302 88.6606
90.6225 138.31 141.953
84.291 148.728 133.863
77.3438 124.577 164.491
82.0786 10.3347 82.3589
60.3311 84.9164 103.164
77.6909 105.03 139.499
86.9422 117.62 144.319
78.6106 160.897 101.844
55.4122 94.4314 95.253
30.6134 58.2263 71.2106
17.2965 39.7992 199.452
66.0753 115.295 101.147
90.7577 144.743 158.956
58.4296 76.1345 109.21
54.8573 50.0045 70.4713
43.0932 60.2657 74.5929
64.2187 172.975 193.799
61.3485 125.408 181.756
21.5539 94.676 176.022
37.7478 61.9503 68.4286
26.1794 51.7155 80.7233
79.3864 121.854 98.6969
29.9528 43.7642 83.6157
30.4502 55.8802 80.3344
73.9628 93.7363 146.485
31.1877 31.5486 177.466
79.7014 169.948 114.517
85.2797 159.958 117.392
33.1391 82.7438 147.052
85.2226 108.145 118.909
66.4204 124.417 92.3637
45.4614 110.548 81.35
53.5475 55.4157 78.4012
88.6532 128.29 95.8408
26.2461 98.6418 197.019
70.2237 102.17 175.439
36.5888 118.978 82.8734
20.5573 50.5405 74.386
63.321 72.6538 140.092
47.7578 164.505 78.1198
33.8195 58.3333 87.9507
22.2154 136.428 138.855
64.1082 123.961 191.428
82.6197 124.979 159.793
20.9162 132.718 20.9489
68.327 85.1902 151.076
87.8308 129.117 148.168
21.4002 39.2638 207.112
71.845 93.4313 162.132
74.9054 178.329 102.122
81.1917 141.761 103.07
62.5367 95.7359 191.256
71.1034 142.706 88.4547
70.9893 111.35 169.428
66.1683 97.0748 178.565
74.2407 96.759 142.447
71.5413 92.2441 131.24
38.354 181.791 139.476
75.2392 152.733 100.465
26.3149 111.93 132.115
35.685 56.6011 69.4161
28.4509 43.6253 67.5428
68.4585 88.1115 140.625
83.5611 130.286 155.434
67.0758 82.9684 132.658
82.7753 154.276 112.979
65.6982 110.924 96.4475
67.4132 130.176 177.379
47.8586 103.858 125.043
61.7165 148.239 79.1207
60.8204 118.588 193.897
26.8591 108.329 147.265
78.7622 108.357 147.932
71.1011 136.265 98.3792
34.8895 74.793 123.53
65.8687 109.572 181.168
30.1832 46.583 89.6304
83.126 116.632 99.9097
34.2146 30.6672 189.838
29.4879 48.384 73.8773
67.9517 80.9369 158.078
83.5289 111.055 149.383
79.3101 147.518 100.127
64.3171 127.775 186.849
85.9507 112.177 104.772
92.8965 2.5154 81.7756
21.5062 122.323 103.756
65.2024 120.165 81.8133
42.1941 59.6922 69.8038
91.2373 1.33176 95.1307
75.7852 8.09509 80.8328
25.7476 38.4226 74.6346
28.0398 51.1468 69.5397
41.7702 124.55 130.219
94.7921 131.608 106.773
50.2553 119.093 137.789
59.9593 110.08 190.931
67.6851 84.6578 166.097
26.2054 139.686 148.329
79.5237 139.718 148.757
25.6776 35.6038 81.4895
74.8367 119.81 170.743
91.5067 118.357 97.9902
15.8793 83.9707 170.134
64.7667 115.632 93.5483
76.909 104.024 131.211
46.001 164.4 112.941
87.7151 148.94 118.291
55.9397 162.685 187.111
39.4576 54.8791 67.4248
67.801 123.996 103.729
79.8519 112.164 94.5606
89.0679 143.126 121.615
