ply
format ascii 1.0
comment Created by Open3D
element vertex 914
property double x
property double y
property double z
end_header
18.2704 114.074 226.549
21.5944 206.138 182.92
20.8386 90.0129 117.916
18.0957 103.292 230.261
21.5637 99.6278 168.266
18.824 196.869 131.023
18.8119 179.29 121.389
46.7721 144.566 141.803
52.022 57.5721 202.78
19.6867 207.497 129.468
19.2766 206.729 147.09
77.2344 215.14 162.234
25.463 33.0115 103.595
56.7083 90.9988 156.363
19.6165 98.1913 68.6856
23.5424 116.16 71.7609
46.9941 56.6718 214.355
52.2455 237.325 149.949
20.2345 205.989 118.083
56.5587 183.259 82.3485
22.1624 79.0934 143.534
16.6503 65.3936 201.719
68.8325 177.607 184.872
19.6884 156.53 49.5711
57.6076 186.164 120.407
52.7281 54.9085 193.026
14.9957 166.811 191.961
16.988 188.847 183.642
20.9147 79.9133 175.277
19.0948 194.652 119.097
18.1102 42.4753 138.381
16.4123 53.4471 180.558
65.3005 205.108 132.514
41.1262 110.281 45.1068
16.3487 180.308 171.718
26.1107 69.9341 229.077
15.6452 153.022 205.975
48.4486 49.5255 202.552
63.9591 212.039 182.367
20.7843 40.5844 108.322
15.432 160.572 169.284
19.4988 69.3729 171.204
48.0421 246.188 200.769
18.0674 55.9879 159.117
22.9889 136.272 79.7517
20.5044 191.252 68.4383
17.7363 126.857 207.263
57.7727 110.951 181.209
51.7275 220.971 78.1137
15.3012 174.921 163.273
46.3457 37.877 190.273
21.2782 72.0959 160.661
35.7405 54.3967 124.99
18.8601 56.0239 115.577
17.9057 47.7327 161.607
18.5985 167.122 127.748
68.4341 213.956 114.859
66.7513 174.793 169.832
89.8814 15.0163 72.7276
18.9417 170.744 83.4373
17.9745 178.291 75.8469
23.1971 136.663 105.728
18.8598 161.098 61.4125
19.4931 155.567 126.915
15.7653 170.519 172.96
54.7309 266.177 240.907
20.894 111.393 112.146
18.6178 163.128 216.084
20.9267 179.287 51.3683
16.9983 168.672 205.495
43.1063 32.468 167.023
18.5628 81.3734 68.9356
50.3917 170.304 223.496
17.692 178.292 195.685
64.5465 198.338 104.754
38.6619 141.029 98.9988
46.0132 189.957 221.715
64.9491 215.52 161.862
19.4786 95.7915 191.36
64.0081 220.242 100.766
60.8747 118.448 208.206
21.2682 152.501 93.032
23.448 182.019 211.837
19.3258 83.2776 103.933
37.7912 136.6 106.788
18.8709 85.6595 91.9519
19.6264 62.7703 67.4275
58.4426 103.844 220.162
39.0251 145.533 90.0549
18.7856 169.102 61.1454
18.9378 54.7199 130.453
17.804 140.123 197.259
75.4055 208.716 185.31
27.8734 209.928 194.348
63.4696 128.315 196.288
20.5724 145.903 125.503
51.9839 65.8217 216.085
16.934 187.555 173.614
19.8764 37.3671 174.181
65.2765 281.008 232.895
67.6798 198.987 183.604
62.4757 231.739 148.788
21.2949 95.9989 180.354
19.0517 202.886 167.444
62.3087 192.669 94.5489
21.1741 71.9295 122.775
29.8701 90.2591 100.268
60.8192 84.7321 148.838
21.6954 85.4799 137.196
20.783 97.3845 114.111
22.3158 110.333 79.0888
50.8395 122.427 161.987
67.614 198.405 153.663
24.2711 120.924 80.5108
22.9328 143.757 82.2833
19.3373 138.135 228.539
19.2906 85.9672 192.094
18.8862 166.632 91.6264
50.9982 134.389 230.926
53.569 178.356 102.35
37.8248 26.331 166.989
49.1115 171.483 104.664
22.9985 222.779 166.17
48.4518 236.995 132.362
45.078 268.708 184.936
55.7953 156.724 222.24
36.9765 44.1254 125.095
29.4601 95.8184 88.5058
41.5612 156.626 89.0308
18.2572 78.5813 216.082
38.9657 147.706 80.8474
52.7628 171.463 56.3304
15.9253 63.2235 189.584
45.2649 35.1893 180.457
51.386 99.7376 231.241
18.9539 173.761 68.269
33.2544 120.279 99.1849
34.3565 120.199 114.036
20.9292 159.198 36.5296
93.1687 188.796 165.325
48.6156 78.5087 228.994
17.9977 95.5092 206.734
50.5773 162.32 49.4696
39.3648 40.2221 133.329
57.6815 105.552 168.719
51.9792 186.192 223.264
22.3972 146.523 98.9799
23.5586 132.002 95.2173
79.4955 188.94 216.698
25.1158 61.3444 220.69
20.0155 113.778 234.932
23.5526 227.994 129.589
17.0462 182.407 136.877
67.427 208.089 97.4644
58.0272 138.399 175.542
22.34 114.312 90.5607
54.942 114.311 166.799
54.9201 164.029 221.735
18.4397 199.317 109.786
20.832 83.7439 127.695
67.5614 216.851 124.873
63.4058 228.093 118.372
19.4498 158.598 112.458
22.0479 44.485 92.5132
20.6618 103.478 106.757
19.0786 171.874 116.163
19.1093 74.7912 58.5766
19.7064 34.4477 158.275
19.844 105.377 45.8843
35.7067 274.899 190.001
20.8226 153.634 71.2461
15.6733 145.704 202.128
16.2456 188 148.841
62.6169 83.763 185.337
75.7234 213.648 176.735
20.5534 210.555 161.984
21.1854 117.286 103.979
43.8268 155.52 117.091
51.4243 261.094 190.515
17.7921 159.388 143.59
18.6369 181.921 64.2511
67.1492 195.585 142.391
67.9069 203.835 160.059
20.0723 60.0448 152.879
64.8706 153.541 186.191
44.7845 162.679 76.6949
18.7258 186.217 110.591
43.5289 220.91 75.006
59.2649 180.206 133.379
22.2316 205.14 81.5899
26.0029 212.809 77.9022
41.7906 125.65 48.0735
22.7726 220.99 113.009
18.8499 105.935 204.025
52.0518 52.1072 184.519
67.9687 214.403 134.94
73.3214 197.831 172.072
47.7603 38.2682 172.953
55.0048 236.646 139.572
30.5154 233.035 130.699
19.9569 108.499 176.684
20.9675 88.7169 178.146
53.6748 107.704 159.238
41.7053 151.805 109.833
55.0604 66.1864 206.861
40.1143 143.736 110.356
47.1383 117.624 154.243
57.5661 70.717 197.298
20.6121 213.966 122.446
20.0676 65.0722 114.409
34.6273 125.45 90.3839
22.9337 188.951 56.3214
18.6474 197.438 184.651
27.93 229.981 161.073
61.3121 195.973 120.827
14.076 158.078 186.943
50.8326 173.513 88.3196
62.3483 290.799 235.191
40.0051 149.659 98.245
53.1283 151.877 227.37
18.398 168.385 105.345
30.2448 26.4774 166.537
21.3893 143.65 113.631
20.355 176.224 206.146
34.4535 81.579 117.306
60.787 68.637 169.483
49.1557 140.787 153.691
20.2061 131.411 167.112
38.7306 136.319 116.625
18.9313 48.4185 125.147
17.568 45.1011 172.653
20.3493 195.554 77.265
39.9609 101.746 49.2008
20.1021 160.787 83.0556
18.8384 106.795 212.223
18.9389 91.3991 198.704
32.6399 115.049 91.3626
54.483 178.295 220.048
87.6629 222.093 168.839
18.3683 41.8849 150.875
35.6049 29.5134 116.568
44.474 54.4577 160.141
60.3067 109.626 216.211
46.2182 164.407 112.474
15.1482 160.511 201.033
62.0131 233.766 139.544
19.3909 135.431 45.975
18.9942 196.056 158.402
62.2451 62.8814 144.71
60.3722 192.044 112.476
32.9894 100.865 112.002
36.9636 127.497 122.391
31.3855 199.599 54.3772
18.4243 70.3009 80.9178
18.6163 55.5723 87.9872
58.0297 218.344 90.7928
19.7844 117.802 126.966
48.6835 52.1973 168.87
39.648 133.601 131.668
18.4335 49.3122 146.898
26.6614 151.42 230.788
18.1851 189.074 124.938
61.6042 162.265 168.041
30.7047 198.741 206.267
21.3123 112.255 158.202
19.8606 78.9627 115.033
40.5339 47.8658 139.351
20.1164 96.8464 44.7274
18.001 187.91 89.5907
68.7668 192.5 189.928
17.898 56.3288 101.295
43.3729 159.745 101.545
21.2219 94.6085 139.538
25.3371 189.444 206.277
19.459 123.968 184.86
29.4207 185.884 215.295
23.1077 223.589 122.678
20.4657 66.0614 153.279
40.8934 182.601 224.793
39.2019 34.3194 189.758
20.9709 98.216 157.834
20.0743 211.76 111.566
40.0852 50.0368 211.211
19.0484 102.809 197.55
16.7562 146.914 213.397
92.3935 209.854 198.354
49.8715 47.7019 177.648
63.3073 129.005 209.933
17.8817 199.597 141.989
61.3495 208.935 84.4535
36.2234 201.597 212.857
20.8658 98.5317 126.954
45.167 146.314 49.5208
55.751 88.0755 222.344
19.6904 36.3617 142.136
68.4309 196.089 162.048
84.159 205.314 193.226
18.1156 82.1562 204.131
57.1593 235.119 156.611
57.7504 193.387 67.2116
26.5006 207.186 67.8579
66.9587 209.781 146.544
84.7085 6.36825 67.7531
49.58 274.2 245.958
49.0077 163.163 40.4109
18.6343 192.074 138.988
66.6303 180.931 154.131
23.0117 126.264 66.2935
40.1455 239.745 187.653
29.2673 71.3626 104.751
19.056 172.306 53.3487
41.8275 41.681 200.83
23.6045 215.238 177.538
19.0742 46.866 99.2227
22.947 217.41 103.915
26.1324 226.848 115.124
33.4127 184.374 222.545
27.2537 221.597 89.9428
25.2914 198.457 197.256
19.5985 47.6664 113.928
35.8146 220.553 190.634
64.3838 274.387 225.216
18.7177 78.1922 89.5253
42.0981 138.43 54.4024
34.9676 40.4446 97.2088
19.8685 140.194 33.2257
38.9117 262.388 230.955
38.5098 31.3605 129.319
34.853 58.9724 220.413
19.6614 119.278 196.648
82.7586 221.084 166.531
61.5333 198.649 86.8157
47.9757 162.687 60.3651
54.422 202.53 67.1328
20.3163 120.362 173.404
19.5682 121.539 38.3658
46.1498 166.521 88.3198
19.8781 221.394 138.546
46.2771 152.974 36.6671
25.0318 231.373 135.736
17.676 79.0527 198.092
20.3259 96.254 99.2477
29.5107 231.127 108.554
18.2299 72.7386 184.952
23.1703 227.842 141.941
19.1967 95.5511 235.178
67.6498 181.627 162.044
16.5966 89.4684 218.589
19.4242 97.4924 80.9308
22.428 138.799 69.4132
46.1902 143.74 37.2967
43.7878 199.633 213.949
52.6929 232.397 108.029
31.6182 109.18 97.0836
66.2133 200.003 222.534
51.4179 195.605 216.75
54.6475 61.2642 187.324
60.3288 103.832 190.105
20.6737 131.259 178.644
21.3904 88.6511 149.608
49.5521 163.032 126.589
60.4736 146.606 216.893
66.6102 208.82 125.674
20.9189 81.8701 235.883
56.6312 76.298 203.267
38.488 51.0413 131.466
58.1086 80.814 161.919
32.4997 108.807 109.731
44.4137 149.339 129.879
20.1595 159.712 74.1157
19.963 111.462 34.057
16.8412 39.0473 87.9644
73.9557 180.415 202.247
32.5491 223.465 89.2409
22.0292 147.093 70.4383
64.3889 171.323 158.077
68.7087 211.582 107.293
43.1799 148.294 28.8206
47.6836 178.998 224.252
58.6547 227.85 103.04
22.3823 115.636 183.197
19.6674 216.857 153.284
61.4508 191.389 82.322
37.6141 110.717 55.2635
17.9934 120.577 217.17
22.7158 134.082 235.283
32.1835 87.7377 109.389
19.9907 110.655 194.992
35.7628 128.873 110.945
21.0494 101.35 147.906
60.686 158.044 208.607
66.3678 159.991 204.135
20.9654 219.323 130.445
21.1172 124.284 114.218
25.7702 42.0612 196.358
22.0757 151.516 83.15
20.855 127.894 29.3748
57.3638 186.406 102.426
20.2315 76.5578 231.443
17.0195 74.8696 222.734
36.9784 268.806 177.71
18.8037 130.425 190.086
38.9146 228.179 176.261
19.9512 79.7946 184.132
46.3219 232.585 98.2231
54.3382 141.246 227.865
48.7704 188.229 49.7554
65.5899 73.6855 160.111
25.0437 197.255 59.4
61.2318 123.486 217.038
24.6681 227.18 106.447
27.0177 231.1 124.15
63.2235 195.11 189.664
52.9096 182.927 52.8455
29.5754 260.198 176.508
56.7347 171.529 131.091
33.3944 235.051 154.52
20.585 135.322 59.1757
24.3446 142.225 232.784
21.0773 207.709 94.6943
20.51 149.299 56.6118
41.2275 275.31 245.02
47.44 158.461 229.439
15.2901 193.112 163.434
68.3998 224.857 138.676
44.6242 165.687 34.6094
61.1665 231.212 128.794
63.2287 181.104 143.55
36.8072 35.7872 121.323
32.1756 89.3712 241.56
32.0132 229.801 170.729
18.7836 55.6581 139.586
32.2921 192.807 216.116
19.8442 102.962 189.69
30.0325 235.783 146.794
56.9894 270.473 222.569
66.4383 224.079 126.184
49.8464 58.7358 173.395
60.7728 82.4036 207.396
17.8252 82.8366 225.939
39.0031 233.873 170.904
61.7551 88.7922 199.417
60.7309 287.852 220.963
70.2033 195.974 219.613
18.6519 187.051 192.286
62.0083 154.866 175.31
18.7564 257.399 192.544
17.2354 99.5563 220.961
27.2681 47.2261 206.625
34.6973 43.2461 201.184
16.9953 90.0562 227.472
20.8381 142.284 59.4963
20.7721 46.8986 198.251
39.5133 93.385 240.757
41.1045 145.126 122.319
61.2149 77.3284 190.383
64.6315 202.924 175.734
59.9956 92.4206 163.194
39.5201 131.801 64.7034
49.866 235.691 160.76
19.415 84.6834 50.3111
17.9873 114.723 212.92
104.236 190.99 187.011
52.7686 211.668 68.0521
51.2332 173.007 45.4032
55.3217 211.863 207.403
60.0913 163.104 154.872
18.5744 197.134 148.594
35.8686 60.3537 121.757
18.5512 90.8582 54.902
41.6012 121.457 30.2295
41.6161 100.364 136.632
42.4463 235.81 158.072
34.0757 47.8881 98.4003
47.1898 227.536 85.7649
31.3444 268.162 183.163
33.1145 67.9612 230.5
28.5025 78.7041 237.595
43.0589 123.588 37.7797
33.5618 42.4964 107.74
43.3685 238.234 138.351
61.7411 100.204 201.308
63.4235 205.529 203.631
49.0838 152.315 139.716
19.795 209.248 173.39
88.9568 16.6711 59.9257
18.7137 204.36 137.692
80.9191 15.4589 65.9872
54.4802 184.898 60.2175
37.373 134.839 73.7449
57.5728 154.698 162.715
21.3144 106.959 184.228
92.5808 185.504 176.939
36.7277 53.1636 70.0018
33.3344 116.062 83.3559
43.3629 40.5119 141.827
34.2496 176.459 224.707
48.2228 156.072 133.536
58.4793 71.2813 186.269
88.2613 193.594 193.605
21.3411 216.937 167.166
18.1764 64.2755 209.573
26.0595 223.736 98.2498
19.8272 144.965 43.6839
92.9184 7.29487 67.0311
46.7158 249.706 182.039
42.7825 137.962 137.277
76.0185 262.117 2.44874
39.1624 32.1502 137.888
21.8042 224.084 148.115
35.0801 73.0585 120.608
18.4786 204.851 157.44
19.1796 153.221 223.251
41.3277 28.4484 151.034
100.93 193.59 193.61
40.2314 59.1732 145.354
46.759 46.5891 164.798
20.5247 62.8125 129.719
18.3381 71.2879 70.8516
67.9536 190.016 163.808
41.0893 99.9683 37.8081
51.5156 207.803 216.203
53.0213 109.063 230.34
17.9304 149.773 146.887
60.3688 196.583 212.841
60.8503 225.623 165.345
60.7317 122.108 188.433
37.4564 95.5738 127.24
25.1964 270.754 187.274
25.6753 96.3677 241.089
43.4505 215.384 203.764
17.7094 144.451 187.81
21.1431 154.862 62.6108
49.3211 201.688 55.9523
55.2986 231.44 266.774
81.83 17.9153 56.7434
42.3115 100.123 238.845
39.3963 154.974 232.578
46.5786 85.9898 142.649
24.6472 46.2484 74.1499
56.7155 117.777 220.923
59.4282 172.687 139.166
19.5332 118.676 30.0925
44.6115 133.763 40.2614
26.1225 37.2706 88.7144
54.111 202.668 209.724
31.4214 236.597 137.204
28.7749 87.0556 82.7797
47.1864 238.924 144.584
18.3905 132.71 197.531
32.3513 191.295 45.9903
60.6267 98.2361 211.923
16.6736 73.2616 209.242
66.899 82.86 160.467
37.3221 64.8163 128.328
55.4775 74.0143 214.35
64.1196 188.986 136.458
61.496 135.551 184.494
48.9697 167.785 71.2373
20.5227 127.616 44.2559
54.5177 51.6933 169.186
16.3876 170.815 151.807
17.5738 56.4053 170.73
20.9468 33.4187 129.229
51.408 173.691 119.149
20.2113 133.905 38.6895
55.8174 74.1144 166.95
39.3364 71.74 126.68
66.9998 179.403 196.203
35.8051 253.037 177.632
19.7423 187.416 103.607
21.9987 83.3946 40.6946
22.1061 60.299 57.1896
61.3796 76.2582 181.409
38.0922 236.522 133.53
50.9936 94.3732 143.889
46.544 272.417 194.854
43.6113 135.901 31.1916
22.7893 139.892 26.4991
62.4554 203.904 81.2342
49.2899 134.384 156.846
43.6763 87.407 238.583
40.568 68.9312 230.545
19.0644 263.03 194.651
29.994 102.813 87.2477
60.6805 96.6503 176.064
56.1347 182.112 74.0004
34.4577 31.8183 104.696
61.9901 187.614 127.981
65.7821 200.952 92.2884
45.0587 227.131 181.373
42.725 148.713 61.4962
56.8909 111.2 225.527
63.7942 189.576 212.594
48.3242 181.851 43.4876
32.9004 49.6997 110.814
50.7011 235.998 115.41
35.2853 271.059 237.001
55.5932 181.79 67.142
21.3989 168.482 39.7345
34.349 112.263 76.564
22.7439 30.1444 140.891
39.5771 133.177 238.944
20.8758 108.149 68.3934
66.7423 177.708 212.002
28.2831 129.961 239.057
20.0883 189.732 197.334
39.7343 119.611 239.991
86.0348 183.003 182.343
48.4278 70.1169 223.825
31.8316 207.446 200.202
19.638 145.459 226.716
21.6078 68.9019 143.861
36.8697 132.06 87.079
32.5598 247.083 181.965
29.3885 291.737 230.325
103.591 166.637 73.5342
54.0915 99.7279 155.256
37.6932 93.29 56.3122
76.0301 186.714 179.265
51.4138 65.5178 169.495
93.5414 200.564 155.19
47.0133 41.5065 160.078
36.296 114.821 125.574
24.5345 133.669 85.5481
31.1964 126.233 23.3989
62.2566 87.2593 178.512
56.502 231.671 119.067
56.3659 63.8223 172.426
79.1168 12.6997 59.6998
36.6165 29.9512 180.869
62.7555 137.915 207.852
64.3027 209.226 191.857
22.8267 37.8003 184.818
65.5727 209.062 90.9208
64.1263 224.873 152.222
26.6426 165.868 33.7535
21.6532 124.872 55.2223
28.3382 159 28.249
43.2059 86.7999 133.059
59.4304 168.844 145.899
25.9355 114.445 239.901
36.3568 88.4373 121.92
24.2179 88.054 238.817
18.1224 141.695 158.924
50.5778 261.192 239.315
36.8144 114.173 63.127
79.1402 222.34 174.968
37.0773 102.893 241.729
58.5765 170.179 213.891
19.6239 142.319 50.4931
39.1137 190.831 219.011
18.2151 127.197 227.48
33.223 217.867 75.5857
22.3006 131.218 71.4675
63.4685 135.583 195.637
30.6418 226.431 177.569
62.8426 83.6405 169.236
62.6954 104.779 206.867
33.3465 133.47 239.292
40.443 39.9491 151.559
40.3803 224.758 81.5461
63.0754 143.928 185.696
34.4632 77.1231 65.888
38.0252 43.6232 145.927
53.0675 226.982 88.7377
41.8727 111.77 240.243
36.6734 77.0697 236.726
59.5818 156.04 215.379
18.2336 138.212 168.892
32.9041 22.8904 149.573
18.2078 139.882 218.396
75.5796 194.591 224.589
63.9224 144.676 207.532
61.6501 187.814 220.26
28.8436 24.4025 156.686
34.7864 102.856 29.1378
64.9833 79.1872 152.441
36.1009 130.251 97.2152
46.2147 237.748 123.931
35.1197 118.322 70.8009
26.4554 179.473 220.037
29.4145 158.219 60.9323
98.7349 170.553 77.2168
20.6188 101.578 34.7872
37.7826 128.54 24.6956
46.3034 53.4909 139.161
85.3936 216.684 188.344
104.524 169.821 65.4559
27.2334 187.134 47.0486
60.7031 267.42 234.84
35.1646 235.501 115.388
25.292 27.0952 148.619
79.7792 198.813 220.592
30.2969 232.609 117.584
22.4769 206.745 191.236
47.6027 215.372 68.4348
55.2043 181.568 112.679
37.0185 136.85 92.5275
61.7787 116.581 196.851
64.2251 198.478 81.5108
109.046 166.481 76.7974
77.8884 207.14 155.473
59.1603 278.186 241.765
21.4801 61.6856 140.354
42.1529 140.363 128.11
40.3268 101.202 43.1062
33.245 37.4092 86.6356
48.6249 147.424 232.043
22.4318 68.5824 220.04
19.5503 211.485 151.731
53.7911 87.8644 151.282
68.5073 216.472 102.972
13.8336 301.823 222.338
25.6932 247.012 199.53
34.4797 144.16 235.989
55.6577 56.607 180.085
57.1781 157.449 156.049
18.8559 184.157 97.4465
42.9052 187.019 43.664
86.022 197.5 152.696
32.2904 90.8747 33.4407
68.9056 181.59 174.163
37.4404 235.565 123.351
76.2466 254.783 2.23113
77.5164 202.137 215.571
33.6075 23.191 131.225
51.6104 193.205 55.3515
47.4197 235.376 167.101
64.5969 184.201 202.4
32.0678 122.681 241.182
56.7708 224.693 91.4861
27.7245 165.2 226.303
33.3529 71.2974 44.9464
53.9363 58.6231 168.697
55.3044 216.574 197.591
58.9332 181.81 212.814
52.0474 174.275 76.0574
64.9832 286.293 226.803
19.7138 200.219 95.4002
56.3232 161.158 144.486
24.4063 31.9071 122.056
64.0059 77.3822 165.69
64.1573 223.647 108.254
21.7056 93.4842 36.7105
94.5742 173.158 72.3824
29.2646 31.4724 179.155
60.731 214.143 86.7593
27.4869 231.689 144.647
16.7296 179.319 184.827
35.4741 110.913 26.8036
42.4321 167.492 228.89
32.9001 258.177 208.803
59.1378 198.06 206.178
95.7387 177.017 79.648
105.377 210.526 179.819
30.0807 286.825 218.659
33.3638 100.202 70.9916
56.0424 124.798 174.051
17.1228 122.07 224.968
73.0198 204.715 223.865
36.6996 97.4223 60.9276
21.4561 131.8 52.3048
29.9324 242.32 194.241
36.1775 58.2882 59.711
35.3663 142.202 24.1584
41.9842 58.9412 220.107
19.164 94.0088 61.2571
21.782 114.465 50.0343
60.8824 92.3012 170.762
99.8633 206.897 156.265
61.9038 220.226 170.884
55.6966 64.4255 194.064
56.7465 135.182 223.115
68.7249 185.659 211.256
57.0629 184.623 91.5379
17.7214 91.7428 212.908
22.5652 29.7077 154.354
55.0422 211.368 75.1614
37.3087 187.849 43.508
51.0983 120.625 233.152
17.4014 129.268 220.146
39.9836 31.2498 159.251
51.7759 232.826 100.272
28.051 179.777 40.9033
99.3089 186.303 184.728
51.1264 252.357 199.886
36.8156 249.762 208.942
46.6968 127.092 237.223
79.6931 195.744 192.132
32.0915 297.605 225.75
28.6946 25.6714 128.231
23.8664 109.473 27.4503
75.0076 194.53 212.722
107.05 179.102 63.6421
53.5919 262.156 226.141
55.0773 121.293 229.464
69.7304 190.509 199.42
99.0711 174.712 65.4037
103.91 189.157 176.884
58.1328 128.854 221.883
49.5732 257.404 203.751
42.9058 235.992 114.874
48.6885 258.049 232.092
29.6533 24.0667 139.824
18.5472 150.309 217.865
57.8491 296.91 236.716
69.8875 259.028 1.96106
45.2712 210.729 62.1859
18.6408 56.4679 205.548
59.0611 202.967 74.0897
64.0737 227.898 135.036
39.4508 292.895 243.901
100.736 172.589 84.0316
63.8897 57.7035 150.445
31.3266 229.227 96.4622
22.1038 73.8512 46.6995
32.0075 101.478 241.726
23.4838 126.725 23.9449
64.0302 200.988 114.099
59.9372 67.6346 178.737
66.8354 203.176 100.63
93.6628 190.582 185.008
37.1369 163.207 61.2192
31.8395 81.5093 37.5789
42.309 48.4794 150.986
65.8322 214.894 94.7931
45.7776 39.0561 165.293
40.4756 271.978 199.587
43.8594 304.033 231.347
18.0291 134.39 219.059
91.0602 101.12 5.9034
65.7314 61.7338 154.136
47.1932 116.674 237.126
35.7962 212.708 65.6665
39.7081 197.401 49.9943
18.2779 44.7997 185.452
93.7127 220.67 160.049
67.6993 66.5626 160.393
58.4563 292.697 242.282
43.5192 234.554 107.052
41.5457 57.8991 129.887
34.702 267.46 225.129
38.7093 205.174 57.0212
45.3435 223.133 191.754
64.1591 59.2649 161.236
28.6116 28.4759 109.863
29.7414 213.495 2.65903
63.4477 186.519 197.298
61.9357 277.124 218.585
32.399 110.604 103.556
73.7051 198.74 208.301
61.8126 77.4602 175.178
18.2544 170.023 212.948
25.8182 149.165 25.2184
22.1391 88.3373 168.504
66.5214 67.4865 165.172
45.0979 265.487 205.2
47.8479 158.81 54.3428
68.1932 70.0617 153.499
62.8378 192.634 202.744
37.0316 160.27 29.1444
23.9794 56.175 212.672
32.8849 272.308 221.015
99.3971 182.681 66.9806
59.5933 138.681 217.326
50.5444 264.832 220.125
54.4464 129.755 171.361
43.9462 147.784 235.962
96.6825 187.641 170.444
53.5439 287.624 247.187
37.987 228.042 92.1027
37.6948 231.644 104.057
96.0369 180.109 74.8719
21.1322 72.4924 140.548
73.3605 206.55 214.971
53.9767 79.8406 139.567
52.3723 128.291 232.141
59.9347 193.179 73.3466
75.2727 205.616 219.679
26.3524 223.761 176.632
48.2263 292.71 213.593
82.9048 196.573 214.301
88.8284 219.638 158.506
29.423 268.947 202.701
58.5511 224.595 176.215
59.0752 58.9569 157.333
65.6947 167.44 166.349
86.4521 222.581 182.831
32.78 224.407 1.45397
20.7033 273.558 10.4277
52.3371 278.954 212.645
66.9211 215.903 145.331
41.9012 83.7255 138.71
81.0528 201.808 151.249
21.3241 105.446 58.2822
25.3289 194.774 203.452
73.667 188.817 206.214
109.826 170.32 69.149
30.773 101.677 102.935
27.7102 108.052 240.188
28.4065 252.91 179.915
39.6265 267.276 206.575
99.2452 221.076 166.204
22.0233 119.768 56.6491
109.703 188.067 88.6446
43.7404 264.637 219.479
48.6293 86.6209 136.903
53.1106 229.322 177.038
51.0244 226.091 186.41
68.4342 265.354 1.37008
19.3272 46.2979 190.674
38.8481 224.614 1.08013
22.8931 87.0169 162.882
