ply
format ascii 1.0
comment Created by Open3D
element vertex 2020
property double x
property double y
property double z
end_header
19.6418 363.668 205.812
67.1614 465.978 208.34
52.5 31.7711 131.106
52.8818 366.121 199.618
116.709 447.231 238.363
21.1478 332.137 209.637
50.0754 138.363 80.9842
38.5098 273.191 227.774
20.5393 207.048 281.761
27.6961 441.389 182.823
25.9474 207.716 296.397
67.9248 98.9096 149.615
49.766 219.22 302.69
20.5357 418.468 161.09
50.4758 210.116 292.033
37.9391 310.785 170.954
68.6519 462.194 194.563
74.9266 135.43 85.1122
54.2732 46.8572 131.111
55.5184 442.454 157.105
18.9368 182.24 249.502
62.8056 339.388 223.761
18.3467 426.758 190.514
93.0128 419.099 109.009
50.991 398.869 207.469
119.052 447.24 222.465
20.6344 356.118 260.989
30.3437 104.613 116.71
63.8767 359.472 281.561
46.0435 223.503 280.944
35.7712 407.493 279.499
17.8824 413.886 171.752
68.7219 425.91 289.765
66.9716 61.702 25.6451
61.3958 272.364 142.456
18.9774 414.218 239.841
62.5331 431.615 138.26
42.7726 126.737 318.753
18.8363 360.588 236.689
58.5175 390.169 104.713
39.7631 440.852 164.554
81.7167 394.982 271.953
48.9034 91.6836 27.6501
97.8874 424.491 282.162
25.2573 58.665 133.387
88.5203 425.006 201.678
49.4829 255.015 232.917
24.0662 61.6384 77.0375
72.4215 409.279 215.151
48.8991 169.781 294.615
65.3346 197.833 327.849
94.5573 391.034 144.66
74.4942 416.565 295.634
63.7104 271.657 251.381
76.2693 69.3533 164.815
36.7618 451.895 232.798
54.0742 290.021 236.325
52.4948 418.669 127.221
61.9427 426.491 288.103
81.3096 45.733 55.61
48.5612 32.4857 145.977
71.5063 466.931 222.702
56.7506 460.3 198.38
80.3618 131.218 34.3193
19.8135 131.619 280.321
25.7743 70.9742 129.647
31.0512 210.115 108.346
48.6559 381.863 185.316
77.7997 38.5413 62.9414
49.3444 371.722 177.643
37.903 97.9563 138.803
112.878 422.961 255.824
27.4606 345.356 135.746
31.913 416.84 144.688
19.3834 325.142 228.482
68.1905 111.239 29.4483
77.441 79.1129 159.353
33.4008 242.247 89.1333
34.9434 39.0551 132.811
34.6516 222.029 123.387
50.1721 380.786 203.172
21.1523 356.457 200.955
18.422 387.845 190.953
73.9548 466.598 207.691
72.868 414.66 191.04
41.8772 177.368 273.553
25.6037 197.1 243.262
28.1738 164.677 303.663
73.4086 121.368 140.772
72.3468 109.656 282.589
22.276 334.659 153.86
23.0515 351.392 146.773
41.1597 262.86 227.708
34.4355 85.1793 73.4273
19.746 321.464 198.319
32.3891 110.902 94.6416
63.6832 351.869 280.753
18.0582 418.69 190.759
25.4587 309.125 216.388
65.0797 398.653 301.255
22.2928 429.997 247.667
27.0864 147.73 305.132
42.3598 358.219 293.381
21.9429 63.7683 125.579
68.115 25.7774 96.9727
73.451 129.71 35.0405
102.638 60.8365 141.487
104.514 52.5093 113.809
40.0493 413.741 282.063
71.1724 403.769 178.646
47.234 126.166 52.9306
20.0834 432.128 231.361
56.4855 94.6067 141.403
93.8187 83.0125 141.254
19.3221 390.068 165.674
64.754 411.074 296.895
20.666 379.703 178.716
21.7512 207.963 266.244
63.1692 343.53 237.899
62.2665 66.0521 24.9255
46.6445 344.849 138.225
55.9601 56.5941 40.1276
52.8824 332.886 276.503
65.2815 419.427 293.189
101.157 97.6811 132.646
45.0736 374.358 110.111
65.3307 40.7188 108.629
65.8908 455.214 259.034
46.3433 36.7034 141.425
20.542 157.742 281.013
18.6985 390.504 172.688
79.5014 23.5543 99.1061
34.8651 447.945 190.158
85.1591 116.045 115.187
78.9386 366.306 123.695
68.2328 399.062 103.297
75.7019 111.096 258.033
50.6939 409.437 119.938
42.5377 101.689 64.2379
39.6543 303.976 195.191
41.2096 334.779 135.97
54.0523 371.147 265.275
90.8328 460.31 255.451
20.9273 326.776 173.982
85.9905 154.519 330.728
24.6002 98.0366 108.788
46.1305 121.187 97.2182
56.0077 314.514 238.259
18.8556 373.812 160.82
22.2471 220.222 95.2669
19.1689 190.894 252.097
19.8257 184.126 282.412
47.2088 118.697 36.6251
52.482 320.405 258.581
24.7995 177.989 297.546
38.7091 212.3 125.568
18.7151 199.887 275.417
45.3019 172.192 283.506
62.5265 281.393 243.169
45.652 219.173 262.855
35.8324 80.7546 43.0138
38.4873 92.6722 129.169
33.2296 483.372 69.8161
45.866 415.447 285.132
79.3608 466.464 204.693
23.1707 193.543 300.326
26.376 339.517 267.945
32.3466 88.799 123.579
86.2737 51.8253 43.2628
51.1529 477.092 12.7637
64.982 337.32 242.475
48.1653 383.623 249.098
18.1222 165.046 244.08
65.0405 464.432 230.214
41.1464 421.21 278.018
106.476 423.262 121.564
46.8661 305.403 219.453
79.2196 135.729 297.608
48.4617 66.8625 29.9984
27.1136 365.095 134.629
82.8452 142.116 255.104
59.1851 462.826 231.629
46.4493 305.887 194.099
19.6794 373.494 199.967
61.2181 394.02 248.142
57.8462 31.2556 93.6548
80.8479 51.914 143.586
40.8279 304.415 211.993
25.0407 385.889 272.454
47.4633 202.275 263.835
19.9491 345.559 211.985
69.063 263.273 141.839
60.1816 354.563 240.153
72.3792 380.586 289.23
61.9698 79.0322 22.8984
91.0854 131.364 96.8384
35.0933 448.917 243.471
92.7265 131.995 270.765
92.2607 112.262 28.9088
54.9705 45.7425 160.338
43.2667 128.236 104.262
84.2718 109.421 131.897
50.8169 382.752 299.872
19.5582 420.082 239.473
77.9819 87.5757 160.228
62.155 58.914 163.639
38.8072 225.027 128.857
44.8543 233.412 120.971
30.7503 249.661 92.4627
58.1243 349.476 190.686
46.1741 482.253 12.7459
57.503 394.676 299.497
70.587 392.337 259.197
104.234 411.156 251.007
18.5664 367.645 238.893
21.1474 368.884 148.153
64.4999 367.216 141.862
45.7369 455.978 233.726
21.0857 314.493 224.003
44.3908 104.526 139.415
102.456 458.678 251.653
21.7524 122.961 274.4
55.1812 313.058 195.401
20.1221 346.364 162.606
50.8399 482.642 45.8567
114.905 426.996 138.499
100.896 424.682 171.87
36.5329 309.431 240.707
81.1511 43.6577 159.337
19.4198 393.409 215.738
38.9312 34.1424 112.791
110.666 450.018 250.83
54.4447 366.457 301.555
102.044 397.975 144.897
21.8862 442.204 199.352
58.2006 93.8985 155.024
21.3077 332.924 238.531
66.1406 360.511 289.07
23.0942 321.076 167.702
70.3394 137.703 51.6795
38.2517 121.678 88.2745
36.2701 362.782 120.574
80.4065 449.42 272.66
50.2014 178.947 296.92
36.5242 47.7619 78.8758
27.6617 172.777 308.992
45.5295 96.6818 35.8305
33.76 221.755 272.611
52.1086 308.936 200.664
46.0083 213.512 124.782
92.7829 106.71 134.339
31.3376 55.8621 140.173
51.7281 207.322 121.823
18.9147 383.079 230.029
51.9449 472.374 19.0604
27.3812 186.431 237.271
65.4072 224.125 124.723
31.0346 161.384 317.946
60.5476 336.816 203.54
37.5928 315.584 162.898
45.0504 117.373 74.2139
57.9856 352.977 200.586
50.6328 325.545 171.422
98.311 406.498 256.994
40.8976 212.565 245.924
57.7976 317.701 218.143
31.0856 315.403 245.763
24.6445 208.049 255.561
64.01 159.662 313.679
42.0639 324.217 156.952
64.0699 465.154 220.669
92.984 47.3497 118.749
36.2262 305.34 185.563
44.608 125.56 89.3644
39.196 304.85 221.679
63.2034 209.605 104.82
81.3056 93.9873 21.4271
45.7571 81.2239 150.697
64.4362 331.866 249.079
85.6558 122.69 28.0953
44.1268 120.181 44.4182
50.9323 79.0175 25.7381
41.7536 305.135 228.713
35.8665 472.595 65.1141
51.1208 358.851 298.738
33.5536 124.013 71.2884
21.6287 443.505 216.043
68.6646 233.232 102.565
69.1426 264.843 122.802
21.2349 69.8593 76.8021
39.2075 114.598 82.1884
39.2994 36.6996 102.477
33.2952 404.87 133.744
84.3645 152.716 319.836
19.4628 409.319 191.07
30.0415 351.14 131.093
58.7331 341.685 279.659
112.165 420.714 127.702
77.1899 154.892 227.486
52.9774 150.79 285.471
20.7481 170.216 281.651
28.4037 447.015 232.587
55.2841 184 303.513
32.9146 279.057 241.702
33.5651 307.969 176.446
61.4623 236.211 77.0801
78.7323 411.862 180.651
89.1376 113.783 253.499
49.4069 306.388 207.547
103.281 423.081 274.957
93.714 384.06 135.92
63.9086 350.072 273.181
17.7751 410.381 183.918
19.7029 392.305 146.442
67.0242 150.161 217.557
47.044 46.3071 133.684
20.0981 339.513 202.163
51.044 162.207 252.873
64.9208 56.4888 31.0279
22.9292 343.336 146.044
20.3816 353.707 157.21
74.4176 36.4443 158.994
56.6691 313.076 229.915
28.4475 191.629 314.093
84.1213 73.6834 138.388
52.4128 125.914 40.6115
26.9196 413.675 268.39
23.6634 438.896 241.673
29.0652 388.569 279.18
61.4312 457.253 188.908
68.5132 149.274 260.285
55.559 170.42 312.007
85.0377 148.501 241.506
29.3648 49.4669 134.916
59.7531 351.827 226.873
79.2826 256.301 142.587
42.4702 244.42 86.3329
55.6321 64.9294 27.4597
70.8188 107.481 145.038
75.9313 273.644 142.484
66.4954 359.18 111.799
38.052 117.842 112.225
18.6542 373.599 189.108
99.3415 409.555 109.612
39.4052 445.37 255.946
64.9385 221.671 95.6703
35.1321 135.85 321.148
59.9662 136.513 61.4007
56.071 283.087 230.197
45.5888 61.7166 47.3097
70.5274 54.2826 42.7476
43.2961 449.202 249.037
46.75 136.402 72.9228
45.9214 180.63 287.769
19.258 378.108 245.459
35.3002 98.2276 126.202
61.7203 89.1682 62.5984
40.0714 256.968 237.719
45.5471 71.6181 41.3854
18.796 150.159 272.344
22.3101 378.804 269.552
92.7779 37.2934 150.019
24.0667 233.435 89.1151
82.7815 130.796 40.2722
20.7874 426.147 240.795
51.2238 220.059 130.548
69.2355 430.141 138.891
55.8612 25.8056 133.354
19.8757 362.978 174.584
74.0906 91.4298 146.036
41.5116 350.027 290.029
19.8612 351.103 181.614
57.3397 414.439 291.796
57.1196 450.861 178.962
84.1841 390.171 102.667
33.7914 353.337 285.251
32.2128 346.274 282.541
53.4222 461.058 231.625
92.2534 406.53 104.711
35.3839 352.552 122.955
33.4938 379.254 125.197
64.3236 483.239 30.4737
104.843 70.9107 72.8237
44.8247 89.6263 149.76
43.0806 304.546 203.338
74.6237 121.41 100.601
72.6888 87.977 137.602
40.6251 371.572 293.828
18.9868 380.679 236.668
56.1831 377.856 104.133
34.607 227.629 79.3942
90.0434 77.0835 154.896
85.2598 397.122 102.023
33.7064 334.398 270.917
69.4558 374.954 292.512
47.7598 121.28 107.452
68.0934 218.175 117.526
60.4079 333.406 196.866
81.3338 394.625 287.429
43.426 167.964 277.725
55.2763 432.013 140.205
85.5006 47.9773 65.5564
68.4723 126.525 39.3285
19.2192 434.139 194.858
81.8306 86.3736 20.7668
97.8001 107.833 118.177
56.0052 339.547 196.024
103.258 444.428 144.483
114.929 431.194 153.606
46.3801 289.434 257.985
44.5255 279.996 226.354
30.8041 411.718 139.277
47.0488 239.321 78.8672
62.4664 85.8111 24.4651
44.2833 415.734 129.571
43.2099 408.011 124.581
100.95 401.057 107.895
72.8826 148.743 341.893
86.2069 56.3553 139.309
34.5501 383.25 286.811
61.8045 137.385 82.8394
47.9995 391.487 202.329
68.0237 35.3056 62.2199
95.8371 121.813 36.3463
29.7541 96.1878 118.566
27.2939 421.332 265.494
78.5316 139.127 262.543
38.8239 106.034 45.3659
43.4138 123.668 78.637
37.4391 84.7122 63.4005
70.2173 272.028 127.343
95.8276 34.7229 142.603
23.6607 443.377 231.601
83.2287 423.547 112.482
82.6124 69.2487 31.6469
56.2213 156.436 258.365
44.6968 106.829 35.4058
41.7995 109.337 58.9548
27.7352 308.284 200.61
43.9608 39.7144 83.4617
87.396 124.783 114.174
70.4706 22.6685 102.251
70.1518 119.864 25.4209
26.3223 180.328 305.604
45.0146 35.1306 130.156
18.7097 149.257 263.246
47.109 315.087 250.935
31.5397 306.812 216.239
21.0815 438.75 189.103
71.3291 104.034 24.3877
41.4469 56.2984 57.9418
39.8969 208.604 317.236
47.7862 60.6701 39.6746
100.151 430.775 196.925
78.0093 388.476 285.734
55.0036 74.2427 25.8908
68.2018 22.5645 126.212
49.0568 72.8788 32.9177
59.2843 235.812 100.638
18.3448 104.523 77.8335
45.7301 77.567 157.5
113.164 423.05 247.242
114.705 437.514 211.758
22.1324 439.57 225.716
76.744 399.211 241.277
89.0451 30.8582 98.3354
89.0597 427.298 117.296
67.8635 451.545 266.143
41.7358 186.211 273.092
17.0479 183.739 264.745
90.8211 62.6609 36.5748
53.6706 385.39 222.586
98.2271 425.244 114.797
30.6695 66.678 56.0786
64.4991 44.5912 158.952
90.0249 413.073 172.313
34.0446 162.595 327.404
120.277 420.575 247.44
88.1124 60.879 155.001
82.8785 67.1889 145.22
78.5995 61.5099 29.609
109.871 414.103 122.584
57.1633 115.734 129.327
26.8395 108.184 85.5498
45.1125 475.365 11.9649
68.2862 136.975 89.8473
23.8555 347.72 267.526
95.4062 99.8101 138.189
62.7353 388.956 167.687
64.3243 333.995 256.163
66.2632 70.8364 159.468
69.4951 88.414 161.02
62.3105 105.468 136.651
64.2773 263.146 149.055
44.8813 342.533 147.468
61.0271 357.191 293.594
81.2615 101.491 22.9192
55.5594 318.758 198.744
28.2316 70.868 96.5557
77.4354 463.893 195.125
71.8494 105.986 125.689
76.8566 454.648 264.83
75.7423 125.407 65.4418
85.2893 95.2186 150.52
88.2813 124.395 91.0781
75.3805 129.559 274.176
56.9236 363.904 249.065
104.019 414.623 270.366
87.9232 119.484 71.085
45.2414 168.727 221.217
54.1379 193.641 298.277
28.4778 120.373 263.104
56.8962 82.6095 56.1139
114.073 433.777 219.117
27.8396 324.303 253.068
93.5379 133.062 55.1906
85.7203 137.023 268.648
81.8311 122.453 93.3811
74.1113 400.195 302.249
81.5973 58.4481 35.1295
44.3708 133.753 78.899
49.9363 310.517 189.501
50.3398 270.3 224.498
47.5626 39.5118 150.219
57.5712 321.151 248.333
67.4343 412.983 109.304
67.1458 80.1887 162.399
54.2699 209.886 319.07
31.035 57.8086 106.765
50.6428 87.2445 143.748
19.5646 438.242 208.191
57.1603 108.52 138.267
40.8028 317.515 253.496
94.6339 381.135 125.686
20.6646 342.57 243.352
80.0727 134.337 71.6735
40.5497 115.418 42.7414
72.9244 373.305 141.076
29.363 100.104 71.6871
67.1756 37.4484 159.737
67.9137 130.385 64.1299
70.2472 154.393 244.946
74.1687 363.059 113.047
26.0638 138.02 309.205
57.985 269.112 134.243
65.7236 110.276 131.807
97.1836 122.355 108.748
49.1639 198.305 243.353
52.0737 483.348 11.9662
100.817 112.721 90.4818
51.6784 205.26 103.359
24.2477 322.784 241.164
61.4051 136.568 95.3598
72.9771 45.7825 157.971
76.083 72.2253 23.6298
85.2024 415.864 180.314
67.7867 225.66 116.907
56.8585 363.675 259.044
23.5957 134.551 299.544
24.7245 159.743 293.814
34.0373 216.953 253.904
22.6076 428.033 166.838
24.0926 88.7009 113.767
101.027 62.8294 70.2745
20.2299 436.131 214.883
77.6613 369.501 108.247
19.2872 349.982 169.698
76.1256 409.43 299.412
27.5404 343.606 273.439
19.5225 353.689 208.91
42.1432 400.779 120.159
39.9529 35.7671 135.918
19.049 402.552 243.552
79.2253 405.426 101.717
50.857 290.403 249.26
46.8699 44.2009 146.186
71.7421 134.654 104.368
60.5939 337.451 271.954
57.3057 56.8579 30.895
106.349 399.957 139.273
78.725 82.2702 150.897
29.0811 98.5133 100.18
55.4226 31.3024 148.831
23.8591 138.601 238.088
35.4199 222.562 284.627
88.3655 456.454 261.869
32.9399 108.65 55.932
54.7039 137.325 94.2629
31.3272 214.467 86.7305
63.7981 129.102 330.117
60.8997 359.446 273.845
62.6163 373.797 102.689
40.0345 62.6543 142.633
44.9989 445.984 173.191
57.0229 130.734 46.4755
93.043 432.584 280.723
18.0888 409.772 177.243
101.296 101.047 122.635
65.2228 408.638 213.177
29.0286 111.631 113.76
65.5942 147.458 267.195
35.4947 245.645 105.927
60.7623 418.201 122.486
44.3858 332.95 155.281
74.7237 388.924 105.227
59.7369 33.9805 155.443
18.4492 397.083 178.479
117.113 438.862 244.608
45.9869 395.52 113.423
85.1926 64.2248 32.638
53.7166 134.508 58.3344
20.0526 156.724 239.603
53.9941 59.1847 164.303
76.2051 406.252 223.375
46.6552 58.4237 119.952
23.5208 80.8146 120.397
47.7839 454.835 245.989
20.8448 346.814 262.389
70.6366 23.8445 142.198
89.7994 88.3566 148.93
19.4046 366.128 248.63
20.3927 319.737 217.405
63.5813 366.363 279.536
86.2908 419.8 186.223
100.828 111.757 35.2579
19.0518 400.07 205.681
108.378 464.434 229.86
88.4861 71.6176 161.191
33.5619 442.709 253.187
36.905 102.479 131.03
41.7897 461.139 31.8294
68.5922 428.758 131.852
25.5617 197.35 306.645
30.9971 234.658 84.2447
20.0022 370.985 213.17
52.5775 482.729 53.946
52.2327 107.449 133.246
47.6371 42.2997 70.418
25.1042 351.615 274.016
33.3553 217.64 116.963
46.8236 162.116 266.357
64.9397 347.786 258.85
72.7884 133.68 63.9319
52.9755 357.076 146.367
84.2211 399.825 251.386
79.7941 109.852 23.8799
33.3651 307.022 225.838
92.1243 124.745 319.746
18.6531 421.365 205.646
48.4039 391.789 227.448
60.5668 206.419 96.1588
35.6629 442.262 174.537
35.7133 473.898 18.7337
61.602 229.329 122.913
57.6847 164.088 311.67
71.9646 255.086 123.183
68.9891 174.848 329.161
48.3671 38.4211 117.439
32.4602 281.803 259.673
37.5205 463.656 43.8871
62.5933 96.8044 143.298
80.8501 459.073 257.123
61.4067 337.072 217.326
86.7369 433.38 127.11
90.4285 386.142 144.941
40.3897 91.5774 61.5209
92.008 152.862 129.886
43.3571 219.32 130.899
21.6644 85.6967 92.6667
18.7524 371.292 155.281
106.079 462.169 236.648
45.9367 30.3998 124.148
68.1365 95.1683 134.562
41.1188 209.047 118.32
70.3643 38.6494 103.717
25.5169 108.063 108.505
48.6675 444.36 163.352
46.0077 425.822 280.345
67.4518 111.552 258.185
28.1448 211.831 99.8761
53.2495 27.6158 139.997
95.4782 64.9705 42.1958
51.7102 380.225 169.991
44.4643 311.039 175.859
58.2785 410.653 115.57
26.7645 79.4834 90.8037
42.7533 129.195 74.0925
37.3142 427.237 271.824
40.3259 455.843 226.66
88.8845 25.6552 121.778
27.3669 65.5661 108.045
117.734 449.636 230.885
58.5114 329.172 191.968
56.0584 330.115 269.677
40.6384 76.2854 44.4947
71.921 158.299 233.018
101.821 99.8323 113.592
75.1423 95.966 20.0189
55.0537 461.661 239.989
91.2593 38.2561 101.388
29.455 468.666 37.7425
54.7468 351.209 263.151
103.02 143.784 109.921
45.6012 207.133 113.172
53.5544 219.486 84.1472
20.8737 125.871 258.96
30.0703 99.0289 61.8013
66.3459 126.375 107.156
26.5989 80.7878 107.134
63.669 381.558 102.25
33.5143 375.011 287.224
63.5024 177.994 321.687
58.7837 382.504 302.687
58.9914 28.8398 144.333
48.7734 383.57 194.367
100.144 449.324 263.634
33.8565 453.381 207.69
78.9121 398.636 168.08
57.6358 359.701 238.573
77.0282 397.545 101.105
83.6448 121.999 83.3069
89.2505 99.9261 145.886
107.891 405.733 144.858
44.2513 289.741 239.635
64.9621 29.664 154.196
66.2872 128.046 55.8269
51.4133 337.31 167.724
19.9372 93.1051 93.991
39.7774 64.6259 149.704
49.7422 446.475 263.276
69.0446 48.3283 42.4528
60.9638 107.272 23.3746
48.0026 130.225 97.6451
39.4559 341.272 284.014
94.7498 405.451 243.744
86.4345 58.2711 38.4613
28.5793 71.4649 61.8387
85.1655 90.8655 155.009
54.5375 362.958 213.214
22.4878 160.689 287.55
29.6155 91.2038 65.5108
51.472 387.114 107.194
69.5361 406.745 298.864
26.2079 84.9587 64.2943
57.3053 72.1928 164.009
62.4958 352.969 265.768
59.6953 348.823 217.641
48.4327 459.117 203.569
45.5369 457.59 222.342
59.8797 328.955 262.141
43.4937 468.071 31.356
20.8924 169.33 237.853
83.5941 115.539 122.372
90.8578 377.513 118.383
18.3283 415.494 199.693
88.4833 126.714 39.5124
21.6739 368.299 262.977
86.5181 76.121 39.7218
29.1199 79.0849 78.7657
70.4974 31.4993 153.455
58.8125 398.568 180.743
43.3344 65.7189 39.4868
80.0244 272.977 134.509
58.176 112.045 302.065
58.4801 472.723 18.9902
59.4598 439.767 150.077
61.6723 363.317 299.55
47.0188 29.7711 136.026
60.2442 375.291 153.986
93.7117 53.5899 58.6292
37.9866 477.974 12.9288
56.2765 82.8504 23.3368
64.234 211.895 116.424
45.3126 383.11 110.135
45.0012 441.318 265.715
68.4535 134.081 78.1342
24.7775 50.6175 124.943
62.9555 118.511 35.2771
81.6749 412.327 104.537
87.3151 397.779 161.285
86.8218 443.682 277.683
19.4382 200.585 289.289
26.5156 64.1121 63.6325
82.0448 61.6195 155.058
59.8582 210.599 87.7535
37.5143 139.111 225.301
40.0495 472.689 14.1753
54.2076 371.399 158.739
36.6356 101.339 69.8598
45.0492 321.018 165.762
96.274 114.731 115.418
65.9649 112.424 308.445
63.0238 384.139 266.309
32.593 462.864 42.6514
17.3093 101.565 84.4548
31.3413 123.403 243.835
51.2257 312.977 243.192
74.9785 32.5856 123.17
87.2949 47.7218 154.548
46.1565 338.628 281.615
39.4166 101.186 38.4704
106.511 406.405 116.188
57.9807 242.256 105.369
78.7067 441.197 280.178
102.804 116.133 103.074
84.8016 114.972 307.03
58.945 352.585 113.983
56.6477 82.1399 151.427
31.5645 309.687 236.405
19.8654 421.717 223.283
54.4115 124.722 35.2701
62.835 255.598 144.157
26.8801 118.255 77.3064
60.1522 116.873 27.3467
73.4933 446.959 274.017
70.0234 49.2027 51.472
84.0031 80.4963 161.932
53.213 359.728 189.816
64.6301 172.24 224.478
107.714 422.849 268.205
22.6882 127.722 249.392
98.7861 73.576 138.91
86.1621 104.254 139.873
34.9644 451.457 198.737
69.3306 164.877 322.616
57.6991 380.806 163.614
63.6975 127.369 121.934
18.7864 399.671 199.171
101.927 119.612 84.8388
44.1891 336.357 148.163
18.1418 401.312 182.906
54.986 84.8304 156.728
37.4647 409.619 131.164
31.9362 43.8336 129.511
62.3708 445.368 162.174
45.0243 425.989 138.01
27.8303 65.6181 138.027
84.211 115.435 91.3596
40.9814 337.715 125.542
57.423 365.964 105.704
64.0213 58.0747 50.5224
48.4599 315.02 174.972
57.9267 111.12 26.351
58.1358 356.789 135.376
81.3639 398.783 299.998
22.457 92.8286 69.5733
87.8664 40.4463 124.442
27.9624 122.151 251.856
77.1631 118.843 233.799
69.0503 139.437 276.519
66.8156 266.842 129.769
114.732 442.748 196.708
120.142 455.871 208.873
91.7019 403.004 254.22
34.8398 400.572 126.688
94.8353 465.902 241.734
82.4955 383.876 148.115
77.0933 67.7959 30.4775
87.1956 450.296 271.051
27.522 51.179 77.3773
51.6102 339.935 285.481
19.4539 175.362 275.121
50.5741 353.209 170.858
110.685 407.343 127.101
101.611 37.0182 123.619
19.6823 404.047 151.272
71.9551 135.753 70.7876
51.0881 52.649 162.128
62.1032 462.394 244.06
34.9303 168.027 225.323
93.8588 401.763 161.146
41.633 380.289 293.713
42.4588 224.823 74.3818
22.8845 99.6148 100.42
61.1651 327.796 219.553
39.173 48.9368 136.219
69.2694 397.84 241.465
117.554 461.392 214.43
51.755 416.332 287.784
20.6153 374.154 264.397
80.901 50.8221 50.6436
33.5742 103.202 52.4813
47.0196 470.226 14.2733
52.3106 365.338 156.34
47.3256 432.409 275.602
61.6378 223.216 77.866
49.2074 244.926 88.3484
57.5018 133.692 106.255
72.9739 376.536 102.948
39.5131 464.991 56.3408
107.926 427.957 167.719
49.1406 364.959 172.933
105.779 407.477 150.584
85.6898 465.777 199.817
39.9716 213.483 93.0432
69.5265 270.728 142.907
91.3009 134.184 261.041
61.0813 256.574 257.806
62.1008 347.58 231.201
77.3866 132.898 285.984
82.5139 72.7463 24.681
45.4386 364.714 296.52
33.5155 305.406 208.088
72.3609 112.376 246.707
84.824 136.047 83.6086
22.8903 313.398 196.513
62.5399 49.8856 40.8407
50.864 325.095 266.26
73.0537 67.0472 25.2921
96.3906 409.005 235.668
48.3843 127.679 44.2238
28.8432 314.453 166.269
43.1124 174.454 258.977
57.4402 126.543 107.966
52.0189 319.008 175.751
60.5282 170.673 141.821
48.17 359.3 111.214
68.3245 52.7256 160.322
86.8544 127.369 105.273
74.1884 436.153 284.601
86.3565 111.037 277.599
55.7541 85.3572 61.4475
115.289 442.616 161.054
24.8134 430.418 254.959
49.1865 386.723 239.314
49.5983 202.663 108.913
55.4117 394.064 179.539
90.9046 122.255 31.8417
43.1779 203.274 105.855
77.5775 150.873 248.389
64.0934 339.496 259.566
40.1545 417.435 134.15
51.299 346.146 116.645
89.2228 379.885 107.659
60.5363 152.084 261.793
97.2207 398.702 155.13
57.5302 323.051 192
60.1618 27.1066 104.688
66.2287 158.962 216.025
67.4592 374.365 300.573
18.9054 366.386 165.07
53.2361 100.679 144.94
34.6631 70.9971 145.646
64.9959 354.801 119.879
74.9365 131.662 44.7752
61.6376 238.777 113.056
55.778 446.581 166.316
22.5755 362.091 146.227
83.7191 38.3085 77.4634
57.6495 204.556 105.991
101.853 392.294 119.925
89.9452 33.8403 110.716
67.2708 75.1271 21.6156
75.005 87.3125 151.684
37.8074 419.309 139.392
42.7263 89.0362 33.7793
51.2484 122.935 319.575
56.3763 255.903 236.238
93.2771 49.4138 150.711
82.2 468.706 224.912
21.3452 470.208 50.6689
23.794 105.81 70.612
19.2045 342.362 235.089
49.0081 345.138 289.694
45.5757 477.26 50.6349
48.5355 215.344 88.633
55.8173 312.141 207.71
25.3082 237.188 98.1815
35.547 483.485 14.8711
25.8004 119.703 286.903
54.2156 233.733 121.423
58.3114 263.097 129.414
50.8884 373.89 204.364
42.4265 35.1277 95.1491
26.8611 326.541 148.438
48.0605 457.375 240.3
118.354 439.901 228.805
69.5454 32.1099 73.6832
87.5489 469.306 212.474
59.9951 357.66 257.318
89.5239 132.486 301.813
57.8108 356.541 231.731
41.3492 211.432 289.611
78.6059 387.515 155.227
35.9274 365.728 289.267
33.0549 132.764 231.084
80.7755 149.154 340.921
51.555 383.191 210.591
76.0475 429.122 288.183
105.72 47.7428 103.549
71.5314 30.228 109.409
45.5385 98.6293 30.0179
37.9874 43.0895 141.367
79.4725 131.431 115.283
69.3131 142.354 270.236
46.7523 449.318 256.327
61.607 373.539 273.276
38.5548 240.067 111.51
88.5672 421.441 209.264
103.586 115.523 49.9934
24.2228 445.8 208.053
77.427 59.189 157.649
65.4512 371.975 281.281
97.2794 130.452 61.1685
21.1672 315.465 205.204
16.3574 90.1362 82.7479
41.3788 32.348 120.699
95.8186 112.664 122.192
49.3589 110.838 278.849
41.3481 76.5558 37.2776
22.5771 348.095 199.433
40.9897 57.6474 107.98
91.0856 57.59 41.4994
72.7155 77.4299 162.176
30.8143 47.3465 93.5917
78.8425 22.0643 125.614
55.3169 38.7889 155.933
119.75 452.761 196.799
66.8973 183.344 328.189
80.6801 41.8219 73.3562
30.5035 74.0408 55.8674
18.9268 77.7895 103.323
99.8804 48.0992 82.5274
68.9952 134.659 96.9353
64.2097 145.02 274.539
59.9551 459.536 252.254
41.0922 439.12 156.117
96.7595 40.4158 97.5142
42.4194 449.167 186.692
77.1835 169.47 341.192
42.885 325.545 268.049
35.8616 463.687 50.709
66.9316 152.881 253.346
76.5459 98.4868 153.526
88.6544 78.1615 132.708
37.1595 369.258 119.962
107.159 439.171 264.437
20.881 434.679 237.297
31.4322 324.379 259.957
57.3028 378.94 267.891
64.2347 117.977 320.518
19.3035 129.695 268.991
58.4681 398.826 233.269
20.9675 104.924 102.556
20.5532 366.718 256.299
86.9499 30.598 147.976
31.8877 362.986 283.583
79.4607 390.833 277.307
70.7207 145.993 303.141
48.5998 350.779 293.76
73.6874 116.956 318.61
45.1909 46.7933 141.219
52.6687 349.739 134.805
91.0802 80.1833 147.429
30.9852 117.826 293.159
39.7911 469.152 18.5378
118.03 446.245 201.966
25.4788 109.53 65.2245
63.285 389.867 303.471
36.4881 53.4155 60.6898
58.3781 128.56 113.686
70.5259 181.384 341.661
23.5198 66.0141 82.6512
72.9946 60.4282 32.0094
69.0207 419.513 117.831
90.9084 78.6204 27.3813
96.1028 33.6728 107.487
53.7621 204.989 115.148
47.4588 54.6588 141.306
95.6913 132.211 253.748
60.8888 327.705 233.13
66.7686 400.279 232.996
64.9997 136.952 68.9374
107.54 417.221 259.761
56.9981 163.118 216.91
79.7886 119.063 30.6967
56.1767 357.03 213.594
41.1178 197.476 325.758
23.3914 407.975 147.452
67.3217 32.0826 84.9527
55.6153 402.307 219.194
29.7802 466.152 61.4704
121.42 419.151 256.271
62.2378 49.1445 164.32
34.463 88.4675 45.0447
60.8596 109.788 121.046
38.826 84.0848 37.2699
75.2427 45.7576 60.8184
77.3883 424.031 115.284
32.3118 336.495 130.495
46.9144 306.249 232.967
65.8496 382.057 159.686
108.919 71.7592 111.382
74.6867 361.693 120.411
75.4367 109.989 29.613
46.6268 49.8611 97.4223
52.6225 333.453 171.927
54.3079 100.517 27.3447
101.186 400.325 150.874
28.1346 484.146 61.6685
61.6834 96.6798 84.8364
39.7337 153.505 331.899
91.0792 418.963 178.011
69.5846 405.424 221.553
82.7949 52.8699 58.7229
59.6641 481.922 42.9729
52.2902 354.784 111.61
27.4397 49.4821 86.5556
49.7185 466.367 30.6658
48.3816 159.523 274.125
23.0682 56.8327 91.5358
76.7272 467.535 227.798
70.7367 61.2181 158.97
19.0935 103.168 90.5318
51.3461 309.394 236.812
110.983 466.114 215.76
108.851 74.5042 119.266
56.7102 224.106 119.985
58.2574 213.917 128.223
50.7152 84.8722 28.1253
108.24 112.172 48.3548
63.1786 219.376 105.089
86.2102 38.3339 151.931
19.0757 359.898 159.048
41.1156 482.872 14.4204
30.3431 466.503 50.4922
42.5384 224.299 270.628
112.683 417.276 146.087
74.3448 267.912 129.032
73.8434 85.3502 18.7217
80.4554 126.705 47.3932
52.5956 24.8099 112.312
68.0041 187.584 334.829
66.5522 128.013 28.43
79.4733 434.941 138.615
33.2229 479.477 17.803
59.1432 200.815 305.613
55.9706 359.711 206.268
31.2802 475.997 21.3891
59.3248 262.754 263.307
18.5332 398.996 246.822
31.7782 85.6609 60.9182
80.0032 464.995 246.598
62.5913 371.825 303.539
91.2674 43.6912 77.803
103.852 41.5737 107.915
90.1246 120.717 104.344
76.6931 52.005 157.354
30.6661 202.225 305.965
62.5983 131.961 40.2827
62.2839 163.983 238.874
46.0947 372.459 298.076
29.9167 115.68 83.4505
21.3985 182.813 293.922
80.0754 256.566 129.532
60.7726 101.328 23.0068
83.3472 406.291 227.903
43.2412 329.964 274.589
98.3841 59.3214 78.3375
52.3299 208.34 96.1957
65.8363 249.682 139.702
52.8533 390.075 248.281
80.024 160.423 188.272
54.2943 375.641 303.294
60.8774 240.995 91.5297
62.6793 46.0531 54.4282
80.3303 137.03 94.0861
61.3849 361.633 107.784
42.1084 111.392 38.2906
49.6957 188.001 338.21
42.6377 119.627 64.4633
99.2697 106.424 50.2522
91.0327 421.359 287.508
39.5487 95.0962 36.6794
67.3711 442.147 277.644
90.1074 68.6533 32.0714
101.623 85.11 116.619
82.4275 143.046 222.979
51.0191 109.249 116.368
38.2366 96.0951 53.3674
44.4219 483.774 55.2946
93.8536 29.26 131.402
35.0525 203.639 237.178
41.1199 328.306 147.144
52.2992 190.373 238.72
93.3386 122.668 116.622
74.0829 127.865 123.121
30.7308 460.894 53.409
36.1022 203.787 108.437
51.2998 308.643 227.72
83.7961 128.538 230.491
19.112 83.7214 85.8645
36.0276 465.149 24.3697
62.3531 199.034 317.041
63.294 215.481 124.003
35.9494 126.963 79.4433
56.1733 462.554 208.745
61.9926 339.369 265.775
65.8328 115.718 24.6623
50.2978 49.1006 151.887
49.1639 365.079 161.541
60.2564 326.315 241.421
46.6042 195.082 289.04
72.5328 263.211 157.49
61.0116 341.877 198.497
69.544 250.131 131.799
71.3604 456.818 183.83
46.1556 148.466 220.408
21.6783 316.326 210.695
29.5648 212.055 249.923
61.9059 170.985 233.975
57.4542 483.94 14.3692
41.2148 245.163 245.163
100.827 469.12 221.793
79.1663 383.106 102.054
41.0998 393.128 118.608
96.1971 455.457 259.483
30.0634 217.433 262.651
56.7054 224.632 131.366
33.8895 452.38 224.146
29.7611 309.298 181.901
108.861 438.626 195.873
78.2444 259.014 122.863
69.7743 439.737 151.45
37.4167 85.7573 56.3629
60.676 127.85 32.2831
31.6029 216.905 98.6658
47.5321 465.693 24.9053
28.3701 481.224 29.2977
81.8122 407.698 173.652
58.9702 125.776 38.6623
73.6793 389 162.142
59.5111 396.46 240.325
30.706 54.4113 100.832
27.8335 380.113 131.299
60.5387 79.0106 163.02
23.1303 52.4003 119.307
84.5857 126.455 72.4611
41.3421 80.1856 145.207
91.0699 431.594 121.483
50.2254 397.07 225.981
39.5562 209.731 106.799
46.4952 27.1216 118.187
59.2455 121.45 122.176
47.6201 207.169 91.6535
60.4014 323.388 227.745
71.014 56.6071 30.0152
41.1137 67.6008 48.9946
58.5284 324.639 258.98
78.5661 55.0256 38.6338
82.5017 67.145 161.436
59.0643 319.95 223.624
36.6881 314.833 250.067
31.3775 319.025 157.316
26.8056 401.345 272.357
59.7655 323.215 198.857
102.096 86.5058 39.8754
62.2094 337.952 210.289
60.4126 406.544 110.575
71.3757 35.4317 116.874
60.2132 202.64 328.92
108.148 467.999 222.434
74.1145 116.197 120.384
102.284 53.3324 136.237
47.6739 348.152 146.124
56.923 93.8858 30.2892
19.2869 357.423 169.631
96.8748 52.7725 104.818
67.7726 27.9386 89.2273
50.2837 29.0077 101.354
85.6158 381.949 142.093
58.6572 389.416 253.539
83.4175 110.745 289.832
47.0828 204.066 287.487
20.1241 428.988 226.401
17.0421 90.9731 88.9006
22.7971 53.4407 100.228
65.4411 87.4932 18.556
71.2695 136.356 289.598
63.2468 92.6989 22.7937
45.5204 467.499 19.3756
57.7111 404.276 297.623
52.2058 211.983 127.877
87.2735 131.699 54.7802
70.9331 80.827 20.3914
98.5245 115.387 279.977
52.4167 442.562 270.339
37.1574 43.5799 97.9165
41.9756 464.487 23.5962
51.395 385.002 174.983
54.5224 174.348 217.584
94.7058 75.0213 35.6115
56.83 469.783 26.1799
65.8458 238.273 84.0002
87.8944 468.957 229.608
50.7638 130.74 103.068
92.8207 124.812 41.9212
59.0836 131.143 100.048
25.9895 169.587 297.201
97.2295 427.394 204.445
79.0113 27.8841 115.947
50.1649 312.436 183.907
53.0971 231.113 83.6449
30.3077 441.456 174.73
90.675 67.3242 71.8017
29.1915 240.149 105.605
88.6223 379.93 134.283
65.8473 29.3869 145.976
64.1525 359.626 134.908
62.5954 111.217 280.803
95.7334 431.16 190.521
82.1479 428.246 120.053
33.7191 393.054 124.833
55.4439 356.281 140.164
89.746 93.5864 110.939
59.4388 324.269 206.422
49.3988 357.537 153.285
104.118 431.524 206.461
104.912 88.0488 48.5261
57.5772 33.6186 79.0641
52.3691 456.66 250.986
22.8621 224.925 104.733
113.928 462.561 223.203
33.3007 268.109 234.43
25.3988 437.717 249.72
96.4167 116.557 82.23
55.1024 38.2809 125.326
95.0355 439.427 278.736
54.343 311.534 215.487
49.8626 381.048 107.281
20.1767 98.1374 74.6002
104.108 83.8301 136.09
21.0188 359.298 194.814
78.2653 135.683 46.8947
44.8644 83.3194 31.4323
98.7379 74.0085 130.508
29.2116 471.366 59.022
101.431 453.04 162.834
49.5148 396.19 217.817
35.5544 212.135 96.3851
47.3233 211.484 117.447
38.8964 437.698 265.374
71.3162 109.937 266.023
80.8419 32.2772 153.671
58.8362 181.715 222.972
55.9545 262.47 139.099
33.2125 331.24 135.544
35.4345 126.353 63.4433
45.7238 470.872 53.6807
56.6529 386.051 168.269
27.9916 471.734 32.4689
38.7761 246.376 100.979
85.2946 398.14 264.027
55.0589 184.656 240.715
94.2048 463.179 248.178
29.7331 54.7805 67.6885
72.1284 150.899 307.403
21.2225 324.947 234.425
80.3696 437.804 144.551
58.4256 318.371 208.717
101.349 50.1159 124.15
48.3792 280.222 270.786
48.9365 112.148 31.0277
82.8581 377.704 137.91
42.7476 117.158 261.997
97.4121 83.9106 35.3649
62.759 23.8182 129.738
69.0122 140.411 297.511
81.0856 27.7735 105.823
107.681 400.718 132.879
21.4434 134.108 245.071
67.4364 119.617 31.7823
82.0978 373.108 130.836
68.2688 96.9757 21.7397
107.497 57.3164 122.213
38.8601 452.72 219.949
106.934 113.663 81.4163
89.9167 28.1418 140.766
53.0421 466.44 26.37
78.9807 145.078 307.496
88.6305 122.316 237.59
100.792 389.269 125.337
76.9141 384.155 147.851
59.4013 208.261 122.188
29.941 209.809 304.171
63.0335 134.081 51.0191
98.924 124.031 59.9904
82.4494 53.3717 155.378
53.1709 316.806 247.494
97.6393 386.953 117.143
61.5034 334.487 229.641
91.7598 131.015 280.556
97.1626 59.8172 55.0268
28.4881 309.894 190.729
38.4905 217.451 308.626
49.8183 131.189 325.444
95.1792 469.678 211.875
37.9768 126.689 100.211
61.7082 369.385 224.984
85.9009 111.383 264.492
67.1333 442.294 156.572
59.7795 423.345 129.377
67.0181 436.877 282.546
62.2872 123.711 43.2963
22.7567 55.2457 108.739
87.9888 377.244 129.149
51.1678 402.505 293.382
60.5354 349.297 210.824
55.0975 123.805 58.8073
48.4924 172.812 249.654
36.6583 118.132 257.999
86.7912 445.102 156.509
79.9411 413.309 215.562
60.1255 348.561 285.208
70.5201 460.178 252.035
52.0251 394.268 239.869
38.9302 113.852 286.506
77.8433 255.615 135.5
56.2927 401.937 194.469
81.0945 394.891 162.228
107.077 400.478 122.303
40.7226 382.662 113.689
54.1687 311.483 222.03
58.9417 333.13 186.778
55.8817 120.172 30.8804
24.4646 158.01 232.324
68.0688 137.775 57.9124
49.3062 450.371 182.51
66.5972 133.694 45.8808
96.6249 79.133 38.087
72.1815 445.516 161.731
80.149 22.9989 137.951
101.416 436.274 266.296
83.6322 131.653 290.816
98.4102 415.976 113.927
91.8311 467.951 234.904
35.0311 476.366 36.1749
55.141 453.39 257.946
80.7662 267.403 132.475
73.0174 136.04 220.921
61.023 22.8268 113.267
71.9705 380.446 150.53
57.6947 373.878 219.011
38.7701 71.2771 153.47
97.742 413.942 167.595
55.5577 360.416 224.982
84.0459 128.267 62.9035
82.9614 246.255 142.165
86.8513 29.0229 133.884
57.9906 438.482 276.57
55.3816 243.083 97.6805
36.9383 39.8085 111.848
97.6315 126.424 66.1612
53.9874 96.0595 23.1104
101.696 394.91 113.726
41.7205 182.537 225.558
74.36 26.6232 134.823
81.951 112.077 250.907
86.0128 138.649 306.032
61.4259 400.468 106.934
96.2189 65.4679 86.4662
37.0062 97.6535 58.0304
81.8392 260.457 134.357
58.884 386.199 258.94
34.0295 125.933 312.608
106.417 434.191 200.027
102.225 424.11 216.658
23.7486 88.6791 78.06
48.3421 112.449 297.201
103.053 415.203 161.705
48.08 334.854 163.332
95.4913 415.699 287.082
19.6815 351.619 241.342
49.3604 80.6637 64.5268
44.3931 350.846 116.016
78.2553 396.837 255.356
100.031 125.765 284.134
63.6652 127.288 61.7323
36.9179 479.602 29.5663
93.7002 394.8 105.183
88.7765 132.922 86.5728
82.8968 116.402 25.0861
33.3305 327.156 143.185
46.9675 341.319 121.919
61.2192 331.884 224.237
100.228 428.034 180.669
81.9287 376.108 105.221
25.8557 392.148 136.809
53.0933 115.433 29.9989
66.5961 437.518 146.214
73.4448 36.4597 69.8958
58.3275 23.9297 121.083
78.3173 432.64 132.531
69.7885 396.076 250.034
51.4801 126.181 111.037
29.9457 436.889 256.957
43.6812 88.7543 137.574
39.9986 172.283 231.138
104.952 65.0261 93.9334
27.2661 313.809 172.375
62.3451 432.893 282.426
42.2172 429.892 274.466
92.5098 50.5519 94.7159
103.952 92.2006 41.4663
67.2667 386.365 101.354
53.3599 376.417 226.308
114.962 467.492 206.773
23.5005 98.8484 94.4567
50.8059 64.0827 96.9952
44.9078 223.954 294.692
36.5191 221.241 264.753
64.5941 192.737 321.628
63.1545 147.763 299.469
78.6243 375.19 139.641
30.2165 116.715 101.771
60.0239 326.49 212.534
30.6154 428.12 265.425
50.9412 63.0886 56.767
76.7613 422.303 292.372
46.6359 99.0569 145.581
40.0654 54.7578 99.8348
45.8675 251.458 239.096
38.3658 469.188 37.8068
97.0056 36.0453 129.919
114.048 428.651 232.682
105.443 98.5643 54.1748
83.1913 413.086 296.452
73.5389 384.292 154.38
81.2986 392.618 294.753
40.7236 64.2394 72.8615
27.7154 476.997 35.9996
31.706 118.181 271.487
87.0238 67.3092 156.292
117.431 455.888 225.287
73.263 401.898 230.161
93.8929 69.3319 156.064
60.7018 147.448 221.086
120.096 455.074 218.682
27.9753 434.076 166.584
59.2443 193.379 303.149
34.1085 471.085 46.7436
87.1627 408.646 295.515
91.144 54.0763 49.2688
101.647 62.4978 84.1126
74.3035 274.699 135.337
35.4996 464.247 33.9439
59.9139 159.445 342.14
105.161 395.642 128.265
111.551 438.493 180.423
56.0129 188.809 228.58
106.977 96.1868 108.895
97.2028 77.7321 47.793
108.334 428.276 217.56
52.1339 230.321 72.0946
54.6225 214.392 91.7267
32.1193 52.1282 72.6297
58.1121 354.767 220.872
33.8538 433.643 265.783
42.9149 466.961 47.7653
103.405 456.017 169.92
48.8405 185.501 253.02
45.8961 116.765 55.4882
19.9513 319.156 191.593
87.2253 55.876 62.8475
60.2193 447.048 269.348
43.2093 76.6378 56.2999
99.5481 409.159 269.991
46.77 54.8658 130.067
82.4064 136.016 52.6834
80.115 264.287 128.67
68.323 23.464 117.677
48.5172 468.373 45.455
97.7418 458.616 178.377
49.4078 106.366 29.3837
57.403 149.143 293.808
110.672 411.193 144.769
69.8961 114.909 238.245
64.1003 481.422 24.3042
53.8419 341.949 183.153
84.7389 390.437 156.758
64.9668 154.664 308.061
75.0391 135.636 55.308
104.013 419.955 226.296
56.0367 478.652 15.8966
40.4237 48.1782 111.686
31.1309 448.895 227.029
109.625 98.0983 99.124
108.116 70.8113 101.826
85.0967 401.1 244.261
60.504 343.447 214.113
60.9744 218.033 116.901
85.0507 461.035 187.904
48.418 228.442 125.626
62.0852 90.2573 98.7099
40.0585 357.124 116.608
88.2222 422.366 111.325
68.1106 447.976 169.304
49.5806 116.376 257.492
90.5703 401.593 275.094
63.5347 194.899 336.3
96.7246 99.3493 33.29
97.9411 62.6785 47.8681
57.3078 89.6295 26.0613
75.7396 140.795 301.791
68.7039 136.681 335.543
27.5766 118.471 280.249
62.523 169.412 344.332
91.7987 127.309 65.8436
56.9523 470.871 35.8214
87.6395 91.1604 26.5965
61.5863 474.004 34.9585
87.5216 125.448 63.7591
83.3116 156.394 119.796
41.5542 48.1047 105.435
57.1962 474.699 42.3862
101.777 431.275 184.909
54.0664 466.691 20.3524
44.2741 59.04 101.376
39.1905 346.703 120.969
62.5522 141.598 289.411
21.2177 333.754 165.445
59.4562 465.004 215.29
111.397 436.032 172.107
31.4596 123.146 81.1744
66.7998 414.205 116.246
89.6994 101.043 121.812
85.2301 372.061 124.059
80.3165 469.158 215.734
62.219 484.351 17.9496
31.6549 467.532 31.7267
57.222 54.6614 46.3723
60.9457 381.017 222.182
66.913 125.783 226.185
88.6856 122.933 78.2997
55.9611 55.6816 51.5573
100.683 419.264 167.904
64.7948 106.518 146.529
45.9455 47.1789 60.7453
92.7619 39.4198 118.506
45.2956 174.813 336.408
59.6794 345.077 205.506
71.3788 255.609 129.079
26.3337 338.176 139.554
61.4964 146.385 337.669
48.0248 355.108 157.909
79.3163 40.5376 112.897
43.3367 114.752 273.463
98.2345 122.61 70.619
31.2664 76.9997 65.9166
84.1803 452.41 171.382
65.0586 383.205 305.068
108.462 425.393 224.042
81.7435 25.4039 129.901
70.1021 165.094 219.939
97.5938 424.423 212.681
64.6398 377.499 279.029
54.1035 365.395 150.452
35.2734 178.943 226.604
51.4653 62.0912 33.759
56.1057 130.264 51.7485
102.083 431.712 125.559
60.1035 478.775 19.4826
98.8013 428.717 119.898
97.1454 49.7843 130.636
52.4533 474.61 45.7365
90.6291 132.577 48.2042
61.4541 475.846 23.911
62.7634 477.249 30.1673
55.5411 338.408 176.891
81.7839 57.0303 162.552
31.4849 482.667 22.1596
94.6438 88.8662 31.7285
68.876 394.381 169.278
71.8024 387.95 269.575
95.1738 44.161 141.118
63.3786 330.043 241.8
68.4971 99.9576 138.36
49.2826 466.184 36.5916
19.8296 108.364 87.5975
41.383 131.202 68.7221
28.3118 86.5289 95.0303
32.9482 41.5861 118.883
106.43 105.95 53.3263
92.5544 403.004 267.386
86.3679 115.833 242.63
105.525 112.674 75.7252
41.443 105.184 121.305
50.8071 115.362 124.423
85.0524 34.7379 88.8207
59.1286 146.261 279.495
113.34 415.09 132.67
97.041 417.114 222.405
47.4844 183.914 220.94
42.7895 466.654 38.6798
93.3731 124.078 82.7315
114.329 416.512 138.956
117.559 446.02 189.89
83.3725 146.294 311.69
98.2877 34.6948 114.99
45.0051 69.8574 158.365
86.6108 131.268 80.3585
39.1697 111.154 52.5918
46.7362 384.058 178.971
22.6579 85.264 69.074
58.8232 35.22 85.4131
73.0887 27.5791 148.582
92.7862 418.434 217.867
54.5778 352.666 187.103
59.0357 152.527 267.821
73.9124 261.958 134.424
66.8977 357.734 126.145
29.3683 58.9545 61.8992
27.824 474.957 47.4089
49.5884 46.7844 83.0146
45.8799 63.2001 126.045
58.1278 342.209 191.253
91.5847 465.441 195.783
83.4303 371.06 112.219
108.771 432.917 209.661
90.7903 73.3233 141.175
67.8415 66.0546 165.1
87.7002 87.0975 23.0034
45.3157 219.368 310.112
34.1966 470.171 22.9787
98.5913 128.229 316.316
104.072 469.282 212.219
32.1902 81.7367 51.0768
74.9325 100.863 133.139
55.8031 110.597 271.585
99.2472 58.4912 89.2237
36.1938 75.276 49.4422
78.9993 129.896 103.898
60.1141 205.407 316.533
99.3862 66.5251 57.9956
90.1628 55.8111 80.6733
74.7963 40.362 80.6753
34.8041 480.547 45.918
49.2777 361.29 177.214
51.7049 26.1198 125.767
106.164 67.2023 80.6783
52.9837 345.98 172.046
63.5427 231.835 87.1347
91.7842 439.015 137.652
28.8682 448.128 205.212
38.1786 123.337 238.419
99.0208 412.644 282.262
30.5008 322.737 151.611
100.852 102.275 105.589
48.6641 363.204 166.433
37.2703 484.604 38.8235
90.8299 138.406 310.89
52.9072 116.886 113.138
112.68 438.241 255.51
89.9023 94.1869 22.4269
48.9617 57.472 64.8778
53.8209 429.009 280.349
89.6779 115.809 122.471
92.4447 461.772 186.264
105.979 432.998 177.573
56.7791 117.469 316.791
55.627 177.313 241.899
85.128 109.039 27.342
41.3457 60.9544 124.807
38.2232 126.141 70.7918
114.722 429.916 226.867
94.0328 58.0674 47.4443
93.5534 120.832 244.409
36.7769 188.837 261.716
100.347 414.593 229.554
59.6072 219.186 126.926
88.497 82.8831 155.947
55.4718 169.849 244.016
52.4079 137.514 331.432
29.8851 448.951 200.926
97.3672 133.745 313.381
36.1944 76.6995 131.665
50.5789 435.946 273.408
94.4195 445.059 274.858
81.6981 411.411 220.887
30.5669 482.534 36.433
103.706 50.349 141.256
102.795 65.7474 136.303
50.3492 197.853 334.979
98.4321 468.252 232.311
48.3331 32.4346 94.0683
95.8386 72.2821 76.5029
29.9654 447.28 217.05
84.6555 417.203 212.953
78.7497 123.51 70.0674
110.614 116.434 66.9637
37.3811 153.455 223.833
99.8266 94.6643 35.4113
93.5026 81.7224 32.1502
106.744 95.3279 73.5928
64.7504 139.797 282.864
61.9115 47.8528 48.9598
49.7085 212.838 83.0023
86.1555 407.481 104.151
88.6279 68.9327 146.634
54.1671 155.648 218.29
96.3866 44.3149 150.108
49.0876 355.804 166.114
32.3245 223.381 88.8388
87.7539 130.938 44.876
30.5379 214.386 299.07
103.494 142.767 99.2034
113.481 437.061 142.039
90.3003 470.3 222.118
44.5291 118.347 247.694
26.3115 64.7719 93.201
117.282 439.641 219.347
47.2075 50.2964 68.1016
106.079 450.042 257.921
24.0593 316.062 176.227
86.6531 73.9637 30.7988
111.619 428.531 160.543
102.133 67.518 64.5939
98.1827 124.166 96.8944
68.2788 275.527 144.608
109.107 55.734 103.385
85.5422 372.19 117.335
102.173 84.8865 71.1322
73.8105 93.9442 156.329
99.9828 66.5387 146.011
77.1329 134.32 109.822
79.9208 457.755 182.727
54.553 422.236 285.38
106.005 118.531 71.4673
62.4823 109.819 287.164
49.0926 209.073 324.995
37.6793 42.858 89.3376
28.5544 389.184 131.277
52.6891 137.695 72.0774
75.3342 153.642 313.125
27.5923 404.708 140.722
40.5339 251.548 239.254
98.2699 52.3208 145.786
54.1165 32.7691 117.313
28.5585 404.629 136.663
31.642 474.876 28.8468
94.9554 383.434 114.211
114.87 454.8 168.165
109.796 115.082 55.2301
84.1415 31.7316 114.524
84.6102 45.2253 117.282
49.2212 243.522 246.421
55.1831 122.561 118.269
54.3507 318.651 187.02
52.8348 346.233 177.449
107.118 56.3434 94.6834
103.892 437.17 132.905
53.9877 116.355 243.278
98.2896 115.517 41.4111
53.1877 317.687 181.109
107.976 80.1993 58.5421
44.6742 197.229 228.235
97.8008 387.22 130.218
46.7423 113.38 130.348
88.256 457.08 179.112
101.648 119.584 56.5994
20.3107 61.6989 98.9397
106.255 62.6041 100.04
59.5921 386.124 226.021
33.0504 120.465 303.893
115.683 442.038 169.586
111.674 439.275 204.034
111.81 454.246 244.651
61.6851 341.9 230.089
55.6891 347.775 121.767
58.5915 188.15 342.994
114.044 444.094 149.593
31.4176 114.987 64.0258
23.7156 317.926 232.43
51.861 77.3698 85.2913
33.9609 470.055 28.1374
93.2586 115.816 75.8453
102.461 125.725 89.4754
68.273 373.922 144.941
103.358 462.882 242.349
100.32 96.9903 52.8495
36.3276 126.625 232.651
66.3003 405.197 106.151
18.864 362.087 274.368
102.525 83.6122 77.8021
27.167 107.641 99.0222
96.5093 115.295 35.8053
54.2694 327.122 187.507
33.9021 192.323 231.634
46.2939 123.781 229.071
87.0926 30.7299 105.551
82.2074 35.537 148.55
75.2254 119.744 27.6051
112.417 442.788 253.278
41.7652 47.306 92.6718
88.9276 37.6317 91.8904
108.87 77.7951 106.594
93.8981 107.32 35.161
104.833 460.523 180.645
109.891 426.88 263.412
101.931 466.54 196.692
55.8859 153.774 274.702
68.5109 363.014 133.094
89.8682 411.683 224.318
62.5437 24.1879 141.862
36.1551 45.0692 109.31
54.8721 352.212 180.399
91.4776 404.9 286.527
104.175 63.4224 131.052
62.3171 113.44 128.369
94.801 42.1733 134.775
68.4941 28.8402 137.36
77.089 113.974 132.342
91.7083 85.9071 28.4145
69.9761 169.916 345.571
61.2293 479.526 35.9174
79.8464 122.411 120.295
74.1978 95.2961 134.619
100.954 72.8198 49.2187
39.249 56.4721 127.749
72.5614 256.946 138.905
101.904 55.8804 131.292
43.9665 111.552 118.082
76.3741 80.3982 71.5004
53.5717 41.7756 104.734
90.3379 91.9185 139.173
55.6939 469.46 31.3993
104.91 122.449 64.7173
45.716 109.213 123.529
75.9838 107.478 135.428
114.772 462.635 201.873
21.3446 425.839 182.095
59.0439 484.569 37.3107
105.109 72.1438 62.4839
25.2296 317.928 185.219
104.959 416.528 235.713
106.314 417.431 158.502
93.187 73.8922 147.916
43.4053 463.472 41.6167
96.9989 123.245 248.908
32.5052 81.5973 129.578
77.3293 35.3535 81.1454
103.917 73.9399 57.4227
37.5298 109.693 117.938
64.1914 24.977 136.271
105.952 76.2629 125.949
87.3148 51.3497 52.5537
107.663 59.3041 128.273
93.3918 451.025 162.909
44.7667 145.092 332.25
51.0137 359.346 180.719
95.6754 441.856 142.28
112.395 450.26 156.366
111.719 456.399 232.678
37.9267 472.756 30.2291
93.9791 128.514 240.363
38.1322 484.789 22.9822
60.3757 331.728 211.391
95.1853 140.371 338.664
100.785 47.7356 50.5815
99.3656 98.1131 39.8876
53.8494 243.275 112.001
52.3364 471.35 37.4933
99.0841 468.502 204.174
71.5018 107.121 134.969
19.4107 376.309 221.858
116.192 459.254 187.763
106.612 444.076 259.126
20.0489 194.934 261.602
111.937 107.999 73.097
92.9179 29.5285 120.815
59.6318 484.814 25.1185
78.1659 109.975 269.716
73.4439 58.8913 163.578
106.023 95.1538 123.408
71.0901 123.262 327.368
53.8752 484.589 37.4027
52.3095 58.0911 47.623
99.3594 69.0192 52.1374
104.829 432.514 271.881
76.4793 130.831 333.224
54.0704 242.988 250.189
73.781 437.724 146.111
101.859 107.675 81.7933
34.9282 470.573 35.3817
92.3154 70.3762 37.7801
57.0375 475.485 28.9439
108.283 64.9852 118.282
60.4501 124.042 226.258
39.613 56.2184 135.442
91.0414 59.37 77.8346
37.4529 83.7406 135.336
100.938 77.962 73.5331
48.6419 471.819 36.7916
97.7042 120.603 304.707
57.5482 40.9481 100.831
95.2049 388.066 109.037
100.359 105.031 36.7918
107.755 122.544 58.3813
56.238 371.328 231.017
23.7072 235.745 108.354
70.1862 98.6086 124.122
34.9477 485.007 27.4121
77.3365 82.674 82.5599
100.396 106.863 42.2155
53.9822 384.135 239.098
44.3365 478.184 43.21
72.1576 124.11 30.9991
111.369 67.0176 123.946
64.8159 484.366 36.1374
103.839 101.161 48.6269
106.789 97.3189 45.3734
37.6564 227.262 104.972
33.7311 484.84 35.1056
88.3569 133.704 330.687
29.7279 479.581 50.9939
103.393 111.334 44.0656
89.5259 397.935 155.403
90.4753 405.99 291.341
107.331 431.323 127.895
23.2673 112.099 102.891
