ply
format ascii 1.0
comment Created by Open3D
element vertex 625
property double x
property double y
property double z
end_header
22.6677 156.299 91.147
26.3516 139.489 159.231
43.9291 68.2232 78.6655
57.7406 185.61 117.224
26.3276 153.567 57.2396
43.2657 67.6886 126.93
27.1687 122.984 143.314
22.5524 151.969 77.6033
28.6926 109.986 115.696
29.9718 117.223 166.792
43.4345 36.2233 72.4963
28.6115 108.64 87.5168
38.6442 65.6159 114.409
24.5077 125.17 71.944
66.9052 42.9656 51.5637
61.8987 80.5021 142.89
26.4143 109.647 77.9622
53.8294 40.9085 69.0224
22.7422 163.432 131.896
22.3714 200.933 127.21
63.7019 79.3779 65.8077
26.1068 140.914 146.139
67.6675 86.0819 93.5656
36.2326 73.2206 82.5886
69.7166 82.1594 81.5613
54.3981 72.0252 135.134
51.4455 134.104 166.792
27.0528 105.159 151.8
36.3224 67.2495 106.084
21.9886 185.067 134.727
40.8526 145.267 169.758
29.1392 101.68 85.8212
22.5517 173.967 127.829
80.3672 116.098 57.4525
21.6664 142.543 113.54
41.1364 86.1999 60.6878
91.0742 144.192 73.3323
29.9952 84.7959 123.234
62.6032 75.1462 99.1331
22.8285 143.958 90.3226
70.8479 163.449 51.7558
63.0563 48.7432 27.2928
42.2549 139.069 172.442
23.2564 144.153 131.242
37.8213 111.842 45.5928
76.7924 120.606 134.622
30.0938 198.574 107.036
22.4673 203.41 118.299
59.3213 142.35 159.642
21.7139 151.127 116.733
69.2345 96.5908 118.745
37.6892 94.0132 58.6608
60.1749 80.6434 58.5145
25.5067 135.92 124.91
51.3715 82.8982 60.7537
22.7311 166.03 114.555
36.5438 48.1579 96.8126
28.9385 99.7779 115.122
37.8276 71.2211 89.3917
28.4597 94.973 89.0525
28.3552 134.067 48.2725
42.9332 79.9655 158.816
56.3011 93.029 46.0999
68.8877 81.4037 72.4105
55.7221 25.0901 72.9003
56.3013 163.34 153.974
21.4526 161.886 75.47
41.9517 188.074 105.267
25.5196 165 150.906
44.4733 131.355 172.866
69.6104 91.3835 105.869
58.1941 38.5663 41.8142
34.2884 100.334 64.6241
58.2301 177.75 119.472
52.0084 85.3506 54.3683
21.5763 193.106 89.4885
53.2091 101.15 173.902
40.9842 156.229 56.9518
28.3534 122.538 122.918
47.6077 176.84 147.713
48.8268 151.143 66.2346
28.4112 118.424 57.9391
32.2204 83.9885 77.9746
33.7237 39.0186 84.4688
42.5599 153.187 165.491
20.9919 172.406 91.0149
53.5099 67.9051 93.4207
31.9883 134.282 168.061
35.1078 178.687 76.0876
89.8679 164.358 53.023
26.6184 91.3709 107.916
26.5837 113.363 143.535
50.5642 188.233 128.559
38.4723 174.816 149.376
50.5123 146.65 163.511
21.6078 171.233 72.7057
71.334 104.137 128.304
26.0486 121.223 93.1524
28.2728 95.6237 148.366
43.367 75.2154 69.9837
29.031 195.188 95.8673
22.4948 152.315 103.747
27.1465 127.787 138.761
26.7815 111.899 136.159
54.0758 118.685 38.0162
26.5557 114.408 102.234
21.4645 195.509 104.781
71.5828 90.9394 85.3976
57.9695 160.698 66.8173
32.7537 91.672 137.891
20.9527 183.147 83.5189
47.6328 42.0295 75.7166
61.2839 74.2773 89.1637
21.3553 187.157 124.219
74.2398 97.6075 62.1045
29.1151 100.109 156.419
27.1762 83.6557 101.441
21.1426 182.789 93.3599
46.2292 124.679 39.4006
55.9951 69.6681 80.6201
30.5086 101.067 105.133
26.2045 153.825 147.256
52.4083 73.8939 68.5175
57.5818 99.7157 40.1485
62.5467 89.0295 58.0108
66.8213 77.4938 124.097
21.3442 169.127 102.396
36.4223 131.402 42.2673
24.2992 143.518 69.928
78.6903 162.544 48.3359
69.4061 107.234 82.5457
78.7236 111.009 109.703
57.7818 99.5219 164.482
72.0116 169.91 112.534
66.8434 167.915 145.263
86.5909 162.873 45.7083
29.5244 119.893 50.9576
34.6728 90.2659 66.4924
27.2282 99.3243 98.3687
49.0238 25.3837 73.2264
78.9265 110.05 65.5516
45.4871 103.595 40.0757
35.6195 182.597 148.338
22.9211 177.288 69.7459
40.3096 82.2193 66.4745
23.9666 134.879 81.3767
71.6314 134.003 40.0974
60.81 25.6296 78.6185
54.7374 76.8144 146.857
33.3312 153.791 162.905
24.656 144.696 138.524
28.3116 103.341 67.2994
53.5478 189.255 100.604
54.5828 70.1584 127.359
21.96 190.851 97.5599
53.1672 48.6637 70.2102
62.6946 109.563 159.093
60.0397 190.285 105.594
21.4255 197.043 134.309
34.1504 71.3399 125.864
39.3515 103.48 171.712
28.833 80.0885 109.638
29.8895 80.3252 117.888
52.8811 127.362 168.841
36.1637 84.2415 72.1587
74.103 168.75 59.1169
92.8318 128.96 68.8576
83.996 136.823 117.617
62.9721 70.7004 130.657
46.6463 61.1602 109.933
41.9472 92.128 168.847
33.1835 72.0085 95.3948
63.6178 148.367 55.483
44.0033 115.946 37.3041
60.1805 86.7142 106.774
48.9871 158.079 71.1444
27.4368 107.162 131.153
42.0627 28.6523 71.1351
30.5488 77.8915 88.3628
48.6309 166.723 76.0982
68.6396 114.085 141.518
76.2427 132.353 148.209
28.9265 84.2781 83.7439
57.6788 113.511 170.181
21.0744 200.627 110.711
24.804 180.746 147.563
37.8063 95.8094 163.848
49.8194 29.7941 68.0619
46.5654 78.4853 142.534
71.0681 96.8797 68.6061
62.6696 74.8112 78.3696
79.9999 146.504 89.4317
41.2367 24.5832 84.0589
49.8529 111.934 35.9574
25.8037 89.2948 94.1955
24.1004 157.016 135.101
37.8969 25.9531 77.1788
40.7679 73.674 76.5152
39.5176 40.2625 68.3401
34.0793 187.85 89.858
23.3879 130.718 109.618
60.1075 74.2329 71.0791
49.775 152.358 106.87
54.0589 169.502 110.584
47.3095 34.9504 91.5198
26.6335 112.519 64.2542
37.868 170.064 66.4953
30.4715 84.8739 130.381
42.8672 181.306 93.4695
34.4305 196.81 115.275
43.7536 21.7737 73.3709
29.5349 97.899 74.7299
27.6384 120.338 155.586
88.4409 122.982 53.0325
36.2762 77.7208 76.2237
63.8227 128.921 41.9358
52.1223 69.5915 74.581
65.6081 103.996 147.868
31.6864 93.8238 79.5506
24.5336 137.068 91.0004
81.9172 172.136 55.3539
67.0049 78.5534 91.583
68.9401 105.355 89.082
64.862 130.066 159.712
45.3861 22.7822 79.5692
41.6399 167.281 72.8544
85.8423 122.297 89.3334
26.1527 103.321 140.005
61.7872 156.949 156.767
39.5971 43.9697 83.1297
35.0367 48.669 81.6288
68.0512 179.816 72.4706
57.2069 168.906 70.5768
46.0307 50.2703 90.5278
34.3642 70.3382 118.472
64.5995 48.8419 46.9856
50.8035 193.246 119.07
34.5658 34.6193 91.5397
70.8053 96.7141 50.2297
83.3137 175.37 63.4794
91.1229 132.4 84.6624
54.8432 41.4857 89.8927
46.8789 95.639 47.2359
34.7503 178.747 120.267
43.575 88.5045 54.6595
52.1336 183.617 134.198
34.1935 35.807 72.1453
59.8221 120.353 161.714
66.3421 118.484 150.429
51.286 116.541 169.567
33.2863 100.375 166.332
67.1495 111.429 152.332
54.4522 44.9111 82.4783
60.2901 70.1655 119.891
24.8231 131.902 96.982
45.6167 106.536 175.931
67.8319 103.255 47.2631
90.8792 143.441 39.2977
67.0175 38.0477 43.3403
64.3809 169.704 100.621
73.8555 165.41 103.892
57.9083 144.525 56.9177
88.7594 130.073 114.73
24.2027 137.295 60.462
31.6329 111.1 57.6439
68.9423 107.52 37.1584
60.8627 30.0285 86.1289
61.2223 86.8979 50.7267
57.1948 112.062 106.429
54.5226 106.089 36.581
87.8364 166.572 76.4665
76.9489 157.684 92.3849
104.732 133.378 104.656
58.3475 128.645 42.8191
47.6851 77.6261 63.2775
46.1986 64.3417 98.0556
55.9337 60.7406 106.754
22.2282 148.083 83.7957
64.3948 164.771 58.9966
49.2737 67.1353 84.2307
48.5626 52.0639 80.9508
21.6761 156.64 68.7504
69.6809 155.26 148.336
50.7813 145.53 56.9523
22.3741 184.145 107.723
54.7269 51.9539 79.4535
35.809 27.7275 83.683
35.0088 182.721 85.4569
54.903 169.904 149.222
73.599 89.6547 73.5102
89.2571 125.922 100.78
83.1257 140.598 90.558
26.9332 96.1872 128.054
46.1818 63.1746 118.844
54.4496 65.5789 117.721
58.459 182.614 81.9482
88.2978 168.786 58.6354
66.5007 172.987 116.098
68.1308 157.123 49.8713
94.8012 167.573 62.4997
77.1531 157.479 40.4855
51.0171 152.442 122.845
73.5418 124.424 146.618
50.8098 75.8714 155.044
37.6316 64.8225 98.4797
60.2084 45.7992 75.1093
28.0068 83.3161 93.5687
54.5418 108.485 174.945
41.785 159.863 162.09
25.6141 91.2003 141.074
44.5758 159.229 66.0734
73.4307 135.433 155.421
73.9614 150.075 150.381
53.7799 135.471 47.8448
48.1026 25.0727 85.8472
60.0578 36.4532 70.9141
87.3707 148.832 123.172
60.2705 172.728 127.577
47.6026 86.9751 162.156
40.3504 149.756 49.2692
78.7264 112.974 41.3925
34.5355 112.428 172.518
49.147 35.2069 65.3576
71.3343 144.182 84.7682
42.9023 193.047 113.05
52.1309 48.1152 86.9345
50.9366 48.9832 94.1258
55.2427 21.7184 78.1314
52.6148 173.214 142.669
21.4454 198.962 97.1221
55.6298 41.6764 50.2721
65.6515 97.6176 56.4518
50.6013 135.951 115.911
76.3539 65.6545 84.2624
94.8305 139.496 117.074
28.2145 171.956 64.1361
58.4899 166.954 145.519
84.9337 153.579 36.7327
56.9532 176.037 75.4615
68.3576 170.203 135.838
90.3435 159.535 41.94
62.0045 180.815 73.0101
52.4566 37.5369 93.6129
39.8708 103.851 44.5523
80.6105 112.471 50.69
65.9319 165.015 154.281
48.4206 68.6516 131.394
24.296 166.243 62.3624
45.3276 73.2402 137.792
89.6221 131.767 57.4426
61.6623 113.092 35.3076
54.5319 116.69 113.577
36.7154 123.264 40.0977
72.6715 168.618 123.998
45.8509 41.4849 85.6257
94.5517 153.201 42.1685
23.4192 155.323 128.915
71.3555 178.493 65.3236
64.0417 99.9414 158.789
46.529 43.9607 105.32
31.3098 178.084 152.208
33.3277 89.7318 159.056
40.9713 162.533 64.4002
28.1465 96.332 140.429
49.4051 166.717 155.768
38.5157 193.747 124.74
52.0869 138.348 123.434
73.8991 107.142 44.1793
44.7127 152.233 59.0184
56.2543 25.2569 84.5815
32.2465 143.597 166.606
69.3326 106.723 133.494
78.3876 179.284 87.6714
74.836 138.747 136.577
53.6185 125.758 120.416
58.897 89.8839 162.888
77.3857 102.718 78.1098
66.9693 156.529 139.774
60.3002 91.8077 144.823
32.411 162.341 111.483
47.3183 48.1837 73.2368
91.32 137.141 78.1272
83.4541 119.278 70.6829
21.124 171.412 120.902
32.0779 72.1371 110.563
32.2224 105.243 54.6073
69.3782 184.465 79.0863
64.0587 184.289 84.6271
49.0288 119.748 175.472
41.119 97.5604 51.0605
51.0285 23.8448 81.2895
44.9954 131.95 44.6872
30.5161 148.448 45.8667
73.6818 101.012 57.1406
41.3214 170.65 80.4299
61.3682 44.2008 86.1465
33.9315 170.73 154.615
62.9122 30.7431 78.0477
70.9373 107.701 100.58
36.8488 185.772 141.635
47.5044 172.559 155.811
82.5723 124.876 62.8583
32.5316 78.8817 82.4336
55.9254 121.708 98.4834
81.2474 120.23 51.6109
55.3618 144.545 130.904
26.7618 93.2579 100.85
65.5951 100.031 110.674
47.9838 39.136 69.4556
71.5616 89.5792 62.3053
50.4631 189.791 108.761
85.3318 139.305 129.15
87.3438 150.759 79.0833
22.2957 192.144 116.886
62.5966 36.7346 78.6513
68.4832 186.409 100.596
28.5131 88.9161 87.1711
51.9675 174.245 150.339
32.4956 81.954 147.274
67.1085 98.3528 135.589
52.8283 79.8801 159.446
67.0348 99.4002 95.7998
38.5939 40.7441 104.987
29.3836 158.836 160.288
38.3454 34.2196 77.0864
30.2382 177.299 69.5661
31.5871 73.5548 101.501
82.0654 138.748 30.8204
56.5109 152.095 64.9156
35.7857 100.743 53.1828
50.6587 177.756 138.663
37.1861 121.96 174.91
56.8802 174.134 134.103
57.2606 83.9952 160.079
51.7277 88.5697 167.047
88.0583 124.6 72.1624
59.5004 138.987 52.5328
32.6572 39.3624 77.4058
74.4876 123.779 88.1873
24.8291 125.767 55.0825
75.8698 132.073 129.71
40.4149 65.3822 88.8167
44.962 30.1543 94.3361
86.6276 155.405 86.5835
84.6396 118.393 42.7815
75.997 99.1721 84.0123
67.8337 149.042 160.119
28.1771 91.4374 125.214
44.4327 191.488 130.341
63.6106 95.2541 46.738
60.4279 34.0169 47.0603
63.6772 188.47 96.311
55.2414 31.0616 90.552
28.9985 183.572 75.9279
38.7672 31.1084 90.7311
89.8473 124.988 81.0331
28.3288 121.374 129.909
64.7728 117.855 93.9859
48.9599 185.734 98.9921
83.2735 117.221 64.2313
70.6394 96.3317 89.9078
81.8802 113.977 87.814
36.9812 129.45 174.363
67.6582 142.946 36.819
67.3886 96.9444 42.7961
72.9646 144.828 134.687
74.1081 145.097 143.048
60.4954 154.888 133.908
106.572 147.832 113.244
76.404 150.604 39.5716
54.3621 185.156 91.531
71.6636 97.5078 76.704
65.0653 109.731 112.456
36.1816 43.408 93.0121
62.2293 171.504 139.769
83.6551 128.122 33.472
66.6834 118.143 34.9669
70.496 164.519 136.647
44.8074 36.0102 98.5178
73.4989 104.171 119.328
47.418 96.3723 172.104
73.324 139.434 128.884
96.8879 143.118 100.422
74.7505 149.539 140.218
55.7403 32.6064 69.6875
71.1642 162.049 95.7765
66.1678 82.281 111.542
47.2134 84.9651 156.06
74.9181 113.713 128.476
64.3046 34.1981 34.4664
80.0246 145.896 34.8672
62.7741 84.5225 99.7164
43.1385 141.175 51.7149
26.0904 160.424 61.2203
61.2759 41.2955 46.8416
82.7163 118.748 83.3315
64.7466 124.01 36.4286
76.8528 159.348 129.95
58.6681 108.566 164.45
66.9763 145.215 47.5338
39.5915 188.577 137.583
64.1544 86.2656 120.275
34.4826 164.649 57.5027
98.587 127.681 109.899
54.1525 178.6 127.173
71.8935 131.061 87.79
33.5524 32.6487 80.3552
46.7178 115.018 176.964
62.0017 38.4563 84.9807
99.7416 130.689 115.521
48.1042 43.0797 95.1912
44.1371 184.465 140.692
102.671 140.081 99.5776
59.0267 36.7306 90.3782
77.8399 177.058 67.3815
71.3259 127.561 155.075
93.7789 144.869 64.2587
79.8444 158.857 111.919
72.9123 113.14 61.146
64.3217 97.6897 126.627
40.4266 38.5607 87.2184
76.7833 123.25 127.992
79.4445 109.43 73.5492
71.5493 152.35 85.9868
79.154 168.061 97.0792
107.368 141.664 104.379
86.9591 136.188 35.1009
91.1978 127.583 75.5118
75.0897 116.523 90.7899
64.7897 90.5743 116.753
54.5398 152.297 92.7464
44.0475 29.2062 88.8835
75.2478 118.685 71.0555
95.7761 139.623 57.0892
83.1114 160.472 94.2809
60.5819 184.222 89.9288
60.8464 29.8428 56.8977
83.7705 177.17 73.4789
35.3159 193.057 130.46
24.8131 124.325 61.2585
71.8207 87.6362 67.2938
88.0286 130.344 38.3916
76.8572 108.676 86.875
78.1732 104.531 61.8075
100.851 151.886 103.782
82.6638 134.475 92.3696
92.9549 142.443 46.8656
61.1111 86.731 114.916
62.1849 89.5198 131.97
68.3197 108.311 121.153
70.2463 146.912 155.111
48.5876 72.8885 144.866
64.4343 159.782 61.1852
74.4889 113.66 78.4743
29.718 78.4434 102.207
65.0877 91.5101 52.3587
31.0672 81.7398 141.777
67.9929 161.268 130.948
86.5289 159.661 128.282
85.1185 127.753 95.3836
66.5357 172.899 128.223
56.863 164.684 117.247
33.7029 190.156 142.354
27.9645 19.2067 86.7714
93.4909 164.042 70.4889
66.1686 146.784 135.661
65.0472 127.336 126.425
72.9339 115.74 122.79
81.356 125.941 73.3694
46.699 41.8112 99.7954
62.8813 94.0838 101.136
65.0592 85.1591 62.7041
86.6773 154.123 100.429
80.0298 150.843 126.821
79.69 152.573 86.0624
71.178 184.817 86.5666
51.6316 27.4025 88.4681
94.5622 136.128 69.6297
105.844 147.477 101.468
88.9597 174.11 63.2642
47.902 137.835 55.6392
81.7998 128.963 88.1253
78.7515 170.314 119.816
93.9992 155.432 108.606
56.7184 180.028 135.83
93.2819 149.535 100.797
76.336 179.313 97.5941
48.1561 185.472 136.8
81.5054 113.279 81.7082
97.8129 133.163 103.639
75.1046 138.974 144.262
64.7527 138.707 44.6027
42.984 46.3398 88.1135
74.1993 141.301 149.239
65.8243 88.0942 102.08
78.9255 121.807 92.4842
69.0498 168.238 128.964
72.2574 145.709 34.1786
74.9016 184.211 82.8812
75.9288 102.323 51.5828
68.8487 115.929 127.147
87.0927 130.746 90.2536
62.8629 128.788 89.336
94.2601 134.807 62.8398
42.5491 119.909 160.338
60.8554 105.284 35.4953
56.8552 81.4694 153.93
88.3379 146.396 84.173
89.3269 137.626 89.8959
78.5341 103.122 69.3655
51.6656 128.39 43.6389
66.3357 102.157 153.41
61.4777 166.692 119.629
50.321 139.036 161.642
27.5303 188.114 146.12
86.0615 159.546 79.3822
66.0606 116.047 123.086
77.4987 143.403 123.089
74.3373 172.983 100.696
90.539 135.531 45.1117
89.2579 162.729 118.845
60.5641 114.993 114.949
76.3581 130.478 36.1549
67.465 186.227 91.0609
60.3092 172.813 110.351
