ply
format ascii 1.0
comment Created by Open3D
element vertex 191
property double x
property double y
property double z
end_header
68.7758 134.288 92.6515
22.9137 26.2514 135.96
17.04 109.7 58.0283
33.8476 147.021 25.0187
49.2149 29.2691 146.423
23.965 54.0492 142.691
38.1403 153.599 89.0796
45.2876 37.823 128.065
31.7573 44.6249 128.255
37.0862 19.1219 132.965
18.2094 38.1565 142.33
41.8634 35.3205 148.958
45.7732 22.1262 145.31
28.5193 21.6852 140.838
36.2801 47.7963 155.232
30.0065 27.9387 130.192
31.0771 119.269 35.9477
43.6316 119.656 32.0906
40.2397 158.498 83.0917
37.9973 114.411 39.1055
49.8916 49.812 144.185
38.2092 36.3847 158.792
49.0412 45.9937 152.663
18.3674 142.181 39.5923
36.5443 153.488 39.6653
57.6782 134.87 104.06
39.9974 18.7023 149.345
22.6016 147.669 32.1307
26.0153 43.9139 133.237
16.8575 123.375 56.1972
44.872 51.483 134.205
38.8305 159.672 58.5155
34.2269 158.479 78.8541
20.3665 46.8285 126.125
54.9717 35.8123 148.259
73.594 147.071 65.1618
64.2908 109.375 49.8067
17.242 139.294 50.0376
38.3298 25.1692 156.6
43.0216 46.1613 128.175
15.6624 114.304 65.5108
45.7985 43.41 158.312
27.4646 44.7114 148.15
21.1658 37.3352 132.732
33.0083 147.387 96.744
40.3866 26.5431 126.003
54.5449 97.0631 61.9384
74.5798 115.324 68.995
30.8995 158.252 52.789
44.1934 142.468 106.304
66.1136 147.13 40.5549
24.6616 150.517 74.8654
65.6673 139.271 68.5543
25.6136 35.2503 142.283
74.0314 121.628 81.8019
57.9921 143.187 103.426
76.429 139.694 65.4651
50.1784 39.5739 154.056
14.5484 123.141 78.9304
30.4964 154.348 83.7595
17.1425 48.5566 134.971
51.3725 97.637 71.7089
71.05 114.559 87.2618
72.6051 139.346 80.6381
32.0568 34.2181 137.453
17.6861 41.8156 135.068
33.5378 24.3858 123.806
50.4148 43.0501 136.632
70.3605 150.689 80.8302
41.4397 151.292 31.0994
31.3617 140.949 103.021
26.3129 156.154 77.5004
38.836 101.608 86.5734
27.6278 29.0744 157.548
22.1113 121.88 49.9428
44.0677 157.693 52.1683
54.1792 154.752 95.7702
70.1027 127.789 92.028
25.4901 136.097 102.191
30.3343 128.373 30.5497
52.154 157.751 78.9907
66.439 126.74 44.2844
22.9177 29.0855 144.119
70.5839 138.309 55.0635
24.5175 40.1715 156.313
52.6236 125.359 31.0348
43.0534 51.2524 143.041
47.8544 24.0967 135.324
22.7815 110.939 50.4443
74.6966 130.356 82.9785
46.8563 32.0516 157.336
38.0507 35.2971 126.3
49.4791 37.0727 142.378
23.9823 120.335 41.2184
46.2177 30.9571 122.048
45.5856 30.317 133.114
39.5999 155.956 45.874
62.0788 158.517 69.0224
14.9937 127.697 72.822
48.6015 33.8634 151.854
24.835 160.09 67.6535
15.5212 132.301 66.4626
51.598 123.723 44.3072
25.4388 53.0337 128.105
19.5664 149.466 78.5085
45.2881 105.405 43.5476
28.2145 108.794 96.4556
47.8463 44.541 124.889
24.9384 51.76 134.752
42.9462 96.5168 71.8543
39.4105 17.248 139.444
36.2307 104.135 44.2861
48.9545 115.223 37.0853
50.2354 148.058 104.252
24.773 155.036 42.0279
27.8629 61.7285 135.847
63.1343 128.822 98.1811
31.0124 53.1446 126.483
52.0075 48.6632 132.323
28.0176 123.38 41.6218
33.811 133.129 107.169
70.3649 125.81 58.1591
18.9735 152.23 67.7946
39.9015 126.199 109.775
31.0737 24.3749 150.779
65.728 142.405 94.8347
43.7997 44.577 138.416
25.7526 145.17 96.0702
30.8498 35.4862 130.714
43.2262 152.845 83.3477
24.6225 104.24 85.9121
52.6203 98.4295 52.8076
70.32 133.219 63.6602
44.5605 97.2251 53.1346
57.4993 130.672 30.6577
15.2502 133.142 82.0915
24.6238 130.687 33.9611
27.5399 127.037 48.7685
33.9533 102.892 90.6523
51.8117 125.917 108.291
51.8923 118.254 80.3227
44.7474 24.7003 150.778
51.2141 113.528 43.1228
40.4886 133.028 109.828
37.913 31.6316 166.886
41.3084 124.768 97.2743
54.0502 140.071 25.6539
65.7059 137.546 43.102
42.6394 53.3643 153.474
16.6301 140.99 75.1831
30.8865 111.64 43.0344
66.023 142.392 57.1594
21.3476 92.6382 51.2223
42.5842 128.712 25.2513
49.6494 151.885 36.8749
43.0766 159.61 69.1051
41.1123 137.438 22.9317
34.35 109.827 99.4167
54.4387 106.79 100.015
33.7965 18.3328 148.227
49.0912 148.935 79.8914
24.8308 130.85 52.8436
50.6729 131.368 27.2829
57.4172 123.09 102.776
74.4256 128.358 74.3626
54.4491 158.543 89.9484
58.4529 126.343 37.8717
24.1422 126.064 103.934
44.1577 103.566 96.2734
46.3014 27.6588 141.425
59.7221 133.036 40.0763
60.4486 153.39 43.8005
36.593 119.285 108.314
70.1824 152.543 68.4411
62.1794 115.783 99.6399
52.4133 101.588 93.1916
49.4786 129.856 50.5381
48.9601 127.062 94.1646
25.0946 119.428 102.518
16.4726 140.374 64.7998
67.7193 153.927 61.731
18.1301 139.55 86.2863
63.0714 151.052 75.3036
57.2998 107.351 46.8846
39.1147 98.2071 79.4536
56.6301 149.272 34.134
67.9053 147.586 70.2819
48.5824 105.863 99.3306
63.0019 123.926 101.219
65.3865 115.594 104.915
21.2795 98.2612 51.2459
