ply
format ascii 1.0
comment Created by Open3D
element vertex 294
property double x
property double y
property double z
end_header
46.9273 145.523 61.2826
14.4584 72.8368 62.2404
48.1392 186.978 103.259
16.1238 161.67 87.5966
18.9688 68.9986 126.414
13.3249 176.321 93.4498
28.8185 123.267 135.586
58.7633 166.741 78.5456
20.9319 187.337 81.4664
49.7558 180.58 107.216
11.9051 43.4396 144.766
43.3571 33.1378 155.004
40.6063 171.761 58.6868
41.541 127.908 135.216
37.8897 119.133 137.648
19.3611 102.581 105.445
25.7089 133.41 99.113
31.3916 98.5231 116.758
16.015 47.2659 158.259
26.3737 104.471 106.354
22.546 174.189 110.188
22.484 69.6148 55.3673
53.0592 55.0398 39.8572
40.3229 29.9503 87.344
23.7475 99.2453 121.14
31.5291 142.946 118.712
61.8223 62.6842 24.5966
48.0425 59.8004 130.806
42.3621 177.946 115.967
19.5553 65.0073 66.209
29.6585 24.7508 143.769
49.9234 101.116 112.508
28.681 51.5551 164.121
23.3084 79.6844 60.2556
30.3237 157.035 66.4004
20.0793 160.465 77.1126
55.8375 156.818 88.4657
41.0715 187.948 61.448
23.4654 35.9506 160.303
37.2231 143.24 112.47
47.3573 31.1469 144.603
43.0105 147.318 70.5978
21.917 181.054 77.7223
34.5042 182.262 67.6367
47.3945 50.8026 35.4935
36.181 163.162 60.8893
50.1455 48.3432 126.441
44.1017 45.5954 84.7955
57.3162 157.32 76.6599
38.4559 100.529 116.615
47.5851 189.743 94.4855
44.6917 56.946 152.251
46.2256 152.161 106.24
50.6956 151.845 67.2099
47.3873 101.787 120.891
20.1882 16.3601 57.9013
32.9375 130.805 136.046
32.0194 72.1759 54.0854
46.9674 191.624 66.1682
14.6104 181.809 84.2704
30.1442 168.926 63.0795
58.07 65.1353 33.9203
56.7203 187.132 86.4419
54.194 173.743 98.6074
19.5998 159.037 102.684
43.8346 142.977 79.3394
12.9792 51.6998 151.123
20.7794 165.696 108.316
20.9851 126.762 129.36
56.2237 163.992 92.5564
56.5131 119.567 114.271
24.1285 121.038 91.7427
24.3203 163.89 69.8797
16.9228 35.8373 153.042
21.9328 27.1477 137.639
16.7447 170.74 98.9347
28.5906 75.6968 129.203
21.8055 44.6267 163.871
52.0715 148.879 80.0573
18.2004 178.895 101.114
13.3351 118.274 119.578
41.2678 191.517 103.845
42.7207 44.4115 111.602
28.1046 99.2678 98.707
27.3703 104.493 96.2383
36.0574 107.151 95.1579
22.8272 74.8774 73.88
32.0454 75.739 65.9788
42.3131 140.482 120.241
49.6994 173.62 110.039
29.8901 134.426 128.045
13.1253 109.185 113.286
43.4116 137.803 99.5911
43.7146 110.439 132.894
30.8967 151 104.242
38.1907 190.711 69.3374
24.4611 151.028 94.7179
48.5575 56.4696 20.9786
56.4671 50.5744 29.7171
35.1872 73.5319 128.359
30.9775 167.456 117.505
29.5301 64.2436 63.182
52.095 134.435 108.969
11.814 118.145 111.69
51.473 144.959 86.2398
20.6474 76.8422 66.144
46.7763 38.3504 81.8884
41.7096 70.3865 129.379
19.2386 107.445 124.286
49.4484 47.765 27.6732
29.9512 131.647 93.0928
31.3305 192.575 87.2841
27.681 175.174 77.1161
35.5474 185.388 112.452
39.9958 67.4274 121.043
14.7397 68.2079 136.039
13.2599 173.146 12.61
21.7719 188.665 93.0074
32.5261 107.604 87.8896
21.237 105.571 115.529
49.449 124.614 94.4357
42.4318 47.5 73.6313
48.999 67.486 32.4071
24.5029 18.285 51.0833
24.4604 98.9111 113.158
54.9317 127.171 112.673
27.5893 152.476 76.5009
18.164 172.271 81.8535
52.0274 69.9519 24.0217
21.65 58.2211 85.5203
36.465 195.291 83.7148
46.8304 120.353 135.396
37.835 193.813 76.5142
35.4144 145.261 94.5976
44.5391 179.151 70.6488
31.3753 36.1522 71.2139
22.1694 184.979 102.846
27.0269 158.249 112.948
20.2259 53.8345 79.9462
34.3569 175.015 118.148
33.5621 124.429 89.6539
38.5986 64.9458 153.944
52.5295 184.544 70.9335
38.9958 101.35 94.8476
42.2119 63.1165 23.848
37.1534 38.9232 161.255
47.0496 139.797 110.221
35.9034 144.664 81.9739
51.3581 131.125 99.6035
25.594 154.378 104.708
41.3049 101.222 103.761
30.2783 97.6301 108.543
21.728 132.799 126.47
28.9332 139.134 108.74
55.4312 168.88 63.2112
49.7296 165.564 58.8583
36.2395 140.017 104.01
52.0044 108.322 118.243
54.7063 182.716 93.9667
18.8701 58.0838 155.715
43.6 164.225 115.248
13.6825 121.146 102.821
23.2333 134.876 104.275
17.0958 117.413 129.697
37.8482 95.5476 109.128
32.1817 80.7169 60.181
30.5473 38.8086 163.156
53.9117 159.925 98.4583
57.5223 170.896 69.9812
48.7176 114.274 94.0724
34.9416 104.162 130.511
27.572 114.622 88.3635
17.6116 128.547 105.054
42.0897 194.07 83.6514
40.4835 51.4743 159.721
21.8061 106.444 92.8472
52.8116 113.263 101.864
50.7328 107.308 100.662
30.2023 147.73 92.9236
49.1543 129.666 128.822
26.7753 27.4892 129.712
43.9421 107.064 96.3694
26.2165 105.162 135.903
17.7785 34.1795 132.401
41.1626 130.992 92.4676
50.6612 194.17 78.6156
13.7565 54.972 120.206
26.7632 112.745 136.937
33.8846 148.591 72.8272
55.096 119.507 102.223
40.9352 142.901 89.5816
51.2042 34.7802 133.009
23.1131 120.739 101.236
41.7766 66.814 30.2282
35.4642 57.2366 160.618
54.9763 111.17 112.523
45.7617 34.8186 122.786
27.1321 62.3838 156.767
33.7495 47.6098 70.2497
20.4976 114.746 97.9272
32.6807 43.1618 105.656
25.5663 139.689 116.706
47.7887 136.473 125.139
26.861 181.776 111.775
41.103 121.154 90.6673
50.2338 106.18 170.682
52.0515 163.274 106.373
14.954 39.1127 128.993
26.6615 103.432 125.584
26.4267 73.8381 140.659
36.6725 24.5592 130.143
37.4533 25.1335 150.134
46.7169 53.2238 117.211
53.3423 67.91 39.582
49.4364 150.42 96.8935
35.5793 67.8971 68.0648
51.5571 107.206 107.454
41.4308 24.94 141.541
36.4542 58.1388 107.317
39.6166 155.887 113.111
16.4794 168.423 75.7083
51.5733 115.022 166.733
19.185 44.0624 77.191
27.3331 172.642 67.7579
42.6162 37.2273 94.4589
34.0553 160.563 116.052
27.3252 54.4852 106.809
15.2806 35.8681 86.6721
61.0291 183.759 77.1378
22.6923 152.266 82.2181
34.2121 136.798 96.8436
36.2984 115.3 86.2331
45.4693 144.917 91.7197
28.4328 190.347 104.618
28.8849 148.692 85.5569
53.5208 126.321 122.75
44.6356 64.5906 143.505
50.4663 83.8343 179.688
20.2768 125.956 97.9572
40.9442 194.988 90.9931
32.1069 114.549 140.476
45.8354 27.5086 132.668
23.1345 180.966 70.584
18.7308 10.2905 52.5186
35.6245 50.6863 105.243
18.1708 68.3215 145.252
34.8314 137.112 132.293
27.789 28.0459 154.144
43.9265 44.1046 158.634
31.2738 63.9912 113.227
50.9616 42.6498 138.368
40.989 181.783 65.6472
25.5554 30.6124 78.1174
21.1891 27.0123 101.898
35.801 78.6632 71.7972
20.1934 54.8971 96.2776
19.5451 102.088 125.14
32.6212 67.0766 156.161
38.0164 113.521 91.3671
50.4947 192.864 86.6921
27.0516 125.53 94.3847
31.7716 35.5878 110.683
26.4603 110.023 131.24
15.8056 110.248 119.863
19.0508 115.406 112.739
49.9933 96.3851 174.971
56.5424 176.78 73.4804
50.5755 114.403 126.468
34.6362 28.4369 122.247
31.3682 70.2806 150.113
39.0566 52.9479 80.8666
48.4366 101.065 101.516
19.1192 123.604 148.261
50.082 42.4481 72.7872
28.1538 26.5795 88.0475
60.3555 105.232 154.803
41.3212 55.8013 22.2074
46.3705 44.1475 150.727
55.1738 91.6939 169.309
30.5768 137.956 142.6
60.9678 63.8586 169.94
29.1249 50.4478 98.8477
43.1613 59.7439 116.151
26.0125 66.629 116.472
34.8002 132.082 156.711
24.8099 37.17 111.639
56.0454 175.504 85.9794
50.2207 41.3258 148.569
45.9515 70.3635 177.145
36.3405 55.78 85.2888
54.8516 99.7183 162.84
53.861 128.681 160.26
59.2322 96.1738 161.103
43.7162 45.9077 92.0638
