ply
format ascii 1.0
comment Created by Open3D
element vertex 2023
property double x
property double y
property double z
end_header
22.2568 41.0249 283.1
14.7304 87.8872 172.441
32.1861 138.427 244.383
37.8241 21.0794 289.335
14.8128 162.163 174.477
19.0303 63.2204 298.557
15.861 123.401 73.5217
45.0886 304.397 103.398
48.6395 80.42 308.947
44.1668 47.8866 176.974
19.3174 99.1183 194.046
30.9686 316.588 84.0181
27.5079 185.352 187.566
43.8216 111.93 193.74
38.3857 265.007 97.388
69.299 366.377 157.99
13.3713 109.679 62.8458
38.0107 61.4454 94.0189
87.1693 318.016 110.243
16.2714 171.265 305.068
15.2996 68.6741 85.3076
32.1527 192.8 225.331
54.2754 50.6188 352.346
36.2254 171.183 241.419
55.8653 31.0225 314.793
17.7635 171.233 314.408
53.472 62.437 285.358
29.7844 310.105 145.809
24.7661 322.483 78.2047
47.318 290.105 80.7826
17.4178 285.366 99.0927
47.3235 333.754 166.823
17.9599 45.8915 309.227
14.844 100.586 98.7943
77.6475 345.053 155.402
72.7999 294.953 67.0727
17.5575 129.874 271.892
13.7915 167.463 291.025
21.7944 149.117 67.0988
51.664 65.4991 62.7854
14.5647 172.351 209.78
12.1321 87.2623 57.7776
17.7655 105.478 290.406
50.9526 26.4072 337.067
59.2019 40.8891 320.247
55.7059 36.6505 342.785
49.1182 18.4793 275.197
53.124 285.377 144.947
46.4011 41.6888 352.906
36.4448 31.0013 343.695
21.6852 57.7221 238.918
41.1317 26.4228 342.794
56.146 225.083 62.7411
44.3883 126.741 165.534
45.5635 178.567 291.848
49.8035 88.4384 232.402
48.3723 124.514 340.909
59.244 302.363 83.1643
49.2811 388.123 129.17
19.7334 88.7764 328.285
16.0483 138.353 187.941
35.0958 198.534 262.564
54.6007 79.8994 144.75
29.7898 342.039 83.7539
18.833 104.733 259.794
15.6348 190.431 204.078
20.2916 170.733 324.312
58.5545 272.06 85.7483
50.5025 60.8137 355.441
64.7346 296.171 139.924
37.5142 167.435 194.312
61.7316 224.454 49.9744
47.7339 376.879 107.941
14.7462 116.545 165.421
46.7036 269.539 91.4312
11.8652 85.6211 80.9443
18.4957 142.102 278.056
39.799 301.306 97.7012
72.8351 222.135 62.5116
28.5209 18.9812 271.205
18.6882 35.8584 284.862
62.2904 24.1238 216.665
75.069 312.667 92.3034
69.8375 141.269 108.31
16.4948 159.133 242.018
42.6488 92.263 259.651
48.1831 102.274 195.079
20.1838 60.5383 339.576
31.7011 338.884 106.053
76.0529 155.845 40.9694
19.238 104.562 186.099
15.2137 116.725 180.651
69.6807 364.836 146.152
29.5051 270.743 96.1904
14.3413 166.016 186.406
39.8594 329.168 68.0481
47.0777 105.096 167.766
19.6229 32.2153 291.777
35.2958 143.741 258.147
56.3334 142.17 55.6375
48.5161 80.3104 82.7002
22.2194 352.117 117.255
35.1931 366.291 121.598
61.6286 79.4081 171.998
52.5985 69.7079 52.554
22.0102 151.705 53.6688
52.9122 221.695 57.2122
42.4161 142.488 176.829
35.9007 133.277 215.165
36.8829 155.515 256.291
28.6884 202.272 262.279
24.6226 69.1428 246.602
58.4851 53.9506 321.712
18.8584 59.63 320.542
19.9208 162.48 333.899
43.2149 117.539 189.448
23.6729 39.545 238.884
34.4549 180.522 241.676
38.3951 50.3446 195.186
14.1357 174.631 195.444
22.9014 196.664 211.748
37.0909 103.702 248.906
15.0836 62.6871 75.9029
17.746 185.635 301.969
73.4077 289.445 119.585
15.5491 185.594 280.637
35.7646 167.741 233.7
15.7015 111.876 53.8514
38.816 177.283 263.265
19.9083 87.9849 338.727
33.9563 81.7282 139.784
16.6612 76.7442 170.228
60.6625 127.713 121.965
28.5601 26.6645 249.183
15.4925 168.384 216.693
37.9019 113.793 278.678
46.9061 296.097 150
54.5185 214.935 62.4838
40.9532 128.799 70.4454
39.1917 94.6206 69.0496
42.8123 52.9722 357.912
18.9542 127.057 342.891
15.0323 133.89 160.308
46.1528 73.4535 221.395
50.9265 84.3788 335.042
50.7652 357.172 163.061
12.322 83.9081 71.5324
32.4731 113.648 134.531
46.8099 86.5188 267.426
35.9886 52.6857 164.027
89.5519 293.979 121.663
45.6989 121.225 142.855
39.0197 99.7336 359.126
47.4719 81.8144 236.546
15.6612 174.645 260.848
42.5766 354.159 118.559
43.1191 67.7296 361.261
16.6313 155.142 285.152
21.6246 48.0479 272.481
13.8197 82.6314 167.812
28.7536 296.365 136.02
23.8248 54.9202 208.703
16.6722 172.117 173.853
69.4226 138.975 38.8223
15.7724 100.123 36.5067
42.8775 127.676 305.534
64.749 166.284 95.7646
52.2057 283.11 64.2331
56.1373 21.3238 211.37
59.7079 283.208 88.8648
45.5701 127.609 348.445
43.1379 32.9282 348.716
47.8371 100.383 226.885
51.7804 391.441 135.761
49.9852 130.683 49.828
66.2995 366.892 123.313
61.9285 81.1798 194.947
37.7927 380.26 131.757
26.069 134.855 101.324
44.1508 341.597 76.1504
16.3303 125.369 82.8504
36.4282 280.781 127.74
47.9972 120.989 332.629
46.2195 171.062 296.19
39.5479 308.988 112.718
15.1374 156.813 310.558
59.2113 340.605 168.544
29.0905 309.37 70.285
43.5471 94.2782 132.929
17.8113 279.181 70.2453
43.9261 18.6537 299.61
17.282 149.474 332.742
19.1399 45.1649 249.447
41.0778 388.442 135.808
29.0527 178.788 178.486
45.4042 353.411 87.711
15.9667 108.962 29.3624
52.1097 42.7477 222.671
57.4564 107.517 111.334
15.023 91.9218 101.792
44.5145 21.9381 338.055
65.8841 288.372 141.253
15.051 106.288 169.17
13.7979 182.782 259.087
57.7504 120.091 125.395
50.4576 52.1359 161.608
28.8342 357.703 93.2933
15.5806 102.584 296.812
41.9223 127.993 191.414
48.4771 276.443 57.4629
17.858 48.6298 298.424
12.0999 92.5499 48.6178
41.2358 155.129 338.622
16.0671 109.147 93.1508
42.1374 156.093 285.99
29.4764 72.8172 40.4451
52.0235 76.6157 327.44
13.9232 103.893 42.583
42.4609 258.936 72.6761
46.5287 119.417 349.957
21.6402 133.21 347.257
38.0554 115.244 254.093
32.8306 186.025 213.616
16.5097 164.841 237.986
14.7255 172.45 182.245
30.5223 51.569 200.687
31.7832 97.8768 356.826
12.7915 70.418 53.9614
14.8186 192.139 237.698
34.4271 384.891 140.023
15.0185 102.063 89.4714
50.2655 18.3844 217.46
67.7991 379.609 131.746
53.5614 258.086 77.6484
32.448 314.795 101.097
72.4252 274.179 129.51
16.7843 110.527 41.4259
16.2923 145.184 260.473
62.1677 77.5867 201.114
14.8132 106.538 155.366
22.5815 64.3133 253.868
18.6783 43.3735 291.546
48.7721 300.498 68.8853
59.2827 85.3227 167.604
45.9605 283.985 120.613
32.4161 144.572 218.457
37.7997 58.2373 155.848
60.0977 64.6327 162.008
58.0533 49.7152 186.278
61.9313 281.286 114.662
40.6494 189.516 298.3
43.9233 108.116 185.645
12.5737 75.3438 62.5131
25.6706 70.1726 154.168
86.2711 336.197 74.886
41.5441 113.837 213.266
20.4531 71.7898 339.727
37.8584 361.486 94.0189
37.6739 103.141 81.3464
27.0616 307.119 107.094
62.3403 222.463 68.8154
39.1872 292.824 99.8416
50.3145 304.763 139.49
37.1945 305.107 104.266
41.0585 193.844 286.685
39.2126 194.692 277.976
16.2201 196.213 228.768
48.5686 156.025 102.377
44.8864 300.976 53.7411
27.8691 149.958 218.446
56.0602 58.179 158.882
58.7483 269.726 66.2165
55.2173 209.462 58.3014
18.4159 192.837 286.609
54.1177 85.9903 240.3
44.9089 121.189 160.15
33.9363 89.6051 135.644
21.858 108.045 328.813
18.2866 87.2535 197.705
37.7483 113.281 297.07
43.3566 340.642 159.258
44.2701 319.607 134.757
15.4813 184.868 270.256
41.2124 130.996 297.921
37.2767 57.3829 83.4282
22.8996 97.0914 231.528
17.3508 140.848 268.092
53.998 95.1707 202.652
30.386 264.927 101.754
17.6405 123.839 95.3374
58.0533 42.0186 332.998
45.5551 163.364 309.73
43.4863 111.71 201.427
48.5397 101.23 355.017
30.9329 348.447 89.2593
22.3195 199.148 272.241
55.3882 70.2777 298.076
36.6126 126.509 242.199
15.1014 109.775 184.838
21.3085 316.579 84.1867
20.6191 62.8519 267.809
36.9726 64.9903 359.459
35.18 351.467 101.287
73.7168 386.25 110.964
56.9252 47.5543 339.807
38.4661 292.135 138.437
16.752 163.477 326.231
21.3211 52.0028 262.656
68.1156 298.769 131.21
52.1834 24.6411 325.815
17.8384 146.472 302.728
22.6923 40.09 246.582
24.7349 19.3233 289.45
47.2013 73.2934 247.549
33.5416 387.156 129.875
18.8365 35.0333 312.31
47.1472 303.989 91.8765
50.4714 46.7841 187.59
58.7451 377.601 81.5973
54.9561 75.8334 90.0018
22.9254 22.4136 281.048
43.3747 309.237 71.4731
66.4019 338.158 66.7428
45.6586 111.558 356.187
12.4821 104.345 50.8618
67.0615 272.921 64.2557
47.4793 254.049 106.41
28.2747 316.988 69.3184
19.9485 122.802 208.982
16.5303 133.084 196.729
39.5127 159.314 164.919
20.9639 125.071 280.925
20.1571 125.307 233.513
25.4815 28.4075 330.893
48.0919 110.586 156.131
55.6992 281.717 55.5371
25.0041 114.325 113.831
32.4118 287.977 134.052
55.0217 71.3459 345.828
22.8051 70.1212 264.355
17.4741 163.121 249.571
31.7211 50.8017 179.041
36.4834 338.267 74.7754
61.1028 331.261 166.653
15.9731 143.603 196.816
71.8404 153.271 90.0347
35.4739 130.5 270.779
25.4701 202.216 241.957
46.1506 119.532 151.799
28.7326 187.796 195.941
16.2463 122.673 188.95
66.4616 68.1492 187.207
74.2828 211.081 66.9387
17.3283 113.833 100.411
20.5483 98.8106 323.11
62.2494 57.399 259.51
79.7151 285.033 115.77
35.6659 87.4954 356.104
72.2301 141.55 28.204
29.3321 129.834 138.494
14.5719 156.66 198.804
31.6557 326.735 73.7525
30.706 158.375 48.9028
18.5943 116.599 146.21
74.7906 160.971 84.3645
15.9033 83.1063 101.535
76.4186 374.452 148.651
79.6579 217.919 62.3335
62.1644 79.2987 242.761
37.1896 164.338 337.201
33.2845 129.893 233.262
43.341 120.404 180.413
22.6055 104.489 25.7368
46.8705 119.12 49.8558
64.4399 302.085 146.414
43.6474 86.2997 136.208
73.4542 313.288 145.99
40.4284 121.689 296.32
21.8731 269.209 92.0486
24.5596 275.804 88.2844
21.0303 98.9337 140.966
34.6277 140.069 107.381
57.8898 91.054 187.526
43.5278 127.633 175.417
31.4992 325.532 109.152
46.433 98.6328 249.294
49.853 306.359 53.025
14.9644 93.818 94.244
14.758 180.709 237.272
15.3639 114.748 193.977
41.1976 90.2101 74.8979
48.2502 60.2194 254.04
41.6431 133.549 351.393
43.7397 186.702 278.513
62.0934 90.3098 30.8082
49.41 45.308 254.192
50.7224 96.7638 349.5
23.4267 57.6451 344.433
64.2986 74.8228 192.387
15.1756 81.4523 194.682
46.1267 20.6611 256.468
27.7725 340.756 93.9393
84.4746 334.133 98.4317
34.7715 318.225 153.724
57.6519 98.9795 118.309
25.8894 309.96 86.1724
16.3012 124.522 65.1558
46.2689 104.19 220.448
24.2562 333.057 99.9658
64.22 78.1856 185.801
51.3214 321.494 135.434
42.2233 132.505 186.759
14.8088 109.325 162.117
20.6596 184.784 184.95
14.6387 109.618 73.0156
53.6409 25.8142 257.352
17.3023 105.192 145.825
69.052 271.364 106.484
46.514 76.1787 141.051
68.022 48.503 253.984
17.8131 86.2742 292.758
74.2988 309.723 116.307
23.1748 24.2485 271.05
51.7138 326.979 165.207
71.3886 265.561 87.0561
71.1123 266.692 101.241
70.1823 277.413 71.383
31.3744 24.705 335.649
49.5602 145.979 111.266
41.4354 184.329 304.393
14.1726 176.223 284.651
43.0121 19.0834 332.115
32.4594 367.299 98.2463
32.9541 27.3854 263.22
27.6202 91.0671 356.109
17.9653 77.4507 160.96
63.818 67.6829 197.55
44.1003 119.949 172.491
27.3634 272.371 110.1
17.0524 110.564 148.634
80.6601 301.754 95.7503
20.0012 70.892 164.643
47.4957 341.938 164.924
45.8303 135.302 69.9024
21.3919 291.398 90.4703
27.1674 77.8984 146.523
76.5521 322.473 158.565
35.4274 175.372 229.575
35.6481 268.007 74.0281
22.3282 45.5197 327.998
63.9383 146.721 53.3981
54.2737 288.689 129.309
58.5189 84.0593 207.235
14.8562 90.8554 157.671
37.4749 368.379 151.705
53.6885 65.7861 307.428
30.3145 29.7083 342.092
56.8127 61.5206 206.151
34.5148 164.054 161.768
56.9376 279.026 139.303
84.6914 374.562 104.669
50.638 26.3391 246.377
42.3617 15.6988 291.637
60.829 138.476 44.3286
27.992 190.826 308.335
56.3847 70.0744 152.876
44.7044 58.8024 244.667
31.8029 143.91 350.692
44.2348 146.134 309.208
45.1167 292.277 138.327
22.4016 116.804 316.12
20.621 43.9258 257.871
43.0361 300.434 65.8749
44.158 333.534 147.114
69.49 363.919 112.982
17.9381 138.199 315.431
30.1973 328.817 118.96
21.6582 79.8806 151.256
50.7588 88.3356 346.057
64.6317 105.663 20.2219
68.2601 383.485 141.667
12.1774 74.397 79.9819
53.2949 395.876 128.944
44.3627 174.459 304.037
23.2078 72.0583 101.888
25.9353 363.456 99.8766
16.8946 126.851 335.147
31.0178 198.481 292.633
38.0766 134.975 138.837
32.5047 155.091 85.9395
22.2136 27.5539 325.603
33.2843 173.61 173.927
34.7649 70.756 146.756
51.7634 302.762 150.128
49.4138 107.408 349.497
50.663 297.251 81.8577
39.6403 193.032 269.842
21.2181 292.579 103.979
45.1814 66.5269 241.066
49.2447 47.7533 210.581
81.442 369.3 98.0981
41.8897 299.617 135.235
35.9034 16.0814 327.748
55.1698 82.2701 230.024
33.6575 302.724 91.28
18.9561 114.92 71.4994
72.2938 299.395 101.112
49.1924 335.789 77.8053
39.446 359.194 152.757
81.8752 356.695 85.1444
30.3369 146.947 209.868
42.5179 83.0327 315.482
18.1894 131.438 318.054
52.9666 376.206 91.1178
18.2487 120.117 262.211
15.0393 160.728 297.39
63.1688 138.145 96.9878
29.0387 159.258 58.9954
75.749 346.952 71.2252
54.4077 61.2238 267.581
16.366 141.509 215.097
33.3396 140.69 212.537
15.2131 143.918 179.289
18.6856 121.038 256.149
15.6439 150.527 186.099
36.5783 31.1225 249.193
26.3083 88.6048 331.231
49.3226 99.2042 340.599
17.7973 135.751 283.459
58.3725 393.679 125.075
23.9003 47.2162 335.929
74.5731 321 130.155
70.9229 305.731 147.748
48.7372 115.399 344.829
52.059 276.904 101.538
35.8302 21.4306 337.463
17.0684 78.2968 308.144
30.906 50.1536 189.09
45.231 269.441 66.7846
80.8065 278.147 106.552
22.2958 179.041 174.704
46.6935 366.173 152.161
36.9557 159.169 158.111
33.8646 201.395 275.743
69.9995 285.556 64.6368
63.0506 118.889 115.252
54.8301 373.348 152.153
35.7567 139.791 268.057
31.6654 133.089 28.5557
60.5911 260.764 74.519
52.2776 289.617 137.065
17.2508 98.03 147.643
63.5655 269.31 104.49
48.5446 79.0061 284.063
30.0015 190.221 204.578
36.4813 347.626 83.6641
54.9292 274.74 59.3598
16.3771 162.693 315.635
42.9317 310.431 159.011
17.4327 93.8901 320.344
24.3769 32.3073 260.402
68.8831 318.332 61.6722
57.3982 319.766 159.734
65.6672 58.8602 239.43
38.5631 185.272 260.37
42.8931 362.64 76.0159
17.5011 119.809 340.223
31.0558 304.991 139.291
19.8765 117.015 348.826
46.2583 135.836 317.193
24.409 119.53 27.7676
41.605 384.563 105.829
67.863 306.924 158.858
73.8729 337.899 63.6051
18.5821 80.4864 212.467
39.2946 132.405 198.758
20.7044 93.9189 257.454
68.2405 367.005 83.8344
66.1223 296.063 62.1035
62.8861 302.121 59.7294
57.938 70.2911 204.939
35.1538 121.991 222.33
71.0167 133.868 23.9155
19.9923 345.26 124.877
68.6969 282.995 101.262
20.2714 142.195 77.9308
44.8608 93.4437 311.847
20.7587 156.84 338.85
41.2648 364.045 86.5308
24.6155 78.8947 251.324
65.9017 342.143 137.443
54.4674 352.341 87.6689
81.7585 345.974 106.858
32.9305 306.724 115.631
33.4554 14.059 284.688
21.5183 59.666 175.541
15.2056 173.176 294.063
31.2491 75.3024 358.132
14.5503 169.569 282.11
55.7082 263.867 95.9608
35.6551 197.148 250.776
16.2856 75.1896 294.588
38.962 334.406 81.1608
54.9488 33.5634 286.694
47.4585 142.97 326
47.9445 127.665 323.442
42.2235 122.789 197.355
13.4827 85.8553 91.3195
24.8575 144.544 347.357
47.8774 121.112 324.136
58.1727 359.816 158.768
26.383 49.1897 216.385
45.8348 310.406 136.802
35.6362 167.414 226.813
39.1973 152.517 154.13
51.0549 300.941 159.773
64.5669 130.757 106.222
76.3802 362.752 95.3142
41.6832 356.251 109.083
54.1311 144.024 69.2446
20.3561 35.8525 254.783
41.1726 98.7072 231.825
66.0576 67.048 233.962
48.2326 307.683 156.599
29.1256 375.916 139.476
40.5431 65.5747 149.136
16.4666 155.251 326.91
32.0793 24.1314 258.048
45.7521 131.805 60.7056
34.3962 168.94 219.573
30.5997 160.075 69.2504
80.7483 291.055 132.466
50.0733 60.1669 153.423
22.6675 325.72 122.188
45.984 298.216 121.352
59.5591 154.726 108.906
19.5276 82.7402 230.617
38.8399 297.437 109.475
39.1896 128.974 82.9762
44.3246 45.7187 204.457
39.3495 54.223 346.567
76.8686 298.127 142.657
37.3192 125.92 118.151
74.6156 159.177 61.8958
42.1535 180.592 311.053
30.6924 290.307 108.277
65.2588 164.286 39.8822
51.6527 95.0317 177.882
25.5369 100.78 351.505
39.089 95.1817 81.6057
80.2274 308.522 104.238
15.8834 159.871 226.118
22.6751 76.2327 232.17
35.1182 78.2702 114.01
40.5482 16.2711 280.212
57.5509 365.879 154.936
58.0024 300.02 148.223
64.3328 352.231 77.7218
41.6791 144.622 290.407
61.6132 171.334 74.9101
90.7211 338.408 109.673
54.9545 66.6326 350.84
17.8599 164.048 165.323
30.9137 19.7606 323.505
33.0719 192.255 238.502
66.9658 390.614 139.203
20.3465 41.3427 300.901
39.2715 24.7037 230.263
53.658 51.3818 202.197
36.4735 97.5908 133.024
41.4374 136.75 192.073
16.3923 158.592 320.502
40.5985 32.694 258.869
37.5959 327.563 149.831
44.3606 112.552 171.52
42.2812 153.578 351.575
48.6122 126.563 124.517
39.4635 112.629 288.135
34.064 47.8578 217.332
18.0059 59.252 310.179
70.6072 221.798 49.5194
81.489 325.466 150.836
40.9354 308.608 77.564
51.4878 163.213 97.059
33.1664 323.543 68.2511
47.1525 81.673 297.974
49.772 297.978 133.2
69.0869 372.109 154.698
35.8339 311.992 117.489
70.6454 144.746 100.342
19.1743 300.331 86.9772
44.9177 371.284 96.1667
20.4107 107.796 344.102
41.8382 138.05 292.641
65.7235 278.693 131.131
44.2121 54.068 159.037
60.0321 61.1548 277.271
57.3645 43.6478 226.042
28.3148 295.185 88.7745
57.5641 62.2398 321.756
28.5226 101.711 119.301
56.9375 86.8752 114.866
42.8303 128.085 140.526
33.8304 180.305 221.345
37.9786 116.969 269.609
19.2164 145.471 44.4079
13.6086 186.793 223.995
24.8137 25.3711 308.317
55.3498 74.7199 340.231
23.5702 109.273 352.67
35.2259 110.231 256.818
12.797 75.9204 89.0505
29.6606 165.728 160.575
51.4723 74.0977 291.604
30.1491 52.0652 171.198
45.6088 19.7104 326.538
60.3686 311.278 84.3214
45.132 109.876 53.2933
35.4525 160.237 235.549
35.7846 108.14 359.992
81.7131 47.7713 240.716
38.9532 48.5191 185.924
82.7451 308.145 96.8142
61.5208 378.001 147.674
70.7202 372.892 90.3949
52.9312 309.55 159.823
83.795 345.519 73.3419
16.577 145.569 56.3009
24.927 20.239 324.472
18.8211 62.275 242.259
50.1768 80.2687 271.02
60.4814 56.9095 167.368
45.8221 47.4042 167.258
24.7121 282.28 107.289
23.0302 123.389 141.378
31.6267 125.282 256.337
17.0517 118.066 302.087
17.0636 99.769 204.658
33.0305 151.393 243.651
53.4973 263.558 72.5364
65.1218 161.034 103.342
66.1904 143.368 45.4097
33.3326 168.642 169.149
14.7708 98.4462 162.213
58.5149 353.431 162.006
19.8721 199.417 224.712
14.9956 101.233 303.208
63.5676 51.8177 247.911
14.0338 110.241 177.327
27.05 116.743 356.662
47.6646 87.1951 241.888
27.9564 22.0869 265.299
20.4118 192.984 295.428
61.0336 372.117 151.585
50.0541 294.209 54.9033
41.4263 170.38 269.817
63.1058 275.389 117.777
38.9107 400.214 376.269
33.565 152.073 206.346
74.435 169.979 64.2377
14.0717 174.718 272.38
37.7359 120.289 215.551
47.2442 302.591 78.1908
46.8281 331.958 158.829
23.6766 53.8113 278.33
40.792 116.685 94.5127
72.9699 213.723 56.884
41.4382 169.158 325.593
18.6939 130.29 327.119
52.357 118.207 45.83
45.3691 159.306 314.903
37.1663 119.309 230.101
57.1116 91.1527 196.46
51.8025 101.452 47.0449
35.0467 172.36 210.794
54.9995 63.6594 292.614
40.2749 299.295 127.748
32.046 346.754 151.203
59.1219 326.078 162.304
56.0067 40.8069 303.106
15.3419 111.226 84.4406
19.3525 147.511 271.507
31.4604 110.796 120.075
53.4025 353.74 72.6954
26.958 91.3054 139.144
18.5239 68.9648 189.11
16.2609 82.9993 156.768
50.7759 31.7647 265.291
59.734 384.932 105.585
21.1173 29.3253 298.371
60.0281 316.133 71.5111
67.0123 385.916 116.429
27.3423 174.471 168.675
17.5631 111.679 299.576
76.1084 275.518 78.7285
67.4857 214.724 48.8768
57.9861 76.4353 230.969
56.2633 383.634 148.472
46.2803 256.454 92.6016
34.5788 181.619 228.302
13.4663 92.3268 41.0333
16.9055 167.187 228.507
53.8709 157.841 33.549
38.0022 120.318 281.474
36.033 191.49 254.009
38.225 151.026 32.6596
41.7632 98.5723 298.029
45.3522 390.519 116.085
80.3197 180.242 37.5176
19.5451 129.335 309.639
46.2933 279.6 135.123
20.151 63.4142 330.081
46.972 101.158 52.5841
17.858 71.8015 320.791
22.2989 88.0555 143.9
56.7441 69.1034 212.57
64.5275 359.693 127.598
36.0374 174.055 191.854
85.6334 338.892 118.445
58.1184 272.672 106.399
62.9122 337.503 161.269
43.9502 134.012 145.195
40.4194 352.823 154.776
62.2406 389.816 122.724
40.1577 391.31 120.964
20.3991 74.2996 273.776
16.8942 92.0262 151.858
43.7864 160.911 328.18
19.6016 53.7306 329.476
17.929 66.8008 174.84
25.9877 326.591 114.247
54.7539 76.8838 218.505
18.9319 65.9869 318.06
14.9515 148.74 166.796
22.491 123.502 351.519
58.1816 318.157 61.8011
17.0891 329.134 355.342
20.0142 66.9608 285.406
44.2248 108.803 321.11
35.5233 343.613 78.4074
44.4753 326.447 70.9451
82.3665 291.172 118.963
65.3449 300.621 155.714
29.7909 108.798 359.595
81.7816 277.017 98.0601
19.6091 70.4405 237.747
54.5107 365.221 73.0347
43.7433 101.4 310.434
78.2394 337.203 72.7045
17.5501 107.089 319.828
28.1433 352.074 133.792
31.0747 67.2516 358.036
47.9317 87.7269 321.192
59.7128 71.8734 158.996
47.0279 357.165 92.8786
54.0337 305.538 68.401
45.9234 283.769 73.8041
35.8995 135.588 207.342
39.2954 190.469 262.895
33.9731 57.0798 354.399
53.1424 77.9759 48.0358
42.4855 160.143 37.7995
58.5601 166.641 96.2396
37.5668 308.68 132.424
27.1066 198.19 219.625
23.3797 46.5021 231.902
32.5907 192.713 215.616
15.3485 143.552 322.455
35.1905 86.956 29.3696
35.0264 20.9904 271.789
83.7404 63.9045 260.041
24.7138 62.8146 52.8355
41.8997 142.529 112.345
14.9985 130.136 178.51
14.914 180.478 294.111
31.1495 85.264 116.167
41.3507 325.665 141.515
31.673 129.741 112.446
51.8145 49.1956 178.299
74.6921 382.198 139.2
40.3281 303.41 88.9634
44.2159 114.304 181.217
42.5536 145.498 167.613
14.3625 168.946 273.677
18.2214 89.2264 184.046
63.4786 359.83 161.869
39.0508 146.434 150.499
37.2856 15.0646 318.83
64.3976 351.016 83.4746
27.5895 340.348 148.927
43.6821 133.095 24.3376
52.1667 306.181 117.201
46.9102 19.2664 313.725
64.4352 256.044 98.2845
35.517 137.078 353.749
41.3837 154.551 301.027
20.6583 81.4992 108.035
18.3094 115.906 48.9171
56.3866 51.7334 167.715
36.128 159.791 249.582
36.1934 375.28 141.433
43.4732 261.34 102.563
22.0259 67.1305 345.902
23.2385 58.2824 200.05
46.7904 111.112 163.357
44.1196 306.104 129.19
36.7319 31.73 276.6
38.3006 302.221 116.265
31.2717 100.53 26.2895
33.7515 155.916 211.878
35.825 128.62 249.225
23.9188 64.4706 91.3953
32.9811 376.71 95.2613
25.4243 32.289 251.884
38.5888 47.8054 210.405
35.8683 304.886 144.461
48.2334 263.516 95.8866
22.412 193.416 201.278
17.3904 119.841 332.461
16.2182 161.702 277.149
42.3873 124.367 185.521
17.7453 88.6383 318.326
45.6124 107.925 174.44
39.9214 269.739 113.55
36.2378 380.913 124.441
55.1531 31.375 300.475
57.4604 87.9889 173.85
18.1303 86.0568 306.671
43.8563 137.278 307.34
37.7902 110.859 224.066
28.0007 327.349 141.586
39.8354 159.277 173.052
28.0357 89.9896 116.018
26.4569 202.001 277.997
86.268 333.027 110.094
35.0141 308.458 125.479
49.9832 262.752 110.622
29.5432 127.32 355.486
63.0087 321.136 59.8518
35.2575 154.312 223.9
53.9401 303.933 144.68
60.2241 33.5258 244.932
29.5373 139.543 141.579
17.8295 117.542 84.015
29.2593 145.506 93.5291
19.8991 78.3993 288.365
70.5265 371.925 140.829
82.0126 310.189 67.1489
20.6046 78.5034 333.935
60.2168 132.079 41.2827
40.6854 140.772 144.685
37.7993 320.926 159.994
53.8801 345.361 77.5367
33.5229 161.193 223.667
50.4617 23.0548 304.9
18.9616 79.2652 35.098
18.6483 103.215 215.407
27.8813 98.265 339.115
30.9624 63.3565 154.997
39.5794 120.664 357.973
58.8108 380.856 154.134
37.3393 372.471 114.888
36.4665 163.36 169.354
15.142 275.943 289.186
34.8787 101.455 123.119
17.5012 76.2233 100.174
46.0171 54.5565 228.299
47.1668 68.3824 146.297
73.2483 293.212 109.261
86.2403 366.237 124.027
44.4237 360.912 158.956
50.1773 73.3078 73.404
49.1343 372.776 153.136
46.4566 266.488 73.8775
32.7931 180.34 187.287
53.9826 93.5633 170.589
55.5528 58.9176 350.574
51.1795 387.475 106.267
19.418 95.1595 27.5811
56.215 53.8399 301.451
31.53 322.294 135.664
60.251 282.939 96.0108
22.1262 98.549 340.063
37.9664 35.4027 245.742
35.5383 328.772 158.355
14.3087 92.8411 165.834
59.3397 37.5442 281.69
43.8309 137.476 159.49
48.8029 66.2078 103.868
17.4567 144.797 296.499
38.816 95.4204 24.9605
63.5545 57.2487 187.201
63.4791 370.736 79.4642
48.8828 357.971 81.9505
26.2857 106.104 136.186
58.868 85.2976 190.176
86.7896 364.744 99.3617
33.029 273.994 118.833
44.494 347.119 162.383
17.0925 117.159 93.4577
22.6693 312.509 117.482
46.6565 89.8542 374.054
43.5079 58.7944 235.935
35.3254 120.692 258.798
75.3403 164.756 48.2946
19.4952 76.2802 198.902
18.4771 138.428 338.147
82.1987 360.853 125.006
36.6068 120.372 247.324
45.7938 81.5128 64.5319
46.325 395.074 127.433
31.6342 173.198 330.467
62.2245 150.126 26.2182
43.5714 60.4438 358.988
22.4617 65.5319 164.36
54.6409 314.533 162.552
51.3641 76.089 353.787
31.6176 268.571 85.0975
71.8232 283.431 83.6782
61.0918 82.9194 180.699
34.0517 137.007 234.73
24.6711 350.31 98.4809
50.0392 100.227 217.645
50.6229 75.7256 316.675
32.8797 154.65 150.692
37.8194 110.665 74.094
18.8372 50.7019 315.557
48.5113 60.8706 95.7849
44.7686 29.8972 226.833
57.0647 289.711 55.5358
45.306 148.795 333.451
47.5699 252.599 83.713
24.0215 166.847 161.708
38.8603 102.418 70.9673
45.2375 271.39 98.2614
41.0855 282.687 58.9064
20.3761 25.3248 288.993
74.3619 332.988 150.854
22.4859 295.169 113.917
19.4826 114.552 106.541
70.7162 334.077 163.074
46.5957 266.667 116.525
32.5531 357.799 128.901
20.2492 96.9472 105.658
51.2494 385.565 99.9508
49.7023 105.31 329.419
30.798 200.844 249.611
31.5192 184.071 206.178
38.4289 172.077 259.395
14.8877 153.773 302.056
27.8744 318.425 114.733
58.352 55.0631 197.199
23.8532 79.6816 237.977
45.9865 79.3446 260.446
72.2166 154.849 76.9374
16.8247 185.79 293.576
58.4248 392.358 113.92
20.3938 53.351 243.838
53.5328 297.055 139.435
34.5094 177.748 208.228
47.1019 94.4179 125.738
53.911 331.164 170.838
41.8576 382.594 140.736
74.2381 160.606 74.9071
37.1682 118.497 236.005
55.9734 69.9273 273.445
35.5016 72.4714 105.458
23.4388 36.7184 332.017
21.026 190.069 193.346
52.4779 89.4464 217.973
35.815 72.5221 360.717
31.4243 67.2371 350.377
58.6195 168.914 48.477
53.6994 266.268 105.099
38.6999 342.649 151.636
65.5993 289.5 110.792
37.1007 289.55 109.401
51.2823 324.835 171.874
15.1697 196.082 253.886
49.8559 139.527 74.8865
43.2838 134.555 78.9203
50.8079 348.624 163.251
60.5286 60.608 200.799
41.0566 91.4871 123.863
30.4282 83.7789 357.535
58.418 347.085 163.512
52.4921 258.988 85.0019
54.6858 93.751 150.779
53.065 96.6428 194.302
34.2875 112.639 24.8266
60.0936 345.725 64.9111
39.4701 252.766 87.8409
47.3785 84.6664 24.2432
38.8025 48.1205 203.541
25.0492 352.243 140.675
69.1808 375.357 147.722
21.8712 36.5658 325.138
53.3675 335.388 162.106
62.9313 368.006 156.517
39.7111 149.85 278.588
30.1415 383.136 119.112
40.8397 65.003 41.737
59.2193 119.418 40.4725
51.1874 293.611 64.4094
33.7685 18.4943 307.858
56.6591 56.8825 254.544
19.8947 61.3481 204.851
13.9533 185.38 232.576
30.1459 367.735 109.959
29.2846 148.431 37.1188
65.6069 334.236 149.492
40.0192 321.933 62.5769
43.4965 142.103 162.955
23.5847 31.4298 319.886
28.1893 36.6609 342.361
54.8663 70.8148 38.5866
49.2177 290.362 115.082
33.3336 374.67 148.276
23.4501 202.995 251.92
20.9533 53.2929 309.74
71.4883 377.527 84.403
46.3374 308.081 144.045
33.014 295.265 96.1938
16.5632 128.753 153.322
34.4814 174.739 182.078
71.8129 377.328 100.78
83.843 340.326 110.288
80.9053 329.587 120.826
40.3483 24.9022 264.225
29.3918 19.2803 329.941
64.7103 374.121 87.0652
35.2055 265.165 81.0176
75.0501 165.767 72.6049
53.2317 110.219 46.0084
59.542 65.2542 240.427
20.4746 47.6452 281.379
51.264 75.7583 264.64
36.8052 162.64 178.61
35.0539 187.726 311.726
80.3733 379.024 114.412
45.5888 85.1075 282.879
22.4447 297.43 97.0514
28.7824 276.723 101.992
19.4745 99.6458 289.108
23.9544 59.92 165.858
39.763 370.828 99.7514
39.8757 45.6474 229.066
21.1715 54.0552 253.41
24.3036 114.826 138.566
38.1075 380.851 149.039
36.1006 168.287 177.597
46.5442 91.6106 52.4752
20.3905 74.351 244.856
56.7944 271.519 98.3768
19.0905 314.719 94.3082
88.159 343.966 114.104
64.8362 74.8342 176.848
24.3655 79.4315 343.268
43.1988 181.475 273.638
13.9888 179.967 273.224
40.3156 157.625 278.896
43.9924 150.382 313.653
34.7565 356.968 141.464
72.7662 310.302 123.903
18.513 133.588 212.893
29.4816 269.98 78.4122
74.462 319.942 88.6143
31.6677 299.526 110.763
22.8589 191.251 303.377
28.5894 150.233 148.761
14.2262 62.0406 332.955
56.3338 281.029 119.254
49.9334 391.714 110.263
26.5249 122.903 111.248
36.368 170.214 186.146
23.6895 196.566 290.69
41.5947 93.8822 60.75
32.6727 120.717 358.739
16.1728 73.9079 41.1786
18.8436 108.709 236.706
50.3814 55.9519 262.965
52.207 107.277 18.9444
43.7961 143.596 302.059
55.2795 75.8131 108.585
47.9925 134.482 323.163
84.4383 327.091 106.705
74.1278 327.744 153.882
26.7867 80.1343 351.257
64.2488 307.938 52.6708
70.9983 355.386 141.421
57.4952 145.514 106.379
18.004 70.2198 201.891
28.084 361.623 107.595
67.4791 349.072 142.491
25.8912 133.176 353.351
59.9495 352.908 72.3684
47.4761 290.256 59.4632
51.2818 74.8756 300.188
52.371 83.184 341.191
35.2815 276.105 102.346
18.9695 58.3556 277.524
61.2714 315.864 165.051
66.3135 110.419 32.4447
23.4651 104.739 115.085
23.6814 322.407 105.325
53.1682 73.1794 81.6437
57.4426 48.9336 280.169
73.2354 286.128 130.458
75.8184 384.51 128.062
76.8781 342.867 66.4478
51.4623 276.894 118.248
18.417 306.514 95.4329
25.6807 85.7181 30.528
68.6797 302.109 73.5054
33.946 150.168 230.56
35.4801 124.897 134.592
40.7222 97.5401 238.585
72.4432 364.645 79.0343
43.8132 356.754 99.8335
65.3752 287.071 105.683
34.6821 347.428 159.294
56.2467 112.852 127.273
42.2001 94.0396 271.592
37.7703 347.481 164.045
59.9784 143.394 117.93
40.5308 387.994 127.611
21.4384 47.2569 243.081
75.0939 372.098 104.488
56.5536 69.9571 327.018
45.4532 103.306 333.593
50.7321 347.408 170.822
23.0193 97.9399 283.327
71.6242 382.991 120.741
46.4947 177.019 281.456
66.9886 39.8922 227.875
31.1443 160.227 342.45
71.9788 292.518 83.3596
15.6436 120.635 159.053
63.5836 265.121 97.4015
29.4369 361.199 124.754
44.4008 271.763 127.806
62.7614 310.225 59.1567
35.6927 306.772 65.0084
63.6439 384.085 144.744
71.7492 148.579 44.477
18.7361 130.115 148.395
38.9384 313.308 139.597
87.3274 312.835 104.399
56.6883 306.854 75.3575
54.7989 328.788 64.5468
26.6285 158.984 154.837
29.5715 337.702 137.777
79.3587 373.821 112.013
45.1454 299.256 84.6422
38.7052 83.7281 360.967
16.844 138.825 154.55
26.2348 30.988 336.893
60.6352 380.363 88.5721
41.7581 262.096 80.0357
45.6168 304.639 114.848
23.648 133.892 143.76
49.345 86.7896 122.015
41.2102 316.848 144.457
83.8871 351.043 79.8285
67.8965 323.958 144.597
38.2439 335.751 160.714
54.5668 389.838 121.568
27.9609 77.8063 110.154
57.1317 133.148 20.4766
39.6105 113.87 232.961
18.3722 61.1216 60.9389
21.1431 142.483 342.715
33.0866 359.157 115.661
65.2661 320.73 163.024
77.9096 323.196 60.5452
44.6569 80.8219 361.027
81.4682 327.584 91.3061
62.4667 141.841 90.3668
58.9741 320.925 78.1536
38.0602 119.261 74.8313
40.0095 76.5397 361.505
37.5831 151.835 97.9734
39.607 122.471 24.8664
56.7459 54.5077 346.301
55.6798 94.0165 108.493
17.2281 86.8358 30.7594
31.1374 348.315 139.58
35.4537 364.573 155.477
47.774 100.943 180.054
57.3843 307.633 152.265
45.0152 86.174 276.069
59.8911 143.928 83.634
45.0472 166.588 285.222
55.1172 135.376 92.7057
44.8362 145.979 340.491
29.6447 54.9361 163.809
23.7911 313.757 106.636
34.9183 285.983 120.065
74.3095 148.709 33.3401
17.1763 136.165 333.301
37.6881 40.5364 348.907
64.1827 273.48 110.642
18.0776 199.657 242.29
58.3408 168.877 89.4956
58.1112 53.4402 237.413
56.7389 269.834 113.786
28.8512 184.787 317.69
74.4607 340.672 87.2501
51.2137 119.878 19.7062
42.7326 178.965 268.832
53.1095 257.639 91.6562
52.0988 316.005 60.242
38.9352 118.563 288.743
49.4225 139.133 59.0462
25.4378 43.7965 341.556
52.5909 362.873 110.557
85.5736 326.887 98.8832
30.9262 345.041 134.24
43.1323 136.46 117.87
55.7057 61.189 328.117
67.7213 321.488 154.183
71.214 334.499 71.5917
27.5922 167.413 336.831
36.0303 60.2162 50.0871
31.635 32.0878 233.023
53.9053 297.482 58.3622
54.4784 43.4628 348.223
75.5115 304.036 102.738
50.6662 277.605 126.82
65.4684 348.211 165.602
18.2929 74.9569 327.302
29.3104 363.711 148.384
44.8042 353.926 159.671
48.6351 79.3389 291.851
43.0066 168.401 317.581
33.7589 178.881 324.466
16.2125 194.949 213.021
59.8434 260.002 89.0881
55.5183 66.3508 82.5395
46.1278 90.57 227.038
85.9446 286.682 103.947
57.8343 39.5868 308.957
42.5267 377.225 100.782
37.1343 148.37 190.262
37.6189 166.21 59.3138
39.8519 111.9 68.643
76.9607 337.767 133.519
33.6998 142.813 228.141
69.5406 170.088 51.1977
57.7139 293.477 89.9298
57.7682 37.7122 325.896
54.1783 363.471 166.227
39.6201 77.1724 141.455
92.4788 346.395 108.09
18.5655 198.582 249.858
77.9842 284.566 87.908
34.335 174.039 218.649
53.546 71.0594 147.723
54.1069 140.189 86.2161
21.0336 31.5541 274.131
35.303 293.226 126.82
37.815 165.378 256.622
19.8182 68.7603 228.858
86.2111 288.261 114.702
51.6879 148.803 27.5237
49.7475 333.026 138.197
36.9584 87.399 120.624
27.4575 199.881 232.077
30.1614 352.266 124.001
67.3018 354.889 134.443
59.7008 332.52 78.1559
56.3436 390.711 105.944
36.0322 180.031 255.004
65.6256 149.894 76.324
38.3669 352.259 94.6879
74.6314 178.972 41.0216
33.9134 278.371 110.94
67.4821 393.975 130.414
26.3287 143.979 145.904
74.51 184.493 48.1615
70.8842 378.198 112.607
44.4205 100.792 359.273
27.2295 46.8637 261.363
51.9881 269.539 114.274
14.0852 177.034 217.925
61.1138 110.931 40.7942
82.361 302.25 73.2657
80.3381 352.253 132.677
80.3498 331.843 140.248
54.4663 90.139 159.056
58.4848 52.5766 284.76
47.1648 169.779 67.3665
34.1878 17.4121 300.658
32.058 333.986 143.536
92.225 320.673 96.747
30.4945 17.0339 316.958
40.0447 114.856 63.4351
28.9429 362.227 132.852
57.2854 355.495 76.8126
31.3896 283.638 105.927
37.344 365.363 145.643
73.3153 313.861 134.788
65.9961 366.564 75.5895
33.6621 193.818 302.117
29.4233 367.877 143.711
90.3512 331.95 96.0821
29.8165 141.023 31.5067
22.0486 91.7194 112.447
74.7607 317.981 151.809
58.1381 291.233 138.413
15.6 143.792 160.688
40.9047 104.358 92.546
25.9981 51.6193 345.129
39.0768 118.663 303.29
12.5607 284.973 282.37
46.9332 88.6766 354.477
54.5313 59.0642 244.029
43.4285 35.6497 233.668
45.2109 369.559 159.622
85.7098 344.402 122.71
24.1263 73.4579 348.571
31.1785 380.728 129.799
33.9606 354.036 116.887
64.177 382.439 98.9013
43.5126 17.8616 268.589
22.1218 151.541 341.903
77.8642 365.729 114.302
57.6798 35.5374 225.144
71.7724 302.304 64.3849
20.3253 111.613 243.072
26.1963 347.503 127.294
58.8588 367.263 82.1633
58.1399 86.5789 202.241
70.5418 220.129 72.1928
53.4271 77.9554 347.411
40.4823 156.84 270.999
40.0276 382.783 121.126
29.612 351.692 102.858
79.5772 309.92 117.389
54.7281 30.2673 321.82
44.8897 100.222 318.393
16.9618 162.514 257.26
58.8603 37.968 337.712
62.5822 392.035 133.593
20.5838 106.611 338.602
64.5346 268.586 74.2558
39.6262 45.532 356.585
63.1595 280.736 62.6089
68.0514 332.618 58.4571
51.397 335.708 67.6846
63.5936 309.6 65.7792
36.5316 345.93 117.192
16.5251 189.502 265.41
52.3355 279.025 85.8288
39.366 339.295 136.091
20.6659 115.842 342.032
42.4002 103.893 126.687
46.3666 103.491 212.011
24.3357 94.6369 275.907
56.6427 280.427 127.858
21.5838 80.9029 47.5973
93.9937 340.211 102.325
88.6129 324.109 108.77
78.5741 366.07 122.28
76.4256 370.552 90.9487
78.7421 281.238 120.588
79.5535 358.525 80.0907
79.3004 294.618 125.466
35.4501 310.134 79.2831
72.6169 314.575 158.202
36.9442 168.725 250.602
41.6602 154.955 168.83
36.9437 346.738 135.665
31.0921 300.918 104.691
92.1935 348.335 88.4637
22.2772 82.708 325.75
57.6318 81.3899 105.984
48.6794 113.73 338.623
22.9694 177.716 323.716
66.9822 147.088 88.8262
22.384 367.555 127.774
45.1511 85.9685 83.5624
76.5384 192.514 47.0295
39.3819 151.535 172.082
53.9592 305.693 83.7667
40.1365 54.6423 72.4288
54.9093 55.1935 271.783
43.2463 310.482 151.543
46.6581 18.6215 320.35
78.4637 321.499 146.693
73.1868 153.498 51.4414
57.5233 89.8552 179.775
38.041 195.572 292.936
54.8946 27.7977 235.452
57.278 170.695 66.3929
45.764 55.9354 84.8574
56.9787 274.558 118.155
48.5209 103.454 187.171
23.4268 290.322 109.215
59.6317 295.826 56.4188
81.8926 341.778 79.9155
75.0889 380.134 130.877
48.2071 289.899 130.258
58.7375 57.6938 341.394
41.8627 86.5559 68.5083
49.9851 87.7438 94.3822
71.7068 153.432 68.6431
42.6626 290.813 56.6485
76.0694 372.217 122.588
32.6662 188.349 228.036
64.0271 45.5156 235.123
38.4799 161.359 262.416
22.2666 281.151 99.7486
62.6244 352.911 166.75
71.4973 348.125 138.176
37.0483 122.456 79.6153
45.6923 275.191 77.9642
86.3202 73.3111 250.708
75.8227 372.86 96.9581
70.6873 373.976 131.183
83.1833 191.543 39.7508
55.6573 71.0321 335.51
43.0191 46.2823 212.529
47.2046 390.078 139.311
47.4138 73.1993 359.94
21.0008 68.8732 45.397
66.9089 286.255 128.525
58.4272 43.9099 287.691
31.7779 373.819 112.557
49.2935 275.301 65.8038
40.4163 164.036 80.2868
48.2566 280.078 109.986
34.2518 176.207 198.368
35.2793 143.266 143.001
82.4126 320.933 79.372
77.8765 362.388 87.6368
50.0259 84.4084 380.455
86.3731 355.831 96.0045
21.8612 145.091 150.767
56.1284 104.748 42.4882
68.2647 286.53 135.194
22.238 319.925 116.391
25.3863 32.8465 244.145
97.0791 50.5512 251.748
47.5857 296.733 73.9334
32.0661 312.654 91.3356
38.6999 375.086 106.516
51.4453 268.718 121.551
82.4048 306.207 138.972
43.4893 57.7907 52.2229
37.6482 125.219 284.134
33.7077 341.953 130
29.4716 321.451 88.2426
42.2227 154.492 294.392
46.284 355.718 72.2844
35.6964 354.238 149.348
21.6179 75.2622 53.0922
17.1213 119.192 317.3
49.2597 112.945 332.36
36.6763 331.659 138.31
25.4306 82.0722 270.283
20.1396 75.1752 284.037
72.527 306.68 138.338
61.7214 61.9669 171.525
49.5819 66.9152 263.237
36.0941 380.83 98.6545
80.4316 326.574 125.562
74.033 310.723 154.124
77.1724 361.802 144.765
38.0695 125.76 207.28
68.459 386.542 107.311
61.3735 333.564 70.6789
75.4688 305.685 95.3868
76.8212 290.54 72.2964
65.6839 71.0247 181.695
61.6876 307.501 121.784
70.4445 278.537 107.824
76.7881 282.445 96.8226
53.0542 54.5114 216.109
64.865 312.243 155.719
77.531 329.9 73.0465
88.4829 314.778 97.4734
90.1485 346.847 99.075
75.745 283.762 109.37
44.1227 118.683 307.861
33.1466 294.936 119.328
76.2242 333.597 159.266
38.6301 386.254 114.984
42.1154 277.356 70.3159
41.7646 312.007 58.4551
46.8295 362.968 90.2216
72.9058 278.251 116.547
35.8847 159.329 192.23
44.3265 154.413 327.901
45.8383 23.4367 239.191
35.0108 300.219 123.078
24.1856 345.13 100.471
60.288 57.8705 270.224
80.1942 359.127 104.526
79.487 318.981 112.283
41.6438 106.169 62.1731
19.8404 124.724 306.174
50.2784 171.467 61.4564
34.0166 161.454 214.53
61.6917 105.288 38.0403
51.1342 52.7129 257.188
22.8315 56.3153 270.725
27.6525 322.952 125.567
55.2999 127.457 43.0292
59.4962 91.2603 39.15
90.0662 338.308 97.2398
30.4927 55.7511 70.1709
77.4457 372.282 136.105
48.4547 323.788 142.685
47.1095 308.19 122.092
46.6002 125.778 54.7137
80.0273 378.642 134.436
33.4697 152.354 346.824
40.4914 165.269 266.345
68.876 360.824 72.5233
19.4395 88.8838 311.014
49.4589 363.853 160.951
70.9584 372.084 123.18
39.2552 130.54 288.327
20.3553 31.2471 306.681
62.5105 61.1584 230.719
34.1946 358.867 106.211
48.2572 283.441 58.898
24.5834 397.709 371.352
69.1114 16.7088 284.435
44.0453 76.0481 30.4887
42.5019 167.174 52.4837
66.8935 379.265 151.448
17.6079 82.9682 179.151
65.3496 353.128 70.4902
89.9122 350.299 118.589
48.2769 83.4057 55.4281
73.5101 358.678 155.073
70.9308 324.431 58.5252
77.5257 364.524 138.922
36.7646 18.0271 260.633
76.1075 302.851 125.82
49.7256 112.53 101.313
20.1166 117.259 62.9365
71.3052 171.122 76.8965
33.8455 340.212 158.354
32.81 151.104 235.27
27.4137 339.319 124.389
67.3683 355.48 163.964
52.3608 77.7884 224.764
68.925 286.4 94.77
19.508 129.704 206.155
56.367 60.803 335.101
62.0741 281.541 125.115
76.2837 350.844 152.088
34.2216 401.238 380.468
39.5301 159.641 182.987
58.1582 96.94 40.7207
77.3354 65.3191 259.894
52.6654 56.8132 208.676
56.9727 276.391 69.8359
38.3373 344.065 143.352
27.5615 359.647 115.681
26.1878 68.2369 98.1958
16.0581 187.961 215.352
31.2813 365.619 137.73
40.3512 313.999 125.166
40.1196 277.125 119.057
26.0315 199.777 286.946
41.8264 91.6684 360.618
35.3796 178.819 249.385
58.5625 59.8864 306.929
37.6686 47.879 169.512
34.938 337.58 147.766
80.4192 278.005 91.045
33.3513 152.779 195.982
42.5372 274.403 58.3984
42.2721 106.463 233.861
83.9514 328.334 71.5808
49.4496 377.639 151.504
57.2339 387.743 136.535
75.6278 328.968 85.5809
22.9983 132.792 292.533
19.6278 58.3219 70.4668
52.4343 48.6828 266.417
47.9332 79.8289 251.781
37.7474 21.9159 237.708
52.4498 24.0322 314.335
69.4306 352.589 158.515
47.8167 115.688 318.022
43.6246 332.05 73.6733
65.5874 316.443 71.2084
25.5418 357.617 135.813
58.8437 25.3931 247.694
69.1167 329.724 158.161
19.7784 113.525 332.717
38.7572 141.773 194.139
75.4266 273.081 93.6473
73.5962 378.073 123.249
72.2286 291.839 99.4145
79.4778 312.896 125.646
60.0776 89.4476 22.2187
32.1647 181.209 195.543
65.2611 171.372 82.957
57.7478 82.1915 26.0149
35.2851 147.812 197.293
27.0851 378.018 119.792
67.5343 156.611 31.839
81.6146 363.909 132.168
26.497 302.165 123.411
34.8261 316.549 132.13
41.4958 133.945 180.594
69.5429 229.132 66.4059
32.8483 359.302 154.233
82.6016 303.041 124.295
71.5956 276.474 98.1488
45.3376 106.368 133.976
26.844 343.893 108.495
48.4504 70.0715 252.822
72.9694 37.0183 240.554
49.0731 36.1576 236.558
38.4114 151.564 271.37
40.0096 287.583 126.165
81.8767 49.3597 255.276
51.6399 97.7005 185.702
88.3749 290.648 80.1647
42.3149 111.621 219.68
34.5397 181.871 215.992
16.3098 141.505 288.729
47.7267 138.595 82.2473
48.4725 93.2793 21.3897
40.4984 161.629 272.339
34.714 185.39 253.916
63.934 68.2371 172.984
30.6115 357.579 146.869
70.8035 308.01 64.1142
60.5032 53.5118 192.755
76.9525 359.377 114.534
37.4949 112.496 81.3521
35.8338 378.297 116.857
76.7223 325.294 137.573
88.3551 355.316 107.494
39.4828 143.017 281.554
15.549 144.308 327.628
43.6203 375.105 156.354
71.7064 308.265 129.969
37.1064 75.3518 33.6396
75.5964 285.491 75.8991
19.1221 146.172 155.921
45.4062 113.552 310.686
17.6447 82.854 317.64
59.0005 262.05 80.8894
56.1331 309.457 59.3501
57.1616 65.3823 342.534
42.5048 112.936 227.945
42.5601 163.15 279.848
36.7565 144.933 273.506
69.4479 380.367 105.424
58.5527 379.468 100.983
51.3597 22.4277 288.345
45.4141 168.021 290.031
16.9649 121.952 56.5366
36.2762 159.813 242.051
53.8642 59.8109 81.3918
33.944 60.1647 251.084
40.5505 135.745 284.951
34.13 323.912 126.636
80.0474 379.179 123.164
18.6678 100.423 111.002
22.9297 286.758 103.029
45.4346 106.807 98.7292
92.7861 320.482 88.3542
18.0615 116.842 309.067
80.5133 41.6359 249.377
42.9119 80.6819 113.069
31.584 192.842 244.726
34.1011 154.477 190.488
45.6385 55.0096 63.633
82.8888 317.318 105.194
37.5748 126.345 213.193
72.7857 370.54 116.058
19.458 53.8943 323.254
56.9297 18.4855 222.535
52.8558 91.9841 146.002
68.3952 342.077 152.569
38.7387 110.424 269.435
86.2199 51.882 247.873
48.9538 136.511 23.0671
46.1915 156.173 304.692
92.2503 69.0856 251.524
78.0717 320.362 73.7145
18.8916 121.879 226.99
35.0028 162.899 188.583
54.3858 142.559 23.1945
14.6053 90.6609 34.2108
63.5712 359.486 74.0889
59.515 44.7342 276.53
36.8206 263.121 88.7775
75.1821 338.575 157.858
39.8683 325.366 135.202
41.8898 287.133 131.523
37.7904 348.655 129.679
31.0702 327.236 151.309
59.9047 48.3041 321.48
81.0618 318.371 91.5578
64.933 98.7523 23.8439
61.0595 340.486 74.5769
75.8777 16.2352 284.216
23.6646 363.987 114.282
68.819 346.551 70.1116
73.1769 291.651 134.332
51.9151 322.853 79.1376
64.5354 26.6413 242.71
57.2505 340.423 70.1491
33.6304 351.831 108.619
62.84 47.7926 240.825
40.458 82.4087 29.1964
60.8069 118.252 17.8977
77.2935 301.107 67.7563
57.145 49.0806 297.679
64.1147 343.893 155.909
68.7633 344.036 160.199
76.7909 340.587 146.565
66.0614 150.37 59.0518
28.7694 349.567 115.918
87.9738 315.371 90.3131
57.105 286.942 60.1093
49.256 159.642 345.634
41.7055 363.785 99.4662
56.1632 372.961 80.0023
52.342 65.5678 242.038
85.1733 309.638 75.2009
81.1664 349.837 124.843
72.9201 313.414 66.8583
72.2725 281.489 123.355
29.8857 286.355 115.371
88.9418 321.227 102.725
28.9463 366.626 119.515
42.0106 125.474 65.0821
24.8946 340.731 116.109
76.655 379.141 106.029
50.2363 34.8305 228.424
76.6713 365.579 82.4656
75.7451 380.324 117.908
62.9636 326.843 71.345
39.9507 365.679 108.825
65.1926 103.209 29.8252
63.5596 312.85 128.747
60.2165 347.985 69.9322
31.7155 47.5066 340.33
56.4853 115.791 106.896
42.0952 272.17 82.9036
55.3581 283.39 68.6526
75.1473 357.392 75.0365
67.6117 330.027 66.6651
76.5381 346.545 129.877
14.6664 188.838 253.845
70.426 72.7811 251.011
26.7171 299.839 100.489
49.2575 74.2527 233.404
67.4697 213.197 63.9243
79.5769 369.611 129.994
54.6635 388.402 144.252
81.2769 349.387 114.693
47.7853 77.257 115.389
35.9518 328.438 129.697
56.5068 103.532 125.869
51.1191 57.6863 73.1306
52.3832 33.283 270.984
76.691 68.0114 233.8
77.0161 318.091 141.819
87.7991 69.9356 235.52
39.584 287.955 115.586
76.2906 298.182 133.682
87.9445 295.561 85.7249
51.9313 308.897 74.0047
50.9171 104.692 104.68
44.853 113.126 127.124
69.0701 275.622 120.25
25.471 333.201 108.719
57.4259 330.611 141.301
67.7604 295.212 93.485
59.9332 73.001 166.939
55.3759 128.212 98.5557
86.6608 309.905 110.227
44.0014 25.3344 251.623
52.6076 95.6968 102.438
47.2328 122.169 97.0842
24.6202 365.255 139.108
68.9325 55.4533 253.821
34.5572 167.5 200.782
64.6806 324.983 65.6038
30.6325 341.629 120.197
74.0171 356.82 149.713
69.9 273.693 79.7209
59.954 324.26 68.2379
61.9519 213.042 61.6539
71.0546 281.029 91.6275
42.2248 333.522 132.521
40.6471 114.552 207.33
53.2543 63.9843 71.8034
34.6054 307.858 84.0361
43.4083 107.547 308.991
87.38 324.607 92.1067
23.0663 96.9533 250.457
76.0095 298.136 74.2715
81.4241 368.45 105.467
83.5315 364.527 108.517
53.6263 341.104 65.5015
81.4965 356.261 147.961
85.336 312.316 141.044
34.3247 38.9848 238.585
24.9559 41.0556 227.562
43.863 127.576 92.1216
52.6817 233.412 211.563
42.5092 117.71 134.764
35.5732 370.135 108.068
46.6171 80.5347 227.238
44.697 121.588 316.045
72.8218 353.567 70.6136
18.3832 130.983 33.2619
55.9451 31.6612 226.785
40.3086 268.67 77.799
60.2833 44.5743 245.356
70.1101 337.98 144.532
32.1254 314.207 124.57
40.9076 149.974 287.756
39.968 103.21 314.327
85.421 358.551 130.648
84.7955 64.1513 234.246
46.7495 95.4459 94.5075
73.7023 333.276 140.704
51.7443 140.326 64.0267
62.1477 67.0942 205.371
71.0433 27.3578 222.943
53.1906 277.038 78.3866
18.0241 132.896 294.386
64.7788 267.165 90.4373
44.0586 139.794 313.352
78.9736 357.466 142.351
33.6558 349.68 144.548
60.2776 310.393 159.092
64.9624 147.233 80.2307
67.6239 325.333 136.148
34.2148 159.981 203.531
54.8493 303.254 58.2069
80.7378 356.72 120.648
56.7705 368.901 162.383
59.8649 52.5312 328.407
19.2317 261.12 40.3072
18.9404 63.5082 86.5747
56.3259 42.4019 292.718
45.8939 1.26535 75.2028
35.4692 173.403 254.022
57.4513 121.919 104.789
87.4617 330.744 124.759
77.1517 63.3406 237.266
48.3392 102.749 174.617
82.7933 355.627 137.722
63.74 276.025 91.3139
40.8765 18.0401 242.673
81.4044 302.297 114.655
25.8319 373.015 119.667
66.2565 47.9324 229.884
41.0328 259.177 89.6769
68.2352 283.643 123.228
55.1661 89.549 166.093
69.1349 124.79 19.7719
19.941 116.643 323.359
39.795 112.186 360.472
49.3261 160.277 336.199
80.4377 332.027 80.4084
37.4217 38.3533 223.592
86.8585 329.549 118.243
37.4997 41.0032 218.422
46.9849 383.415 146.387
59.5502 50.7183 270.578
33.2279 186.693 240.466
51.4154 105.709 343.15
38.8869 153.393 264.166
17.3059 93.765 195.072
40.1176 372.108 92.16
16.1692 66.5706 292.077
74.8554 276.144 86.6278
78.5945 356.419 156.519
34.7336 37.0067 233.57
50.82 59.2061 50.6662
63.6832 305.945 78.2484
30.69 339.983 142.793
34.8348 347.739 122.866
49.403 73.582 306.697
47.3459 281.184 127.647
41.7672 329.319 158.214
19.5347 109.114 192.769
64.8056 275.663 73.5237
50.4546 355.29 77.1278
46.0361 326.446 154.773
22.2526 113.711 290.469
45.5335 129.729 331.76
57.4742 27.6591 220.282
53.0696 32.341 331.841
59.9498 53.6521 306.064
57.1784 96.3764 18.5889
43.3281 331.658 142.577
38.759 400.988 382.806
83.1839 339.197 94.0723
21.7145 52.218 334.099
24.7116 374.659 130.291
82.0794 361.344 98.4848
60.0636 271.425 94.353
72.5078 318.014 71.0104
50.0068 72.3247 31.1915
79.4452 353.906 105.536
32.7936 49.2335 351.419
26.1125 62.3301 349.339
91.6672 310.737 78.457
65.3193 342.611 86.0335
33.2003 29.142 239.794
82.0914 338.463 125.362
60.3218 351.394 134.892
68.9312 359.948 158.009
72.4959 294.167 126.204
62.997 143.057 21.8612
