ply
format ascii 1.0
comment Created by Open3D
element vertex 361
property double x
property double y
property double z
end_header
28.4902 67.4004 47.2095
15.1123 40.9408 42.6948
31.933 64.7949 58.0542
61.0117 53.5408 96.7331
32.1414 43.75 21.7825
12.8842 52.9186 44.2416
36.673 72.9279 67.2004
35.736 49.6273 53.486
12.0425 61.1435 59.9928
54.3956 22.4388 51.8618
51.9148 40.139 27.6807
36.5789 56.0822 16.0777
56.1524 41.7934 50.0736
42.5149 42.2284 24.5605
62.3741 58.6993 84.6121
22.1755 21.7599 61.553
37.1678 48.6983 45.8225
59.6299 65.9394 88.0025
39.6471 40.8774 44.3967
24.1385 39.2551 95.6945
22.9999 58.8323 46.8088
21.4493 66.3027 44.8428
53.4335 36.3301 55.5538
27.6966 28.3077 55.3337
36.8709 25.0745 40.5392
29.6568 52.2102 90.2521
11.5907 48.3636 49.9641
56.9704 23.5677 44.1464
42.7012 60.0866 29.4982
13.4554 51.6194 75.027
15.2885 47.0824 33.9552
59.7499 58.26 90.474
34.7486 41.0557 30.0502
17.3302 58.4261 37.0324
29.0953 22.4195 41.6262
40.6382 63.8152 95.7671
51.2075 50.1194 25.5148
48.1187 57.7494 101.958
25.1457 32.3544 85.7406
44.7756 48.4207 69.3524
14.4424 59.9974 46.9583
32.6456 76.3327 38.86
23.1952 32.6477 34.588
43.7204 49.2983 104.294
53.2514 68.8228 28.8762
46.6173 45.6072 46.4609
50.808 68.3562 68.0581
46.352 23.9406 56.2765
41.8504 52.8033 33.5338
50.1121 40.1559 63.2034
36.2682 42.2284 35.7646
18.1397 36.478 33.7262
34.1434 60.6936 98.9097
19.1954 41.4365 27.1912
22.2994 30.441 79.0404
52.0644 74.3859 43.9258
21.1954 30.8807 66.5889
26.9992 31.8909 47.0297
55.7313 43.5852 98.1613
46.1156 61.2018 16.803
54.1989 45.2249 34.2491
44.1136 18.777 44.7386
68.7962 57.3702 89.9682
58.1499 32.6649 88.9755
17.075 30.9139 72.1412
18.4596 68.5008 38.9485
33.399 20.9707 53.8647
23.6611 44.5994 53.0669
33.7525 42.8053 50.9794
25.7284 31.3282 93.3746
24.6047 34.8777 27.9888
20.9452 51.0204 75.8676
53.9314 65.9328 55.9748
19.2041 36.5287 52.8515
50.7861 46.9544 54.2567
49.9605 22.7823 77.6927
39.146 17.7207 53.4075
24.4394 60.2053 35.6847
27.0835 58.9861 90.7611
56.1834 31.4887 77.2811
35.3259 21.8694 74.8919
45.912 74.9907 28.8241
56.214 66.7406 63.9669
28.476 25.316 79.8933
39.4842 73.6959 81.593
30.4529 19.8982 66.9927
17.3487 38.4302 79.4745
51.9982 52.7967 55.7042
29.4112 52.1563 19.2022
30.2339 32.7581 77.7558
46.3126 23.1578 41.6984
29.8845 44.7834 75.8366
55.1603 73.5807 74.8785
20.6448 62.9518 69.0191
42.3198 20.0383 36.2343
14.0405 42.1238 55.3396
20.3415 44.8907 75.0083
70.1971 59.1705 65.3343
23.8659 27.4139 38.0875
36.9576 60.205 44.5345
41.0579 18.9267 79.0864
13.7215 39.3805 73.6878
32.5331 19.3797 47.1163
39.6107 52.2022 60.529
43.1221 41.9442 51.6802
65.3081 47.4748 89.4927
49.9674 60.5608 39.2148
62.1195 50.3721 37.291
53.3957 76.1284 49.627
12.6885 49.6211 67.3544
35.7363 68.2443 46.9535
46.7938 47.4399 97.1173
49.2975 55.111 64.6126
46.3321 62.6456 58.8444
17.0726 64.3325 50.1086
39.637 32.9113 88.9091
60.4577 34.6046 47.2297
35.3303 37.1458 50.6475
65.6192 51.1364 77.862
21.2197 44.896 91.2169
51.7624 48.8124 100.327
31.9997 73.3465 52.4115
54.3422 26.7449 73.4557
31.1637 52.0055 97.5029
56.1778 40.3805 42.5577
48.2806 37.0928 99.2845
18.3725 48.7512 88.1954
34.0257 57.6094 27.7814
44.1076 70.3553 74.1874
16.4138 48.3502 60.9673
56.4247 61.6321 74.1424
34.4227 21.9153 82.2234
28.5464 41.2397 27.3326
48.2129 69.0583 57.1416
34.7951 34.1945 33.4366
45.2976 31.5555 22.5838
28.5181 31.9736 31.7851
44.8748 73.6647 87.665
30.0867 36.7105 92.5754
27.6939 27.1967 67.8899
53.4381 48.5997 66.1947
36.1519 60.4694 91.5569
19.8222 37.4864 85.3789
49.4247 69.2054 46.5497
51.8948 20.7335 39.879
48.9855 65.694 86.463
31.5962 72.2987 32.0912
39.2204 18.2042 72.9978
53.4147 62.1306 32.3854
55.6066 44.2839 60.034
57.6041 24.2201 79.7652
54.4682 72.0121 83.3576
54.1638 59.097 65.8242
35.3513 18.9412 68.8835
38.7911 22.59 45.863
40.0535 55.8932 94.7318
56.9999 60.088 98.252
53.3179 63.2525 21.6582
48.3884 25.864 63.7066
42.4275 19.2843 69.5318
16.557 38.0119 67.7661
39.1501 30.1853 35.385
11.3476 51.8435 60.5589
43.4617 34.9794 30.366
28.8817 20.8466 75.9018
58.855 38.0282 98.4954
53.278 46.8835 43.0768
24.3133 26.2125 73.6705
19.4331 30.905 59.8761
62.5443 41.8356 33.346
43.3182 40.4765 98.2719
33.4796 55.9338 93.4445
52.4436 18.0404 73.7949
31.5719 56.5768 68.7763
37.3151 68.8052 85.0388
58.6541 34.2646 67.1545
51.091 66.8825 98.2301
19.4979 55.8802 83.8437
39.9581 57.1911 65.3456
48.2682 22.9637 35.3561
46.871 72.4349 64.3846
34.2274 64.4652 88.2308
39.7818 26.5642 30.3132
25.8372 38.2799 22.5152
62.5046 46.4711 96.0912
24.0015 66.3677 74.0997
53.2643 38.4304 95.9642
34.2106 27.2847 90.4216
47.081 59.4972 94.3336
55.0744 29.4443 48.6964
33.3 70.0933 81.4836
59.6648 35.013 93.8788
40.4242 62.5845 87.3501
31.56 22.4767 35.3106
70.391 48.4195 91.633
32.8525 78.6096 55.0399
14.9489 44.0534 66.2361
19.4685 49.6423 27.5724
45.1212 53.6957 16.6308
60.5285 23.7195 64.4341
56.0948 49.2523 96.8891
39.5048 25.2997 88.7987
45.5485 25.5699 28.3313
50.3654 29.4517 32.7096
62.7186 47.1939 44.468
38.9321 36.623 96.2945
30.6469 41.7176 95.9052
55.3251 24.4178 35.4407
31.8905 67.9225 66.9214
41.1802 65.7633 71.3069
18.2603 67.6746 65.6431
27.1292 62.5841 26.6876
29.011 65.1647 80.1878
57.7557 67.4806 37.2805
50.2971 42.6722 99.4111
44.0719 66.1728 88.1829
66.3593 49.9444 83.4293
23.469 37.9164 65.2157
27.1399 39.2706 87.0316
23.7578 50.5836 90.3502
66.3233 65.0534 61.48
14.9901 52.5819 55.4214
60.0507 71.5863 62.6826
41.1369 77.5913 44.2236
40.8487 61.2948 38.8781
31.6294 48.5277 80.528
66.8939 44.9814 47.3996
41.5848 73.6429 53.2674
34.2318 21.6256 63.0245
33.6462 34.1898 86.2478
49.9942 76.1951 57.6793
23.9902 44.6324 79.398
28.8954 20.7731 58.7331
44.8382 34.2736 97.0511
53.1063 65.5964 90.361
18.8874 49.655 69.4984
37.2161 51.139 97.4852
45.439 14.4345 58.6767
62.5016 35.3292 70.9631
49.8024 25.1269 87.8724
64.0775 64.2921 80.1973
55.149 80.0495 95.859
39.4185 25.1701 80.7904
58.7555 68.0703 76.9685
66.1672 32.327 76.585
39.313 54.3906 101.294
58.937 29.1043 36.0842
44.6451 21.1739 75.1925
59.6526 45.867 54.2581
58.4105 29.9367 43.0427
35.1098 36.5406 90.9728
58.9377 37.9994 60.4732
52.4948 23.8407 68.3638
46.8315 67.9173 23.2094
62.4185 41.573 70.7538
61.1176 25.4448 71.9428
57.4905 36.0379 26.4303
47.3153 18.7306 71.0039
52.2163 22.9674 58.7407
25.3702 38.0825 77.8055
48.2392 25.6366 82.9247
61.319 31.7883 53.2514
51.9413 32.689 86.1775
44.9414 75.7913 72.6809
37.4157 18.0352 60.1582
44.5087 28.0471 86.3526
29.2948 47.0775 97.3556
50.9612 20.1676 46.6277
55.3265 49.2528 20.0848
60.6403 69.2316 53.3911
24.6311 32.8081 71.2611
36.26 61.032 81.6944
27.873 35.5051 61.0663
62.967 42.6915 62.2905
29.2697 52.8748 73.8834
36.2352 58.0712 73.2151
16.3197 36.9356 58.6815
61.7088 56.1783 62.5848
35.3182 63.5092 71.742
55.8079 18.4375 62.1995
54.8302 27.7434 84.7125
50.2398 35.0912 93.704
21.3083 58.6077 31.1045
67.0523 37.8481 74.8172
49.6363 69.5322 77.9806
50.5451 30.5862 92.7539
67.017 45.9381 68.7994
50.9377 32.7653 28.1075
58.5258 52.822 60.2309
38.4363 49.9424 72.3004
40.2565 67.2046 77.9354
43.3202 23.7732 82.7472
35.3748 46.8851 95.8622
29.5695 60.413 83.5277
50.5605 55.0656 95.611
64.2621 64.4237 75.0778
41.9971 56.0386 13.5426
27.1598 60.912 72.0292
65.8774 52.27 62.3707
40.5742 46.3514 99.619
28.5712 45.6158 91.2798
60.8336 47.9107 66.859
19.6931 59.5021 27.5892
60.3822 41.8903 92.5789
41.6315 31.4011 94.9832
25.1263 42.7321 83.9437
57.5374 68.3473 71.4926
23.5884 38.8494 71.7559
35.9828 41.9182 91.965
46.2549 29.586 90.5883
59.9568 39.697 86.7005
38.2285 42.4965 97.2703
39.1308 19.9374 64.9584
61.4544 64.8509 42.8148
47.102 19.5412 66.7134
47.5274 37.7202 25.6025
55.0953 30.067 31.9472
43.3402 68.7725 48.6001
55.6363 41.8004 68.4487
24.1271 58.456 82.6261
44.7981 16.9326 62.8178
65.3019 44.9469 80.0815
68.1697 43.2515 84.2381
41.0772 62.7248 63.6228
61.1142 59.3102 66.9488
33.7909 55.4703 76.9415
58.1422 21.4172 69.2292
60.289 36.3529 78.2885
53.8904 32.0403 64.137
37.1951 63.368 76.5165
44.0448 77.7123 62.7784
19.9711 56.8794 73.275
46.274 20.1726 51.3763
70.3439 42.8763 72.4737
17.8215 55.8849 68.2633
53.0934 35.7447 36.3186
56.134 30.7834 58.616
58.4183 33.6733 39.4316
29.1213 54.6128 83.7188
64.8192 59.3147 70.9169
60.7985 39.5819 54.6164
63.7525 37.3764 83.8826
61.254 32.5179 61.4668
60.6426 63.7145 68.1909
55.1725 72.9029 53.3318
45.0261 68.3018 81.9391
45.7019 60.8808 63.4341
32.6416 58.5862 86.9849
60.4188 53.6157 69.8624
22.7455 50.3417 81.0299
34.8145 25.9772 85.9789
66.9311 50.8263 69.596
58.0323 38.6621 31.8642
67.9507 38.6085 81.5976
58.7219 32.8535 83.2512
57.2691 65.6623 81.7237
68.29 57.3595 73.8592
47.4208 65.4896 62.8105
64.3954 58.6361 77.3208
40.1748 61.0866 71.3875
57.7748 24.5796 56.4995
