ply
format ascii 1.0
comment Created by Open3D
element vertex 511
property double x
property double y
property double z
end_header
33.0515 34.0601 74.4744
32.4435 55.2821 86.2269
56.3196 38.8515 131.079
22.3362 73.5219 59.5849
17.0506 72.4606 73.3705
78.8919 99.8327 61.414
36.5549 38.6678 102.988
61.201 84.9567 80.0538
32.8829 58.2218 69.8555
24.5918 93.3207 64.7143
57.4815 82.4792 97.979
26.162 81.193 102.764
22.0883 38.6105 98.792
34.6039 55.8293 53.5708
37.4405 98.382 65.7497
49.8904 27.4289 93.0563
42.1837 84.8708 48.9915
66.166 52.782 128.828
69.4271 56.3789 84.3853
22.9566 57.1053 91.907
31.248 25.3134 97.9828
47.3124 35.5944 127.111
53.1543 75.3482 41.1296
23.3167 81.1144 62.7992
59.4025 78.4264 87.9012
30.1724 90.897 59.187
55.907 36.6982 71.1791
30.2959 90.4006 100.421
17.3124 74.7758 81.4791
35.3682 102.139 103.658
48.623 40.5785 62.1664
57.5409 55.0165 59.1596
38.68 110.63 72.1013
21.0289 86.4229 85.5034
22.2477 40.5567 85.8614
20.5044 77.256 68.4626
58.7336 29.0349 109.253
54.6829 25.6548 113.656
21.6354 49.4966 79.8629
19.6597 80.7678 74.2411
38.1603 87.5945 122.459
15.202 59.0374 88.1799
55.3917 63.0813 33.5433
38.2902 27.2875 93.4653
36.1726 42.6808 91.2901
57.4778 59.6631 71.0679
71.7341 38.4384 105.413
33.2019 51.4863 111.993
35.6791 29.3598 112.185
30.1316 65.1685 69.3831
54.1566 111.071 110.132
30.4691 92.5603 91.1722
33.951 105.991 79.8693
56.1462 117.199 105.055
47.682 72.96 36.5421
27.8433 37.9664 85.6807
62.6445 41.2956 126.76
31.0286 79.5432 66.6401
41.2909 73.4764 35.8614
37.3195 32.5019 122.397
68.0807 72.3589 82.2215
20.4161 68.8573 65.657
69.4067 39.7679 114.102
23.0304 59.0604 73.6015
24.9867 95.3697 71.5871
66.2352 88.7116 104.126
23.3811 94.5335 82.6797
40.8658 40.246 125.183
70.608 50.0343 110.143
39.4146 46.1421 77.5858
36.6524 109.428 96.0001
23.1109 106.033 59.7503
70.9063 70.2966 116.833
68.8423 106.606 104.18
15.3007 68.9339 89.2213
34.3127 47.8396 74.1007
66.0082 62.4244 117.043
68.1918 98.4892 111.327
29.0072 68.7936 56.1188
58.0915 43.5799 70.7976
16.8368 46.9887 82.7378
66.4753 33.4161 115.343
76.6926 69.1325 75.2623
41.5821 53.1147 50.6318
43.7561 49.3498 45.6897
68.7353 57.2996 105.477
48.6144 110.231 66.7026
67.9327 86.3869 48.9778
54.3935 91.7583 47.0589
50.8368 49.0197 47.6434
19.8757 78.0121 89.3291
37.821 84.2147 64.0451
67.4763 78.0078 99.3721
64.0147 85.4311 95.7663
64.611 30.2188 103.957
41.3532 22.5756 112.181
29.4843 51.2244 73.3837
66.5472 87.4865 117.286
41.5998 54.8982 41.5594
58.2135 43.079 42.4338
52.6895 33.1045 80.2547
30.9202 60.8506 98.6657
58.5292 66.8576 76.8315
36.1629 102.787 111.383
51.7503 50.3418 66.4527
31.7564 42.4348 68.5933
40.0356 39.1547 65.2145
24.79 44.779 80.0839
26.3837 34.6546 109.202
47.6181 19.2647 107.23
46.7324 29.6843 121.794
45.1895 64.2675 37.3365
30.2089 67.9865 106.459
46.3643 88.5804 123.729
38.6248 109.658 85.4339
33.5312 27.142 105.311
57.7249 66.0697 37.9398
16.366 49.703 89.3007
56.4113 37.4822 80.7187
68.0996 51.1164 43.5449
47.2227 101.313 54.3567
64.0782 84.0039 87.4168
52.2487 93.3406 74.3351
52.3196 26.052 103.005
55.8628 81.6378 129.244
25.1963 48.1518 96.0462
73.6142 101.828 94.4743
52.3316 95.5139 53.9668
43.5482 106.451 107.566
34.2643 50.4829 97.8313
45.0519 114.862 77.3384
56.0966 40.3197 60.0185
31.1013 63.5374 49.6222
30.9556 41.4609 77.0282
32.1489 28.1659 88.3035
16.0179 41.3348 92.3927
29.282 101.296 75.7542
60.0057 45.6023 55.3152
55.4176 26.9144 96.8693
32.4584 94.1346 68.3004
29.6009 101.064 84.6919
37.1024 46.579 59.1236
30.1799 81.0576 60.189
67.3362 45.3207 121.338
63.9042 80.027 112.976
21.1712 56.2381 104.469
57.0651 50.8716 64.409
61.681 60.8055 54.5582
60.7204 70.6138 106.776
65.2235 66.4208 124.556
59.9888 100.165 50.4493
67.9062 69.2958 100.406
35.5786 58.7301 43.6841
31.6546 41.5713 97.3864
65.8296 54.9996 35.7515
78.7653 95.6103 54.8784
59.4743 74.2823 117.709
79.8544 108.275 83.0346
24.3268 89.2156 76.4643
46.9009 113.547 83.3464
61.9875 71.9164 92.928
45.7342 99.6121 62.5507
19.99 61.2095 66.2629
50.1784 96.5896 69.4695
56.6942 59.3349 135.143
72.4901 102.192 51.7713
66.5037 72.0849 130.109
52.1218 40.558 75.1468
61.1496 77.7339 80.1153
39.918 65.0329 107.293
45.6994 78.5579 126.768
67.2161 74.8215 41.5219
55.4798 86.5081 78.3498
73.0701 89.9343 108.451
48.8152 110.286 108.249
34.103 80.7094 55.2567
56.995 115.64 70.5346
71.4623 81.0009 45.1611
55.4168 119.183 87.8133
83.9224 90.8668 96.2522
15.9506 66.0377 76.2774
70.4939 107.787 81.1535
39.7765 18.5637 102.01
58.3123 86.0964 43.2398
55.0863 52.2217 74.1615
25.8421 77.1223 97.1121
38.8028 79.1161 42.3637
65.9959 113.163 74.7864
61.1519 97.2996 110.529
22.4563 50.5334 88.0038
26.0155 65.7387 92.245
26.9718 28.9701 82.2676
28.0554 85.4727 93.4691
35.7772 43.1419 63.4409
50.7894 54.7462 134.93
24.3748 30.8141 98.955
62.9167 40.6187 73.7842
32.6027 62.3739 106.764
37.8005 60.051 112.649
58.1668 82.081 111.545
44.943 99.744 73.8875
65.9467 49.3216 113.129
86.3835 93.9564 63.7607
83.2832 63.8152 60.7916
37.1038 92.4829 111.475
44.8833 79.2615 45.0234
47.6484 54.2116 125.348
33.3709 64.4213 39.4192
38.5511 100.742 58.6229
69.4981 41.9784 54.9382
72.8279 85.9278 66.3426
35.598 95.0066 58.9164
63.2625 47.6135 49.4701
66.0151 75.9869 121.341
28.2228 58.3305 58.5716
83.2102 86.2616 59.3005
73.7367 113.823 67.1574
36.6002 70.4765 124.406
50.1635 98.0012 111.486
45.4621 34.1878 76.4949
49.1589 52.7877 40.6003
38.628 70.5932 45.88
48.62 49.7236 55.7402
29.0496 47.304 103.608
56.5712 105.924 110.933
42.8195 97.6084 106.019
73.3245 88.4216 100.729
45.5331 89.5174 43.1374
30.3109 44.3569 84.2716
41.8235 47.635 123.426
68.5712 62.1629 130.103
61.4678 112.193 96.514
68.7661 41.2129 80.8435
37.3087 42.3932 74.5063
54.4532 53.6316 32.4895
67.7819 96.0115 73.8615
33.9518 59.3564 60.6302
82.7492 101.21 86.0612
38.8258 21.0405 86.8799
31.1876 47.1635 64.6033
15.0837 61.7545 79.3991
63.5937 94.659 59.3146
74.897 91.0769 48.4981
74.4856 38.3383 76.4092
37.2134 92.6807 102.256
71.5452 82.0592 91.3476
49.1137 119.517 79.1009
47.3834 85.8688 113.868
50.5229 85.3805 118.982
71.7549 47.0392 49.5695
72.4001 75.7504 46.6043
51.8943 117.264 75.924
50.8461 118.479 102.703
62.2097 117.601 88.4947
66.8299 44.5095 100.396
40.195 80.8241 57.5775
76.7821 111.834 89.928
52.1655 45.0472 42.8431
70.2128 64.1435 105.275
31.911 78.1745 101.347
73.2286 85.3842 54.9717
45.5225 27.1426 114.427
71.2578 45.5372 104.633
67.2493 43.6131 47.5633
50.0419 106.197 116.527
74.2424 75.2932 90.4084
51.6065 111.251 57.5606
59.6228 53.7272 38.5835
46.8019 91.1176 48.8011
26.193 58.0958 105.82
47.4435 60.7763 32.4063
61.2967 77.0454 41.6923
51.5034 83.4385 43.8661
53.6304 46.9555 55.5521
26.9728 33.3752 93.3903
35.1503 75.1175 48.0362
42.6884 31.6189 71.2048
61.095 102.693 105.094
37.1816 76.3833 123.921
47.6005 120.551 90.7388
56.3795 111.671 62.2662
19.0254 84.5922 78.3766
80.3512 95.0259 91.2431
33.0461 80.6491 109.183
69.0689 41.1973 72.1117
42.7525 45.302 43.8291
63.2194 107.873 70.0449
49.0148 32.6494 72.8711
68.1328 118.797 78.2407
67.9968 107.116 56.004
75.7557 85.057 89.1831
55.3755 88.4996 114.058
40.3367 105.327 114.164
75.0142 54.2587 79.2494
66.1253 111.108 89.2554
70.771 107.063 109.432
35.6927 83.9656 50.6485
47.7333 35.7393 67.4085
51.0939 79.1281 37.9731
42.0779 84.7879 110.956
54.3595 29.0311 86.2153
47.6884 115.25 100.837
66.5828 120.133 86.8236
36.6345 73.3863 40.3769
68.5386 108.555 97.767
57.215 118.963 77.5247
51.128 82.7307 111.487
39.1505 28.5988 83.0924
30.0828 39.3643 111.203
73.2764 53.0507 48.7513
75.9471 82.4561 114.722
72.3193 41.2258 66.5187
82.9336 103.782 75.115
41.2148 28.8886 123.705
49.4672 115.267 69.536
43.9265 92.8118 119.009
67.8577 67.5639 110.25
46.3579 47.8802 127.698
40.5155 44.7274 51.6465
77.7024 90.8804 60.971
73.7837 106.013 58.8045
68.2512 68.0289 75.48
42.3239 84.1705 41.2524
48.8582 84.5435 39.5517
58.0577 63.472 43.8763
75.7204 104.88 74.4056
40.9808 66.241 126.54
62.8873 66.8383 130.891
63.6644 115.515 64.713
60.8777 68.297 82.4211
60.399 57.727 127.698
71.937 52.609 116.974
64.643 42.7125 61.2321
63.8316 39.0949 79.9084
27.5238 78.9873 111.648
60.2092 92.819 49.543
43.5676 51.1633 36.7749
44.4846 69.773 40.9353
73.8627 94.5833 77.6348
34.08 46.616 103.712
69.776 56.9803 91.441
52.95 74.2899 102.504
75.8708 53.6651 55.7189
28.4056 72.072 99.6
55.1834 55.9076 41.5044
49.0459 105.405 63.2197
69.0287 93.5118 116.894
63.406 96.8733 49.6747
64.5198 45.8448 39.2766
79.5214 88.3416 104.645
45.1816 59.7511 128.28
68.3061 49.6509 80.0997
79.6864 77.0627 105.734
65.1134 91.063 66.895
73.2483 87.7832 116.636
73.5466 41.3268 84.4726
51.4027 50.6764 129.81
77.4498 89.5883 94.3981
68.773 52.8019 102.322
56.0618 117.62 97.2379
42.1788 117.323 97.0063
73.0758 52.1148 70.7684
58.5065 35.8302 88.7232
30.2116 30.287 108.862
77.014 80.1747 47.105
49.8347 49.2372 37.4384
31.0865 107.498 88.2613
40.0173 93.7163 52.7747
55.422 103.517 74.6265
69.0091 75.1535 109.504
66.1094 35.8149 84.7494
73.4523 63.4396 50.9568
63.9276 44.8888 71.5711
38.8065 55.996 36.0748
18.7688 44.7133 100.305
66.4984 102.164 53.7835
47.7584 116.657 87.6263
34.3908 28.0958 78.5622
42.9653 113.273 107.843
73.9866 43.4722 61.2421
20.8749 38.7069 90.8897
76.0598 102.014 68.4174
61.0696 124.342 91.9632
72.9895 35.5318 89.371
75.6429 107.661 98.9954
55.03 93.9157 61.7338
61.2934 98.056 71.1324
40.7517 110.489 100.221
55.4888 124.457 80.5093
69.5734 59.1357 47.4946
56.0965 84.6578 123.874
39.5598 40.1265 59.4969
61.1525 37.7402 119.882
55.4152 45.3694 48.7637
59.2456 121.093 88.2157
74.7185 71.075 52.6309
61.734 81.1948 121.12
58.0273 104.357 54.9545
43.6563 22.6236 103.978
42.2628 78.7608 49.5088
64.0516 120.235 99.4088
75.0432 69.072 47.0614
63.5509 60.251 43.7732
86.3072 68.547 69.9839
46.7363 71.3101 107.647
73.8382 48.772 59.6584
41.9508 112.902 81.8559
43.3324 79.6625 38.3032
36.6903 61.3484 48.578
57.073 85.3137 118.377
67.7727 36.1489 90.8465
28.3994 31.2238 102.135
37.1512 46.4269 116.201
78.1227 78.5966 74.8925
67.2701 92.9834 46.9377
70.0725 114.346 100.621
73.7275 94.4425 90.9284
80.3138 89.9295 51.1471
63.9586 90.0454 44.7491
37.0346 71.6221 115.183
83.9635 91.1107 84.4669
37.9569 57.7931 118.514
36.4257 99.059 72.7022
62.9183 119.284 74.4835
24.8011 86.8953 64.5403
62.6191 81.1056 104.111
69.043 34.9843 96.585
65.0631 58.379 75.4619
72.7337 64.8731 78.6238
38.1644 73.6559 105.513
74.4347 56.4808 61.1077
24.825 65.3355 58.8424
42.6641 47.0057 55.6719
38.2793 64.4595 118.292
86.1093 87.4518 66.3033
39.5767 53.3101 120.382
84.3137 74.821 79.023
70.3381 54.153 56.2671
82.4122 86.1415 87.3619
75.1865 75.8036 71.0521
44.0698 103.999 66.8492
40.3359 77.1316 110.965
81.323 82.3363 94.336
75.7393 105.057 86.2934
79.1321 80.5116 84.911
71.9866 90.7928 59.8924
44.1367 105.679 72.0242
62.8124 103.738 56.565
48.3469 56.3704 36.5564
78.2496 71.0402 64.4754
68.988 88.9149 76.593
61.1929 63.071 120.13
66.3691 51.4339 68.3368
26.828 61.2834 64.0925
76.6874 62.9207 63.688
32.5642 56.389 102.923
70.6164 82.8881 106.58
73.351 46.2406 86.9251
45.8019 90.8611 53.111
71.9446 95.8587 51.7995
63.312 81.2407 44.4642
72.0858 44.7607 77.6246
74.6707 58.2116 73.7004
73.4516 56.915 67.1669
71.2488 47.8946 92.894
76.5957 76.4082 59.708
12.0956 32.4652 115.494
43.9564 96.9724 57.019
66.9775 49.2789 85.9747
68.9307 59.4067 110.199
54.1288 71.0844 106.888
71.2346 41.7421 97.9485
72.8919 63.8721 84.3079
83.9488 77.6162 62.9622
38.0614 58.3579 95.7383
33.8658 62.9418 122.287
64.8733 56.2985 121.998
69.1107 98.3129 103.299
68.6011 120.203 94.3818
85.6663 75.709 69.5145
79.6718 62.9864 73.5022
50.8622 75.8548 111.275
51.9724 52.0496 61.1705
73.9329 72.7888 81.7624
43.5573 23.6152 95.9242
68.9784 65.5407 47.3628
77.4582 58.6728 81.7473
64.7888 38.2273 95.5498
46.8737 78.5586 121.232
70.9125 78.3337 116.251
35.2694 65.5663 110.881
72.5232 47.6445 65.0413
70.0585 109.489 63.7286
40.6856 44.5311 118.482
77.1361 76.7904 66.0032
52.6441 106.526 59.6518
42.3738 82.3285 114.943
79.1332 97.2284 78.8983
72.753 108.37 70.0805
70.8117 63.2913 64.7705
76.2541 96.9007 98.436
73.68 45.7416 71.8426
56.4941 122.147 92.8575
77.2324 80.4436 95.9202
44.3712 38.3944 63.1099
65.4862 36.2155 104.597
66.712 65.5746 41.5634
73.0342 75.2529 96.5949
74.5693 67.5233 84.3372
35.4288 83.8398 103.534
71.3658 69.2113 90.505
