ply
format ascii 1.0
comment Created by Open3D
element vertex 1145
property double x
property double y
property double z
end_header
56.9629 173.397 182.836
47.5336 107.993 150.22
42.7005 88.5381 176.208
53.0548 158.782 186.3
68.9395 160.408 164.336
33.9242 29.3796 59.8941
40.3456 49.962 112.592
55.4708 129.26 115.672
71.1382 171.107 158.965
36.1266 32.7859 218.07
45.7575 30.7332 187.178
49.3541 97.4839 168.575
84.8686 182.581 212.97
52.6945 93.7432 183.146
27.3323 69.8359 164.907
55.2214 121.341 184.818
64.5804 152.384 171.804
49.9459 68.7402 25.1975
58.5848 188.029 193.902
97.5213 180.376 215.421
59.5255 187.777 184.205
22.9674 37.4694 199.13
49.386 146.978 152.8
27.9463 54.3907 155.313
24.2746 58.7355 73.9211
21.3844 91.989 172.94
65.7729 133.624 74.4808
45.7196 77.5323 31.8616
24.2053 105.532 188.315
58.0502 119.395 193.709
25.1953 116.261 197.571
68.796 108.732 197.831
26.0325 107.423 169.729
80.2321 140.453 195.817
30.6099 95.5315 35.9445
38.4172 62.4503 71.7619
55.3881 118.903 145.851
56.4337 154.101 84.6596
50.616 166.04 182.487
49.0756 54.2137 72.0533
29.3644 114.341 179.749
56.8297 40.5936 207.475
50.9076 109.209 83.3678
27.2946 53.0744 164.18
53.4941 111.354 74.3402
46.3587 63.2485 75.6125
74.6861 164.619 151.648
61.0311 145.068 190.303
48.1259 73.7856 63.0765
45.9854 141.359 109.858
56.5952 71.1867 171.66
33.74 121.591 84.1463
34.6373 128.218 104.659
48.242 115.888 154.511
40.2053 51.4027 159.407
58.3602 117.327 115.156
53.9984 138.514 146.472
40.9695 69.1567 28.7847
31.6944 96.8595 193.777
52.5079 81.9289 28.7692
73.0614 49.7875 190.036
87.7145 173.205 161.939
60.7571 110.445 73.6823
64.9399 183.842 201.887
37.5052 138.022 166.791
82.7591 192.391 187.588
33.2594 108.122 184.236
70.9804 147.399 140.488
72.6599 110.03 172.364
33.1269 73.176 161.678
61.6297 102.161 90.069
38.0496 105.937 84.9069
27.3371 123.373 96.539
22.7084 46.2368 199.774
81.2029 135.278 202.962
30.6334 57.1089 170.09
79.2209 178.392 216.547
51.4223 52.0042 155.253
30.1026 67.1963 149.529
25.8946 130.806 90.9547
97.1915 155.339 145.453
40.2865 46.3753 202.066
32.1621 140.696 98.3662
81.0887 161.874 175.05
22.2223 178.359 228.512
81.8578 148.975 196.931
28.6597 98.736 162.234
85.82 113.65 185.423
106.267 176.416 212.85
42.4613 101.87 55.1806
47.1789 74.8835 168.169
55.8292 181.409 181.95
59.2767 122.759 109.853
48.5092 113.582 194.014
54.7097 168.861 189.001
36.0446 137.695 187.015
52.1902 139.124 197.334
51.1874 175.387 187.957
30.8351 107.889 162.602
40.2923 142.325 200.711
34.6045 129.965 196.995
55.1968 55.2696 170.927
45.5322 138.389 196.037
44.0209 77.2171 56.4203
72.7939 101.742 194.237
73.3291 153.918 156.323
31.9297 90.6286 167.596
106.672 182.789 216.422
49.7565 68.5522 67.585
72.5575 148.642 177.979
74.8887 175.414 204.501
59.9627 125.162 149.726
27.3787 96.0034 179.4
34.5997 52.2655 71.2447
66.8388 122.377 148.813
42.9002 113.878 84.5533
70.6185 195.104 193.755
66.6279 125.379 115.369
47.6816 112.066 185.589
56.7261 136.32 114.118
52.0912 149.908 194.663
72.1307 156.693 141.89
56.864 102.273 98.0108
57.3624 111.324 182.14
47.4173 90.9342 59.9934
64.0326 160.411 195.078
45.9075 136.987 189.025
23.7658 113.969 189.852
69.7089 125.247 105.644
29.3051 67.8191 177.727
24.434 60.6618 152.146
60.9837 156.642 165.228
37.76 56.2963 76.6468
41.7224 148.043 174.308
48.2462 69.0779 163.53
63.3216 154.74 188.206
61.9541 117.608 74.7539
62.5399 152.482 83.756
69.16 124.994 165.155
41.1018 124.936 155.496
115.543 147.788 212.885
53.685 139.498 188.633
69.141 119.071 98.2427
56.5437 131.342 147.253
50.7519 126.097 69.2273
81.2601 149.141 174.233
39.6786 89.0695 167.286
101.676 163.842 223.75
47.8417 102.543 81.5545
46.3329 136.93 69.3926
27.1901 82.4592 64.2203
36.9525 69.7516 154.791
42.0604 130.461 196.928
31.1833 32.4491 210.958
46.0028 88.1767 67.0222
37.3323 135.399 160.302
36.2978 140.988 180.442
68.6384 146.449 102.405
66.3779 96.4225 186.281
73.0939 124.859 141.162
55.5941 121.662 67.2667
53.5846 183.786 190.372
33.6385 65.1426 172.447
37.924 87.6633 187.151
48.3061 50.1225 61.4586
52.1326 159.629 177.463
45.8796 92.54 182.08
40.0129 54.4962 144.868
92.8243 162.299 222.139
106.383 158.869 217.071
49.9703 130.423 117.371
71.3703 167.318 168.806
32.1297 101.053 189.515
25.4079 60.24 164.849
68.0232 125.394 172.002
68.5257 164.881 203.522
38.4899 133.713 108.756
62.3624 127.863 104.885
80.1585 99.4832 190.813
85.2484 174.588 214.579
74.5281 189.158 174.47
27.6756 133.19 104.28
23.7567 84.4691 44.126
33.0002 41.6987 218.809
43.7801 155.802 172.033
79.43 151.233 157.863
91.2391 179.324 213.89
82.4125 138.906 126.363
46.1307 20.8716 194.534
39.6842 34.8779 48.2037
53.4364 149.281 73.0086
54.1209 39.364 48.2626
43.5663 100.216 42.1012
83.7368 132.314 194.06
62.6536 147.866 99.9752
29.2184 107.7 188.904
37.9984 98.9647 41.2735
48.3977 118.578 145.634
34.0034 43.5626 47.5223
28.1664 106.134 179.458
52.4678 58.2642 151.862
93.3287 190.919 194.451
44.1127 140.183 164.154
53.0953 165.455 173.412
41.3128 56.8011 38.3841
41.162 140.624 185.83
28.3478 117.163 102.44
63.1085 110.339 108.834
63.5045 151.57 152.135
56.8751 182.193 197.052
113.74 150.426 203.643
64.9963 40.7619 38.8442
95.2768 149.082 148.918
74.1529 169.649 185.481
89.6638 188.885 213.661
79.3242 119.838 152.161
52.6761 160.029 194.286
31.8355 135.12 94.8839
54.5917 49.0728 65.6642
26.6139 97.9157 170.404
31.2199 61.2094 154.126
38.3238 103.439 200.304
47.9594 123.458 200.135
35.4861 131.43 79.8573
46.4709 157.743 188.567
31.6563 125.127 201.148
24.8064 97.3696 195.695
56.2717 75.8892 33.2238
35.2032 126.657 185.91
46.5745 54.7838 37.3021
52.3484 118.131 202.179
76.9795 187.377 208.398
27.5182 75.1751 68.713
29.2495 35.209 194.936
51.8987 80.6153 70.5385
53.7839 106.078 192.076
95.5021 185.502 212.951
27.992 27.1525 196.734
44.8402 102.295 163.628
38.9565 147.473 91.9514
46.0754 64.2515 181.966
37.7596 70.1504 55.0321
42.1282 150.65 183.321
58.7781 153.97 183.61
60.7014 119.889 154.31
30.5427 115.851 204.352
39.0136 143.798 101.849
39.6488 97.4223 171.71
65.2851 152.8 180.482
41.0572 56.8858 177.058
40.0618 76.6925 34.2563
73.6163 109.308 157.449
32.6778 140.215 87.7275
64.2417 100.274 194.001
100.768 191.57 195.434
45.3795 27.4012 215.021
97.0567 156.521 203.762
41.435 132.419 158.062
46.9153 131.306 151.477
69.9248 48.8775 41.3787
51.1873 153.195 81.3903
85.9467 109.208 155.778
35.177 100.626 60.5221
50.5992 22.241 189.532
50.1964 40.897 56.971
44.3586 49.457 151.178
62.5502 117.519 93.3964
48.2709 35.1309 55.5179
39.7944 55.6026 204.041
83.3361 147.784 143.928
46.1943 22.6225 202.675
49.4886 147.284 182.972
37.4654 81.3275 63.3824
50.7258 108.133 176.592
46.3121 132.441 158.81
26.4524 131.096 186.547
54.6992 167.063 196.304
54.8821 123.682 151.797
76.7922 157.306 164.151
42.0453 54.9616 168.561
25.8697 65.8547 159.708
61.327 139.589 70.555
35.5193 101.742 54.7352
67.24 152.327 88.3751
49.8196 26.6288 208.603
40.9704 116.929 201.397
106.117 169.548 219.884
39.6128 111.116 154.433
51.0853 37.5027 64.5909
29.0041 51.8515 75.9954
45.379 96.7882 62.4737
74.0642 137.627 90.4402
93.2858 107.8 207.519
58.2022 134.182 96.4135
106.099 181.072 207.275
61.6064 57.2284 52.8288
29.4681 56.8293 209.853
29.9909 32.4903 188.528
29.7081 95.5109 64.7469
44.3391 146.419 83.0699
46.878 150.274 78.7147
56.3964 135.972 154.355
55.794 47.921 49.3952
103.421 176.424 178.703
58.8682 177.609 175.211
61.877 104.92 187.988
63.9769 195.786 188.81
30.7325 44.5285 198.561
61.4839 162.456 186.94
101.122 150.092 151.95
49.5864 125.888 150.14
37.0731 68.4704 41.3189
109.349 166.418 176.694
71.9062 181.906 202.793
37.9903 110.351 95.9848
75.696 197.162 205.297
114.016 181.919 206.908
36.2523 110.912 189.06
75.792 149.318 143.844
85.6577 194.693 200.058
58.6071 62.3421 161.684
55.5703 173.088 172.931
54.8034 91.4888 175.163
58.9791 132.187 195.059
25.2823 94.1145 41.7129
39.0317 143.564 169.918
37.6811 67.1671 142.796
53.6101 152.053 158.062
50.1103 63.4327 32.6806
32.2978 133.491 87.3962
42.0828 115.406 74.6975
51.1784 40.5179 218.331
105.447 157.182 196.368
98.8776 145.739 162.73
46.7389 148.319 91.5698
43.3704 70.03 39.5501
60.4989 133.621 180.885
69.1089 140.479 175.234
34.5455 93.8038 68.6073
49.2848 50.8225 206.269
30.2598 122.009 182.119
80.4301 171.622 190.567
70.7083 101.956 160.912
78.2106 173.777 197.224
27.4424 42.7399 50.6286
105.723 166.742 167.175
69.7222 174.684 185.398
36.0476 22.0934 190.333
34.1885 33.3405 54.6217
44.763 120.191 119.239
51.7345 84.5423 48.2722
70.9768 162.228 157.225
62.6519 113.325 85.8333
25.4144 59.5728 174.867
102.207 171.928 163.428
39.4551 82.189 29.4601
74.2299 134.109 145.293
81.1464 140.391 148.387
38.7271 114.298 182.621
35.1039 49.0815 222.55
37.8657 71.797 36.0475
44.5459 125.871 111.146
57.0312 99.2845 105.543
56.6527 145.925 174.202
39.7353 22.1325 204.248
46.7378 68.6861 34.3065
62.5206 155.037 159.708
48.6504 88.9729 36.6677
27.8432 126.657 83.2852
48.647 28.7415 197.244
24.0899 45.999 60.8951
84.1898 150.251 126.667
63.4656 190.195 200.169
66.4697 118.785 112.319
31.491 71.5802 72.0059
65.1256 104.391 99.8465
28.9635 81.8763 37.6592
43.4925 102.827 89.8516
39.7202 35.788 188.345
40.9465 54.4779 150.506
43.1032 39.8168 46.5033
58.18 57.31 38.8412
71.5993 59.3936 4.561
98.0952 104.88 195.692
62.7948 144.638 177.768
43.2863 51.2995 44.2569
42.8643 117.826 106.749
65.1997 112.202 103.143
63.1277 147.928 146.514
61.7529 54.3886 45.6468
41.0494 124.533 189.521
99.2707 122.484 189.118
41.9024 100.455 61.4974
79.5135 192.595 201.964
100.593 153.473 223.519
92.3437 168.227 153.742
98.1206 165.189 217.947
33.4668 56.2589 215.929
69.1564 194.112 201.235
65.9594 194.091 181.874
88.8355 149.408 191.103
35.2355 56.9955 176.61
36.2538 119.76 116.637
44.0239 63.621 42.5903
63.2734 162.275 149.956
41.8403 148.837 163.873
112.51 172.03 217.625
75.3633 127.41 156.141
85.1454 160.489 153.651
73.325 173.502 173.185
28.226 69.9878 41.2329
49.8613 101.221 187.573
38.8988 26.3068 187.145
41.1219 135.225 115.092
45.9232 149.866 193.588
90.2832 169.257 211.759
37.8393 94.9594 36.6239
72.9091 118.247 149.364
83.894 45.7833 192.737
44.3383 142.25 158.217
57.5158 114.159 165.389
30.5744 88.9902 38.4343
91.8395 107.742 189.723
94.3219 159.582 152.533
30.275 53.699 56.1632
33.919 96.5296 176.7
80.5675 189.196 217.831
36.7397 117.156 99.3391
40.335 65.0794 177.972
24.7406 53.2154 68.8582
85.0536 165.284 157.123
36.9985 62.9402 148.25
117.312 167.023 213.294
36.1645 117.854 185.884
56.4599 118.112 78.5391
39.6384 119.095 87.8881
56.5147 142.655 70.6107
99.026 186.535 220.393
48.1716 147.731 174.376
118.032 171.225 203.172
50.2216 99.32 43.4599
42.3581 74.9727 173.864
101.419 170.337 215.344
33.6732 56.7159 146.441
29.6945 124.334 187.479
60.413 142.979 145.656
60.3601 114.216 149.712
59.3628 153.726 95.9322
31.9725 58.5452 62.1698
43.9663 24.3974 187.594
68.1854 117.058 81.7513
25.3334 64.3254 169.24
51.002 135.931 154.284
76.2727 156.814 172.767
51.7064 62.1215 39.2421
88.695 153.741 185.692
64.343 138.428 189.842
40.7077 99.4902 101.079
26.8391 59.397 56.7365
50.4791 97.4403 57.2804
69.6553 141.223 138.825
45.3237 123.789 186.661
45.5765 101.668 180.289
42.2269 33.3938 58.6135
66.158 87.1632 47.1601
116.455 133.073 188.116
100.485 157.333 216.179
44.7614 92.0263 168.835
80.3331 158.357 146.421
76.7375 194.356 192.271
73.071 153.871 184.995
32.7204 117.621 154.951
62.7125 124.591 69.5606
51.2659 128.709 185.307
92.2974 130.873 219.117
84.5668 187.25 175.871
78.3492 113.118 201.193
64.4864 112.449 96.4783
65.0795 119.584 168.924
25.3292 48.63 53.7184
38.6438 136.9 79.8333
57.4453 134.169 186.561
71.8224 140.248 151.98
101.517 187.183 211.696
48.9057 69.5567 171.709
32.3119 65.7792 72.0404
55.7239 161.226 164.589
86.4666 162.586 217.645
52.8944 64.533 154.509
56.4118 148.652 187.945
31.9452 23.5933 193.763
40.1679 102.808 49.5064
28.6182 24.5686 202.691
83.2162 191.315 209.074
55.6391 99.4732 174.861
45.3907 49.5637 197.26
67.4516 131.811 104.493
68.8137 176.026 174.443
89.9167 196.624 196.365
26.8292 130.691 192.594
102.053 158.489 181.783
71.586 140.712 121.469
62.974 98.8914 178.573
43.6658 112.09 177.805
61.1227 115.04 190.01
62.195 161.534 171.335
101.495 127.727 216.938
64.6002 70.8755 44.6561
101.073 156.381 155.284
77.2794 182.139 171.205
62.4606 54.6269 60.346
72.6353 130.686 171.394
35.0376 87.7512 72.4253
38.4795 31.7301 66.6472
64.5729 183.62 176.566
30.1413 73.6406 56.0797
87.0731 119.781 207.76
118.319 129.33 211.256
69.6882 137.305 101.897
64.021 193.305 194.672
46.2746 138.894 78.4782
51.2581 50.4259 194.831
71.2504 191.942 206.958
39.0384 113.377 116.626
84.0369 190.892 181.046
40.8697 117.712 154.769
29.8608 110.487 93.8789
40.4943 98.4739 158.398
53.6641 55.9965 59.1615
98.9437 172.778 187.232
94.1363 148.488 202.306
82.7451 181.338 175.536
63.5867 106.56 154.096
55.7097 102.379 188.184
41.1345 93.865 65.9602
28.8532 99.0032 58.3771
84.8707 171.523 205.439
65.2231 68.0061 36.9668
67.6001 147.579 80.305
54.9682 142.707 95.0172
69.5778 167.606 191.792
36.7883 80.7459 35.9068
56.8749 88.501 48.3823
88.0347 160.435 202.978
30.0985 49.2263 66.0262
36.2745 142.842 92.285
78.98 151.101 167.257
50.466 100.896 52.9523
84.3389 135.02 141.856
70.1576 124.01 93.8881
52.8454 26.7308 199.735
34.1094 55.1509 203.918
31.4683 96.8905 48.9442
58.5364 162.746 180.056
81.689 143.185 140.111
49.6736 45.9093 201.104
31.6941 92.5068 187.758
51.1313 80.7199 35.1883
84.8258 113.553 207.147
114.583 141.726 189.564
54.5487 134.549 194.784
25.5067 87.7488 59.7755
58.3131 110.934 195.814
71.3805 125.394 152.955
60.7292 151.323 75.8349
78.0307 137.596 141.806
65.4132 175.16 179.519
46.862 145.375 195.402
81.2188 167.184 213.69
43.1221 120.625 206.549
56.039 127.401 190.03
76.9928 172.868 165.123
56.4863 107.236 152.711
82.2097 196.562 195.029
42.626 122.911 74.5834
70.6838 144.9 189.599
51.9575 139.159 115.716
35.9973 72.7844 64.3173
27.029 44.3336 211.345
41.4653 44.5378 45.0288
39.8367 88.2946 68.2948
60.4561 165.937 161.561
51.9725 95.033 103.537
47.469 66.4201 152.332
73.3871 178.776 210.941
32.3225 47.0151 165.53
57.7028 100.133 167.5
67.5071 157.556 156.303
79.1515 186.143 180.69
114.117 166.731 197.914
66.8862 177.543 209.462
90.4136 116.276 211.426
58.9505 69.8808 36.8306
55.1399 144.439 152.638
38.5073 104.06 105.102
56.4074 127.169 181.535
95.0379 192.321 201.584
60.0696 61.8746 44.8013
53.5013 131.11 65.8845
26.9788 60.1818 38.6436
70.5018 194.724 184.847
34.0302 115.138 109.947
80.727 153.455 204.55
99.7784 122.235 217.833
56.7472 176.347 198.533
51.2325 79.1284 58.6494
33.5488 36.9011 187.277
69.4198 128.447 177.598
104.932 182.587 183.118
46.5317 45.0706 43.5683
53.5168 156.42 171.484
88.3518 200.268 205.236
86.0067 154.213 207.194
103.316 138.488 223.139
22.7395 38.4621 61.9532
90.8201 163.291 195.137
63.1333 129.472 143.033
69.1317 187.344 209.656
73.5094 191.326 181.98
112.647 162.456 206.986
36.6629 51.7857 211.314
88.2982 178.632 181.561
26.9291 37.0864 208.049
43.7528 143.26 90.5082
54.7088 112.024 171.253
77.9501 102.287 167.19
56.8763 90.0381 54.5524
100.536 141.402 216.266
24.4885 74.542 46.7165
76.5741 195.821 198.591
49.512 60.0075 161.066
57.8523 132.386 79.7107
79.2826 132.862 144.898
56.2239 107.493 92.5009
45.7966 94.5223 106.332
33.5692 79.0826 54.7057
51.8439 151.482 95.8057
87.5573 163.662 207.867
76.8319 157.043 151.516
98.2151 110.828 212.065
26.0064 30.6334 205.85
72.4766 128.583 92.7219
94.0106 172.504 216.061
95.2834 157.05 183.293
53.7232 35.3671 197.703
47.2406 41.2823 50.9971
61.0862 108.753 81.4347
75.9586 196.334 186.941
51.9371 100.918 107.24
88.0082 144.921 217.33
57.0034 151.086 150.491
42.3867 77.6361 65.365
49.7269 113.511 113.328
29.35 84.5801 52.9239
69.3852 153.326 149.095
45.6844 103.132 105.842
40.4158 140.135 105.617
44.1681 95.8739 31.4133
69.0424 144.857 94.9551
23.3603 90.0659 54.7575
52.3679 56.2189 38.7526
63.1486 146.808 74.9011
33.2062 75.031 36.3683
36.5621 138.222 101.718
74.139 135.158 177.179
110.348 155.86 186.543
26.1578 93.4886 59.6609
90.3521 136.08 200.689
78.493 133.516 185.653
85.3148 157.448 213.501
42.7835 109.961 192.088
48.5474 147.147 164.889
84.841 113.162 195.299
90.3503 152.212 148.14
39.1437 42.1675 51.9555
69.5414 187.553 178.245
71.1233 113.511 152.378
45.7731 84.6591 72.005
67.3903 64.8097 55.2469
57.8654 151.069 156.726
25.3211 30.9434 200.077
93.9685 141.287 193.608
83.4848 154.995 150.54
35.7853 64.8665 55.7211
51.9324 142.66 105.232
63.521 82.0103 35.3323
53.2037 91.7648 59.8185
108.988 164.549 213.834
27.3237 52.0862 199.149
29.6868 48.8232 212.476
100.575 106.112 208.149
80.2577 159.904 153.652
33.0889 71.3454 48.7252
58.182 83.9741 57.6278
112.427 153.136 217.123
65.1793 74.1595 38.7857
43.0121 94.8173 187.005
48.1335 66.2123 44.841
56.4125 152.156 99.7176
48.07 116.901 181.124
40.7849 79.3423 189.075
50.7992 124.216 192.16
44.3912 134.748 109.909
27.2602 89.403 46.7766
72.9899 179.973 178.026
44.3184 54.1453 202.835
51.7809 132.083 77.5821
49.312 60.31 62.2325
56.2769 64.4392 65.8019
105.865 153.141 219.934
37.7577 49.4569 196.364
51.17 102.385 157.275
51.6393 130.09 195.64
90.5053 120.411 197.702
45.9121 100.744 155.875
86.8061 138.339 214.683
51.0893 103.945 170.911
92.3321 170.211 164.214
52.1822 55.107 52.877
39.2906 56.7472 62.3053
33.6097 39.4246 55.7722
58.587 121.229 200.923
66.7524 140.573 113.227
40.039 46.8342 188.516
72.9889 142.064 102.709
108.834 173.853 178.37
40.3315 97.43 178.999
26.6873 54.7464 49.3806
72.2998 132.03 104.434
93.5518 168.085 198.798
45.2114 144.553 76.2676
36.7734 95.2806 62.3229
41.7393 69.156 168.771
81.3901 123.614 200.949
45.9663 96.4654 95.0536
80.4236 131.988 164.334
69.1874 172.004 205.472
100.387 147.598 172.105
68.2344 136.191 147.182
36.4537 89.8606 34.0163
81.7766 175.374 168.604
34.5541 46.4263 153.119
88.5513 175.695 168.758
89.112 156.105 152.952
27.4406 41.313 60.7516
60.0211 154.799 90.4978
68.9683 71.7198 54.4554
24.7287 64.7172 48.3124
32.4279 27.6445 191.384
25.8486 80.7346 58.9703
78.203 191.742 184.279
27.3707 41.9432 192.395
54.8122 97.9927 88.0816
56.8105 124.726 72.599
45.6321 144.318 104.106
54.3607 107.92 116.351
76.2425 183.207 212.851
47.22 98.5898 99.1493
40.1802 44.3499 216.417
70.5308 161.486 186.417
29.5342 89.4 64.5968
41.6021 90.9952 30.6595
65.1764 165.748 174.522
79.9127 175.325 207.803
76.0871 96.5303 181.825
27.5639 79.98 47.1402
39.7325 101.063 186.606
83.7187 140.267 209.905
57.193 80.4071 65.4298
98.5486 166.753 181.304
40.8666 56.5025 213.071
43.7455 38.0366 53.286
33.8048 29.2675 200.225
26.5472 116.524 95.3977
45.3512 79.7061 71.9248
111.163 175.788 201.328
54.2134 33.3014 204.606
27.8822 49.3138 207.091
37.7132 47.8652 46.2046
60.8668 137.152 147.683
70.4974 137.039 76.926
50.0535 40.1121 194.542
56.4643 105.6 84.4512
36.7517 81.3672 69.6073
51.1662 44.8551 53.9952
58.9487 156.377 172.953
36.5514 59.6689 56.5183
31.5162 76.3904 43.5058
82.4965 149.096 184.355
95.835 151.461 218.051
101.122 145.274 147.984
29.0018 48.1957 49.496
39.0729 51.4401 40.9408
47.6886 112.029 75.2082
69.3917 67.2062 49.7116
92.0171 141.08 216.488
30.2332 63.4283 67.664
80.7833 141.677 184.108
40.1899 19.326 196.625
45.7976 101.977 191.987
37.4922 68.9715 171.712
97.2365 175.177 220.469
94.5082 156.944 215.681
97.712 137.275 219.406
99.5329 167.006 158.728
101.383 188.718 203.116
34.638 53.1674 169.09
25.9521 61.3623 44.5879
108.403 152.681 162.566
94.104 144.051 142.833
75.4131 141.517 144.716
30.5192 127.941 98.6555
25.9809 74.9955 51.9809
32.2814 85.3906 67.6094
49.3879 152.982 170.622
27.7658 70.7009 49.7525
28.4429 39.6342 214.071
74.6326 171.241 192.731
31.7538 44.7334 58.776
64.3511 98.0315 168.278
110.909 159.916 181.932
71.4295 126.225 83.8344
82.0999 153.09 145.175
46.1374 82.031 60.2978
113.889 182.386 194.192
53.8598 68.6452 33.8222
56.58 145.993 146.352
62.2223 104.964 161.322
87.9694 101.012 188.36
54.1556 117.147 179.226
94.1408 161.148 208.073
94.7356 151.059 210.3
55.9656 175.004 192.834
46.6125 87.3454 30.663
66.4485 113.142 164.216
49.3853 105.634 192.654
96.4 172.127 169.099
33.8228 26.3794 207.238
52.1054 141.973 71.9146
118.284 136.989 207.353
60.4838 86.1179 43.8974
66.3595 119.823 175.058
49.4034 152.136 103.344
106.871 147.883 218.43
43.1851 65.9627 151.161
84.9075 145.087 170.33
56.4462 132.892 71.3157
67.8548 141.965 77.387
80.3951 130.675 173.46
66.3232 127.437 148.434
49.2627 152.803 87.8997
29.8895 68.7067 63.8451
95.4824 150.262 192.156
87.2603 194.834 191.144
90.3479 167.835 220.728
40.2957 50.0958 220.405
32.2072 78.7005 183.767
49.4654 100.602 112.032
47.6154 106.844 117.235
66.3512 173.208 192.172
42.9787 62.4236 146.707
86.2512 162.736 186.457
90.985 172.703 186.969
47.7438 104.191 25.5794
92.7505 163.545 185.005
48.3392 51.3747 47.0426
65.4832 64.2539 61.5891
50.8785 155.297 163.379
70.2522 130.271 144.67
49.1062 128.87 73.8839
70.213 96.4206 173.571
24.6681 66.0269 53.3164
65.9769 186.841 181.866
50.5355 51.0894 38.2758
39.1922 58.781 44.5038
68.9431 131.289 97.2139
91.1013 119.969 216.12
61.9251 64.5265 66.1209
61.791 127.073 178.005
103.975 161.732 187.693
42.8094 124.28 116.092
68.4579 130.239 80.2761
28.4518 36.6546 56.2852
49.2749 140.039 157.842
52.3884 95.3921 48.209
61.6487 76.6618 33.8735
45.2184 41.8577 195.059
32.2259 65.4322 44.4595
35.6637 85.7983 29.6742
43.7129 50.8932 213.739
60.4011 69.8689 65.1192
44.1238 63.0545 163.017
109.051 170.823 170.486
103.046 152.376 186.237
55.0036 111.146 159.604
91.0125 109.433 196.101
79.8488 125.905 147.004
78.879 184.479 175.386
26.9544 126.112 197.697
95.0331 189.697 208.186
65.3751 140.728 84.5991
101.411 184.526 194.276
52.0092 143.54 191.945
91.8924 101.869 197.41
36.7586 49.4867 54.0678
50.7165 145.49 98.5952
106.27 187.76 207.504
41.0283 22.265 192.353
99.2617 142.932 175.292
57.5322 146.778 105.013
61.1253 133.681 108.073
104.29 139.809 159.883
94.918 135.706 211.368
118.615 163.371 202.509
34.223 136.581 201.339
46.4414 123.109 70.594
64.5235 172.433 172.23
79.7636 168.882 161.941
87.2083 155.191 146.698
52.5047 80.8632 52.6952
65.6627 122.481 79.671
66.6238 69.8934 60.0428
90.8995 129.611 203.767
64.4104 167.783 166.113
74.4161 142.26 84.2878
64.9091 118.832 101.669
101.867 114.006 214.487
43.4929 71.7346 66.5164
35.8648 102.839 163.553
39.4984 103.618 157.426
77.6033 140.56 174.261
65.3907 133.791 143.135
87.4941 172.74 177.702
35.0807 40.8152 190.79
95.604 114.669 215.223
69.7602 147.322 86.5208
60.4023 172.465 194.133
33.587 53.5176 47.0585
83.7824 126.19 151.195
39.2621 140.767 83.2677
36.311 30.9096 190.69
119.132 154.709 193.309
80.4969 163.312 181.896
103.984 134.5 216.151
62.325 79.493 42.2699
110.729 181.329 179.581
84.276 169.639 195.927
53.3482 86.8117 41.3164
33.4208 48.0223 204.639
94.341 124.213 218.43
86.3398 146.483 210.606
49.4521 94.2369 41.8867
25.5757 51.1993 59.3722
61.4725 74.7391 67.5186
45.0685 98.4108 35.7759
30.9587 69.237 157.045
95.4937 141.352 147.653
99.9707 133.597 165.394
109.653 143.816 219.757
46.8644 100.569 47.865
49.1627 48.98 212.519
65.1024 139.204 151.637
59.6179 137.053 76.8574
86.7007 147.077 203.828
94.3575 146.033 209.429
34.9008 22.9643 200.53
51.4936 86.0701 63.2905
97.0914 155.236 191.732
47.4005 145.401 70.4275
73.9888 129.912 148.702
75.2007 104.58 178.795
64.8572 175.994 198.211
23.777 69.2314 57.6012
45.9668 37.3001 190.617
30.9697 38.8475 47.0278
70.8732 104.157 168.003
113.26 136.114 180.527
40.6228 41.4695 190.29
33.646 61.9842 39.183
62.8567 166.481 192.055
63.3921 104.742 167.582
51.9022 108.024 165.409
108.289 159.39 159.717
66.8398 80.933 44.4313
77.5936 126.357 196.946
108.961 121.169 217.947
61.4298 62.501 56.2736
32.4421 50.6556 153.652
68.6442 111.068 86.0394
49.0929 60.9843 67.2381
59.0303 83.8689 33.2162
31.7737 57.9953 45.9551
33.593 125.17 91.7276
108 138.687 217.101
115.165 179.23 185.279
65.4261 179.074 204.857
49.9021 40.1201 203.855
54.7982 143.085 110.905
86.1813 107.176 208.55
120.478 177.6 192.418
65.6396 80.9339 50.2129
29.0363 132.281 196.842
26.0613 105.736 196.273
64.5981 169.249 199.667
76.2048 148.332 149.794
41.4954 61.8353 59.0858
28.6025 56.4349 65.0341
90.5691 130.418 211.884
62.5986 127.176 84.6844
57.8611 121.369 177.881
39.211 73.4669 68.484
45.5139 44.935 218.253
83.5696 103.742 201.768
26.8612 35.0123 66.0256
45.8768 114.099 198.912
47.6758 110.129 158.029
113.258 153.989 209.44
71.8386 173.957 196.656
106.436 183.34 190.622
83.1291 166.965 177.262
41.9357 107.828 108.272
30.0822 35.4136 61.426
33.6888 59.3307 50.8361
75.4356 167.641 158.904
67.3447 101.458 42.2752
102.481 165.005 177.624
66.9677 61.8672 47.6663
66.5439 117.802 151.392
114.576 137.807 217.418
94.251 127.862 164.369
53.1031 137.673 72.8003
66.7063 149.385 93.6607
61.4901 86.2313 53.3056
40.0123 100.686 166.796
116.278 141.726 211.734
91.5079 137.861 141.946
71.5154 140.444 96.5535
89.5651 123.775 190.608
106.467 151.55 154.491
25.0642 117.97 181.966
110.821 133.295 212.774
90.4436 131.566 187.383
43.1667 66.5854 68.7461
97.9562 130.436 177.952
61.8949 79.0132 54.6894
34.9485 32.8478 48.1202
90.2574 147.598 143.528
86.7911 140.303 142.581
47.5928 60.7722 147.625
105.001 107.343 204.007
56.2753 71.4592 69.2216
119.234 162.73 190.648
48.8024 83.9022 55.4603
103.528 151.1 159.988
55.264 115.209 155.414
44.5869 23.2834 43.7093
55.541 104.651 159.444
54.5262 75.5325 67.441
105.621 157.877 172.53
60.4939 141.424 78.2478
72.3505 49.3925 54.1416
71.6104 99.505 184.911
96.4694 183.706 187.439
61.3091 85.25 38.5921
54.213 52.1848 44.7798
113.005 128.341 216.521
96.5141 142.022 210.868
102.524 120.036 214.164
90.0839 181.733 186.605
89.9777 127.474 175.564
104.914 130.319 189.543
79.6942 130.95 151.148
89.0795 129.885 146.043
74.0026 100.155 172.361
108.528 130.954 218.927
81.1499 175.061 175.664
114.113 158.928 171.628
92.4588 188.999 183.966
37.2194 44.3488 208.014
86.78 181.997 178.296
78.6455 102.587 198.338
49.2111 58.805 177.294
110.855 181.91 187.757
68.7659 75.4293 46.504
97.1548 176.276 181.941
105.221 187.381 200.119
52.0833 99.7112 160.989
63.5901 74.0045 62.3714
72.379 137.653 81.7032
43.2651 152.126 93.5772
105.297 127.481 221.124
100.73 190.083 188.584
99.8219 146.927 220.36
112.395 119.404 203.861
110.412 145.25 199.509
31.083 50.1361 60.9255
96.5053 127.526 155.445
33.0671 55.0297 38.9505
122.902 168.325 196.239
108.358 117.952 214.102
94.7416 184.567 178.823
94.3983 175.767 173.647
36.9059 92.3325 180.581
61.545 60.2423 63.3605
85.6075 123.935 215.209
75.8396 172.976 211.85
110.239 158.841 170.823
109.816 147.604 159.593
92.7834 104.046 203.342
34.8281 41.104 203.313
81.2818 104.944 160.164
102.338 131.568 172.483
94.1027 125.575 210.521
113.868 171.444 209.16
118.204 121.265 207.398
63.6604 112.234 157.255
49.7046 91.7283 52.8897
47.3335 159.293 165.081
111.838 158.711 215.792
75.2457 166.219 146.296
67.8882 131.448 86.645
30.0705 73.2912 61.8182
111.214 125.187 210.659
80.122 169.446 203.194
97.9613 131.904 188.277
90.6282 134.474 206.715
64.5617 79.0538 59.3095
80.3329 121.967 206.435
50.9156 117.643 190.301
62.1254 111.954 174.79
94.3442 120.62 170.359
94.3454 141.787 154.212
118.258 142.35 201.663
106.546 118.612 206.188
88.7861 120.051 147.171
109.333 148.353 185.404
81.6454 48.8409 199.393
84.1981 121.905 155.397
73.9138 183.445 207.24
32.7201 47.9198 40.7136
109.717 169.599 207.438
91.2739 129.993 156.412
52.0067 101.828 180.09
87.6267 108.906 201.681
79.3587 104.703 173.631
