ply
format ascii 1.0
comment Created by Open3D
element vertex 547
property double x
property double y
property double z
end_header
89.467 20.0141 225.411
111.332 107.983 114.235
61.7902 111.571 62.2477
40.5135 48.6129 82.4521
31.3786 132.401 220.442
60.0353 30.7789 262.145
43.165 40.1597 100.352
64.7681 120.388 39.5405
83.2307 17.3034 258.811
32.5974 136.216 236.39
35.012 74.9281 97.2544
73.0774 57.4599 110.835
57.6363 83.2884 238.366
68.3022 45.1855 266.024
59.6701 104.638 48.3628
92.718 32.6873 210.111
93.0192 60.4635 218.087
55.7123 96.5635 254.465
99.5811 127.97 67.621
39.3828 52.0373 118.16
61.4291 50.859 115.24
57.0582 90.0617 247.584
29.0123 106.834 217.502
51.786 53.0167 107.933
72.0484 121.94 78.5682
31.9144 103.838 210.644
31.7661 89.4732 194.229
67.8267 36.484 266.071
73.7616 121.807 42.3756
55.0005 38.4639 106.075
38.4547 73.3249 115.731
28.2392 47.6556 92.0405
60.3302 48.6143 226.732
36.6937 37.1124 102.882
29.8504 42.8455 99.6271
66.1492 75.2273 218.016
69.114 58.9312 218.726
91.4986 118.288 117.796
92.3249 126.54 59.3884
75.6098 104.112 92.6983
76.2685 111.767 210.631
35.4467 139.386 221.218
85.064 116.079 120.545
51.3698 36.5932 96.0088
104.512 100.063 125.343
37.1588 45.9646 114.32
72.2564 62.2561 229.916
86.1006 86.2823 51.1549
80.6633 64.9198 233.83
61.2714 40.2564 228.086
74.5722 108.621 203.063
94.0008 98.0689 125.22
115.015 118.59 109.08
96.9173 15.148 247.554
53.1415 36.0423 244.774
31.1075 64.5212 89.0753
65.4087 145.798 215.939
55.9466 79.4735 89.6588
30.7891 66.4877 83.4789
75.5356 92.2426 214.961
100.781 87.6353 126
71.3259 98.7151 194.615
63.5759 24.8261 244.834
120.762 92.6301 118.774
76.4706 31.6574 268.659
33.789 106.188 202.72
97.7534 122.082 72.8723
49.5683 79.7038 216.779
51.5199 37.2641 84.2629
78.7344 35.4095 243.445
64.5253 113.163 39.1469
108.017 43.5629 242.896
72.0206 81.7753 210.566
90.7803 29.2756 263.491
98.507 127.632 114.21
71.624 121.674 95.45
33.4922 67.9124 110.901
86.7266 12.484 242.46
57.9957 76.1315 227.285
59.7211 40.8316 99.5195
75.1379 63.8672 90.1044
27.1548 120.238 225.459
106.048 98.5994 52.9958
102.084 34.8946 261.199
83.5154 22.9717 264.444
60.0299 40.311 264.325
79.7893 131.062 78.8642
83.5116 18.6346 222.754
104.85 132.8 54.0437
99.9809 54.2528 254.86
79.8248 43.6618 239.992
87.5728 102.163 98.5283
98.8987 62.1427 231.7
74.6657 116.369 99.7368
32.0027 80.7053 178.073
41.1428 144.684 216.492
73.6636 125.349 208.78
78.9936 110.909 92.252
96.4857 109.145 122.105
28.3346 55.451 89.6144
98.8659 106.113 127.942
93.6891 62.9774 260.16
100.329 26.2795 254.833
84.1096 73.0687 244.211
64.1247 67.8016 73.3184
72.0102 124.046 236.098
49.2 148.473 219.401
98.9886 36.8329 217.272
68.9566 111.784 195.608
73.5618 122.944 51.133
90.1733 138.786 59.1593
97.7008 18.0206 227.48
99.0622 36.909 269.602
60.2655 131.042 282.744
65.8495 33.4424 227.302
59.2396 40.2767 88.3821
47.8446 136.679 199.293
78.449 60.823 259.034
39.217 70.8141 90.7265
40.6796 103.411 194.279
49.5093 37.1975 103.16
76.5321 124.771 106.946
55.4568 78.4417 105.866
81.1279 64.1037 215.156
78.8326 130.038 98.4943
72.1134 16.6692 232.106
52.9257 31.8617 248.843
44.4733 73.2583 70.3408
73.4891 114.039 233.48
56.9252 35.2321 91.9923
90.3545 17.0299 246.632
114.588 95.4476 50.2154
56.7187 39.1967 255.349
89.6472 18.7152 256.732
86.1744 125.424 55.1404
65.9939 105.51 41.144
59.3817 76.9544 79.584
27.0981 55.3329 104.148
89.7527 92.6702 128.42
103.076 56.1951 222.619
88.068 137.03 104.023
28.1583 132.851 231.735
125.827 112.686 91.4225
57.1944 40.3557 79.4555
100.875 42.7374 265.961
75.2385 14.6633 249.294
56.5056 78.4709 204.079
101.101 14.1307 241.045
64.6437 44.5013 104.072
67.0203 66.9079 79.9657
74.3796 21.8876 263.963
28.7262 118.878 216.919
103.995 25.152 225.202
85.7374 58.9446 208.924
40.5691 39.6903 112.781
45.6526 49.4565 115.046
58.2903 70.7652 219.166
71.124 47.1624 107.906
60.8828 105.284 253.609
81.6863 11.1375 236.038
72.6911 26.4735 232.84
89.8223 21.2016 218.239
90.7916 105.635 117.561
82.7147 24.2948 213.856
69.3049 84.3043 194.607
73.1207 108.659 109.574
82.2889 55.7112 227.492
62.2805 48.2662 239.709
46.0872 79.7482 226.667
85.7907 28.8995 267.012
77.6075 18.0705 257.033
90.7217 128.435 114.007
50.2471 81.762 112.47
96.0387 135.832 49.6099
88.1233 14.2688 222.188
66.7338 127.573 198.822
72.473 134.941 228.077
103.477 38.6716 254.146
102.628 94.0358 47.4886
105.061 116.15 56.8777
89.8736 26.9462 213.877
64.4133 60.1793 70.898
127.045 102.595 37.4924
56.1171 43.708 236.232
106.567 22.3175 242.097
60.7099 122.384 44.4367
106.226 30.8301 246.66
91.2379 109.645 87.2944
88.6172 52.5547 228.063
35.5102 69.8886 83.1157
72.6587 19.4309 256.254
88.4757 100.583 127.801
41.7217 139.868 206.818
62.4091 53.4634 254.592
65.9073 38.5922 220.281
65.2918 44.6675 80.0846
36.8525 137.032 209.654
79.6199 86.981 114.192
57.6642 31.9838 232.318
96.01 143.277 62.7833
66.3488 80.4747 99.7716
77.7358 41.3475 270.797
110.858 124.541 38.1962
85.8453 139.405 68.0255
82.504 26.5978 237.38
80.5206 100.293 99.0222
52.8934 75.0695 97.4105
57.5799 148.616 214.98
34.9302 40.4967 84.7405
86.3036 114.617 87.5402
57.4456 28.6367 238.392
60.7639 111.059 46.2185
31.909 93.6112 211.193
92.838 137.49 82.8315
46.2969 76.0307 112.052
82.2213 112.05 81.0506
46.699 64.74 100.679
47.6185 78.0018 91.2083
44.3188 113.723 190.506
80.815 24.8054 245.28
75.9965 70.0674 239.413
83.6209 129.132 108.019
82.5734 61.0967 223.728
49.055 41.5877 76.7758
41.6612 76.4803 96.2144
106.807 92.0772 29.6119
37.0789 53.3928 74.658
89.5875 59.3808 228.37
64.1366 122.595 252.555
37.3157 73.9544 78.4314
57.2382 80.4842 111.534
76.8836 102.962 108.937
94.6833 137.833 90.1375
44.5063 45.7633 119.142
93.2543 60.3492 254.241
33.8083 42.4574 91.7405
30.9722 49.622 111.612
75.7358 121.474 66.1525
71.0594 51.1622 258.113
53.8428 47.1408 96.7527
85.2894 29.4994 207.964
86.9188 121.831 64.3653
77.7005 18.8408 233.767
101.04 98.3736 33.4738
101.631 85.1733 44.1474
111.271 94.3632 114.176
41.272 34.4028 95.9824
35.4966 43.3221 106.417
85.7814 40.8148 261.255
67.8598 28.5128 250.61
79.3771 35.1916 275.335
95.4739 126.612 85.5473
64.0355 88.0261 238.625
60.3812 80.3534 95.9515
75.5628 18.3925 241.761
62.8637 80.1556 231.286
37.5116 67.5475 73.4704
104.715 119.641 33.9726
69.6532 63.2953 253.892
51.2712 85.9046 205.552
59.5206 59.5069 121.536
32.6876 109.51 253.217
67.5054 109.655 246.104
86.7922 138.074 79.5838
101.453 49.2582 217.197
99.5801 111.453 68.7279
46.8173 127.546 192.012
51.0426 43.5556 103.14
60.6316 67.8877 119.441
102.927 86.2485 33.3295
72.1388 75.2845 102.019
97.1221 50.7359 265.754
97.7686 116.758 59.2254
96.7108 113.905 90.8601
27.8743 120.414 248.105
87.7695 40.2765 274.109
73.4516 91.6152 199.33
66.792 29.3113 234.476
94.6503 127.978 97.0785
103.574 31.4741 219.52
77.8834 69.5043 247.648
44.474 85.5282 253.732
83.7678 133.592 102.092
83.4495 60.9402 243.093
66.9306 46.5967 85.8304
83.42 109.867 96.3516
102.545 20.6722 234.955
72.8434 71.8876 95.0706
71.5677 36.7079 272.53
91.6289 86.7004 122.87
92.3331 45.4416 209.222
87.4995 137.943 87.7608
74.4978 126.744 80.9266
89.7096 12.4072 231.786
85.2701 124.176 72.005
94.8339 104.294 74.5357
66.8093 18.6717 244.743
118.378 88.3487 67.2444
62.8993 120.969 193.647
35.4693 114.173 197.556
73.3512 115.634 109.102
59.9863 83.0382 102.06
42.5679 131.139 196.335
52.7147 115.276 260.312
84.5371 15.7384 250.708
91.5295 105.302 29.9871
59.2381 76.8795 73.2034
73.0353 22.0521 250.393
96.8102 89.5146 35.8674
65.7217 77.5961 91.278
100.149 80.998 116.995
54.6221 70.1422 108.645
70.9024 54.896 79.5171
48.5021 57.5573 122.194
92.2527 34.462 270.056
45.3358 80.4656 85.1623
63.2842 45.1397 219.144
84.7974 98.2731 120.597
116.541 108.297 101.588
27.8597 132.034 147.342
68.7224 138.875 232.279
94.0982 21.1895 260.377
39.4795 143.922 228.966
133.782 116.42 104.807
89.5301 116.035 58.9931
87.3749 34.821 270.723
66.6591 51.4016 262.249
30.6594 90.3936 217.992
71.1633 54.0459 87.1656
65.1627 53.5251 221.985
42.4556 65.3738 66.796
116.785 81.206 48.0549
81.7085 99.4109 112.629
88.2304 68.519 236.083
68.453 82.3828 226.768
72.1391 106.599 229.636
77.7701 27.6539 238.162
66.7688 73.1945 208.426
91.643 139.255 67.8431
88.9601 108.747 123.553
58.6117 114.371 189.726
100.584 77.2705 121.232
33.7947 51.0652 88.7893
92.471 56.0589 260.624
43.8233 37.7532 105.839
49.1408 145.754 209.334
75.1737 10.213 242.348
71.0578 17.9688 241.433
31.2609 53.0251 82.0632
49.3665 39.5423 112.458
93.8857 30.9495 216.643
57.2675 131.971 196.299
45.5418 107.113 262.483
72.1166 62.649 81.0261
99.2054 58.6688 242.262
96.4103 143.763 69.2275
48.3654 75.5419 238.861
116.796 83.3808 55.3944
79.671 105.556 35.556
52.2018 63.7181 121.227
96.6233 112.336 2.01113
61.7621 30.0261 229.008
84.6496 42.5187 204.505
80.8578 66.1456 251.007
83.2992 40.1535 271.554
121.721 109.83 32.5406
36.1539 136.457 245.55
83.4348 18.1276 241.271
79.2531 23.7914 217.213
65.8546 53.7595 82.2475
113.676 100.759 82.4235
108.042 38.2164 231.556
90.8086 132.127 90.745
108.622 116.599 83.6303
66.1616 71.3019 86.5159
92.1713 38.3669 212.1
37.0437 73.789 107.603
115.062 98.6079 65.9051
62.9505 143.163 235.796
105.337 117.585 45.6948
78.8598 39.5417 204.16
69.1483 109.58 36.827
34.7224 55.6857 78.6932
112.364 96.8825 124.197
123.104 104.963 109.804
84.294 60.1763 250.734
48.9348 94.0681 190.312
74.0595 51.1489 228.359
40.8472 41.4328 77.184
57.9802 52.8161 234.001
43.1299 79.414 76.4807
54.7634 73.638 68.6435
93.8294 109.644 69.7024
60.0245 91.7637 188.927
89.2714 126.202 81.6814
103.264 46.2468 254.052
69.1123 45.3786 207.011
86.4394 57.1038 253.537
66.8645 23.8294 257.641
79.1553 103.369 75.7154
35.2372 59.5292 72.4299
52.2455 63.6325 97.1227
72.4346 82.5471 221.115
72.1683 33.0609 262.246
85.7684 90.9736 118.958
52.3245 52.165 117.902
64.7221 54.4643 69.1516
52.7244 69.8149 116.704
40.419 90.0607 231.234
65.7359 112.498 50.0694
86.3227 58.6412 218.755
91.7254 47.5479 269.117
46.1112 120.639 260.114
68.4423 24.692 238.334
106.893 118.378 94.9693
61.1456 23.5579 253.403
63.7939 36.6359 259.27
78.6333 111.605 116.749
77.4504 47.3032 271.576
113.897 100.339 31.4585
65.4142 61.3385 88.9686
68.4731 66.4692 246.095
87.8343 41.0213 209.809
65.1002 27.723 260.391
88.0631 68.7749 251.801
69.0993 37.0798 210.168
69.2246 51.8089 223.165
95.8857 53.4612 218.464
90.6933 79.6805 121.42
99.771 120.91 114.93
57.6631 25.9474 249.218
44.46 47.5335 72.2069
53.7681 83.276 80.07
79.5832 31.8224 211.831
99.0392 46.8584 212.995
73.8619 107.619 38.3831
65.7726 114.077 249.91
76.1441 158.457 212.223
79.497 27.9114 226.772
66.7265 30.1942 222.385
81.747 124.014 57.5818
72.0037 25.43 244.912
84.231 92.7933 108.602
65.1342 20.5762 249.802
87.8428 61.5994 235.92
82.453 110.481 36.4005
37.4971 100.837 261.237
54.1935 139.652 201.879
38.8691 60.4058 88.4746
113.622 83.1859 118.158
92.6233 40.9537 271.535
56.6248 109.75 257.657
95.1344 57.543 232.99
104.296 108.058 60.9195
118.184 123.565 104.962
48.2538 47.3193 90.3882
59.5025 42.8399 106.399
106.419 42.8904 220.939
113.665 92.4099 57.3893
85.9461 52.6678 268.7
45.3664 38.6238 82.2505
100.265 20.1911 256.112
63.9737 46.5607 94.5005
125.415 96.242 108.964
99.2041 132.259 107.509
76.8446 21.9905 224.289
68.7235 20.3167 253.615
50.6339 132.821 252.5
78.942 124.751 52.5972
118.825 98.3558 42.4797
86.1256 56.3433 239.333
83.9434 83.9055 107.6
73.8857 101.132 70.1761
58.3536 89.8674 284.163
54.7006 40.5211 112.9
78.2102 99.5634 35.6966
76.534 92.4997 103.738
67.0582 75.5485 109.7
59.5958 64.3937 66.3271
44.8592 83.7602 105.154
50.1404 78.5218 79.3429
99.657 128.016 49.0005
108.031 130.417 101.223
106.17 95.6353 66.2702
98.5731 29.1825 262.664
51.9716 124.195 192.222
118.161 103.947 112.16
122.127 118.079 82.1358
90.8053 80.6583 107.668
120.845 84.151 117.034
47.8759 147.703 232.142
76.9188 50.3157 258.618
95.0604 91.3152 97.5604
43.5942 53.7983 67.188
89.3326 90.6174 103.427
35.2785 91.0388 232.208
96.5828 118.857 50.5593
28.8242 62.6284 102.174
76.4535 56.8815 96.9966
105.242 49.5686 232.974
107.961 97.3301 88.0776
82.5485 130.236 88.675
80.0351 87.1524 93.818
80.9177 12.4169 244.505
73.3279 28.0604 260.058
35.6366 125.217 198.233
74.2389 54.7883 101.479
86.3989 23.8743 255.947
90.2807 78.3225 115.301
49.5163 82.2231 102.227
59.8901 82.5652 192.106
73.3967 46.6617 268.976
123.407 108.118 98.9553
96.3327 17.3708 238.844
91.078 58.9462 245.176
74.016 92.9775 90.3269
116.444 98.0648 104.453
80.197 94.171 94.5438
47.9021 94.3657 259.234
113.203 91.6555 36.5153
94.1865 37.1799 266.357
100.895 124.191 96.2246
130.742 91.9518 55.93
32.1302 57.928 110.755
94.3437 128.36 50.0031
63.6471 134.784 243.35
87.6778 143.386 64.9997
95.6964 112.667 10.4442
123.42 86.1752 108.633
58.6518 52.2346 93.8816
91.4462 26.4675 219.15
112.166 117.732 99.9125
39.1932 80.0157 249.303
132.079 119.612 94.1906
74.5844 115.988 53.7355
89.9625 145.727 69.1861
45.9584 73.8869 95.4159
133.81 87.4931 70.5559
92.0677 76.5425 96.2765
53.4779 140.402 245.414
47.2761 140.477 246.177
41.2076 123.086 188.892
106.188 37.9828 242.232
115.756 28.386 233.933
38.4912 87.9602 256.684
67.9832 78.4042 143.91
98.0857 79.4624 53.3032
