ply
format ascii 1.0
comment Created by Open3D
element vertex 2020
property double x
property double y
property double z
end_header
22.0414 184.893 133.977
29.1065 112.464 122.164
77.9057 176.084 35.6684
54.6672 40.8715 117.231
57.0282 216.338 182.093
48.9537 123.203 171.75
53.9418 222.188 175.958
33.6206 204.444 183.382
45.6349 98.5496 61.7102
65.4608 72.3289 128.838
21.2539 143.348 176.096
73.2376 193.382 199.505
75.1041 203.188 156.763
73.2521 206.582 113.996
58.1701 118.331 119.811
56.9513 118.213 145.545
35.1188 107.576 192.063
54.2615 94.1402 155.668
40.7159 188.234 202.223
59.0076 229.063 112.139
24.1267 124.817 152.662
41.0856 148.014 33.3606
36.5471 156.654 39.5515
20.5914 133.925 73.1813
78.9261 195.279 41.6782
45.9568 146.741 146.881
56.7002 42.0624 160.418
31.7645 130.523 42.1939
28.843 145.917 60.1506
54.363 50.7555 162.189
26.9618 117.91 133.351
81.2145 229.966 102.341
52.1852 221.371 120.984
20.9574 135.522 186.984
41.9067 214.973 181.534
35.0467 56.1992 131.51
59.4185 179.066 216.345
73.7497 199.871 141.56
34.4081 117.228 88.1515
86.8048 149.213 156.26
43.7562 123.09 207.175
47.0566 145.422 31.797
92.1927 16.5869 128.483
29.0287 110.479 102.235
30.0938 164.077 142.001
36.4146 226.098 143.115
31.1869 133.503 139.278
26.0962 184.67 121.16
41.4795 130.709 35.9877
21.5945 134.288 59.6525
68.0379 77.6214 92.8629
85.3334 210.412 60.5078
27.1038 142.119 146.846
58.4908 201.389 196.824
66.1206 217.969 172.456
56.8697 228.817 163.25
29.0343 155.465 51.6759
36.9024 129.442 163.03
68.5098 120.743 207.142
62.3008 138.901 192.473
42.3401 159.954 218.898
63.8316 199.667 97.675
65.2595 111.316 41.8112
86.5404 192.836 43.226
41.7669 231.819 135.462
73.525 100.421 115.418
56.5662 92.3163 71.3589
64.4779 194.091 80.3733
58.6257 149.322 186.207
42.9172 140.648 31.1599
32.7964 109.076 89.8867
51.6768 90.6258 103.954
56.7772 98.9577 76.4782
19.4512 151.824 177.515
61.3333 219.445 113
39.4238 101.508 145.844
53.7709 233.398 149.282
97.2093 227.42 83.311
60.1356 36.0665 121.906
34.0482 119.457 105.602
64.1867 224.052 159.562
23.3442 124.448 67.5712
55.148 120.423 36.0412
26.4337 157.386 208.891
46.8777 153.232 33.8127
27.4578 193.612 173.03
37.4122 96.1939 104.677
86.781 21.2959 113.229
29.8607 173.012 205.213
48.4091 213.037 190.071
38.3714 204.697 190.003
35.8228 196.011 195.558
70.1203 32.6732 154.207
46.5392 78.8308 105.414
50.1813 86.232 118.503
47.7499 174.411 54.4141
48.1967 100.163 52.0106
104.37 205.682 85.211
80.9166 130.204 200.656
36.8873 200.017 108.454
47.742 35.604 148.969
29.1533 112.381 159.168
46.8958 205.441 97.2611
70.754 95.3151 68.1857
27.9348 138.941 79.6697
24.4537 126.083 189.789
54.3418 213.689 189.577
23.4982 135.824 99.975
23.5488 159.826 83.0202
65.9384 111.74 138.802
37.8524 178.491 109.124
36.2062 186.866 169.176
89.841 51.663 103.923
27.3657 147.187 206.691
35.5664 150.919 195.975
64.7207 125.337 33.4651
21.4902 136.797 178.842
70.6563 182.429 42.5713
68.9869 195.824 45.8712
26.4217 172.473 164.755
59.6101 113.656 131.801
51.8724 86.2175 174.404
24.2543 127.665 77.0694
32.3952 203.001 171.92
37.6634 213.215 116.708
64.6594 63.143 142.969
45.5435 200.344 198.564
50.8372 135.341 218.118
31.6605 140.757 137.949
53.2346 171.434 220.748
48.5218 90.1884 110.892
46.5884 216.451 180.472
71.9128 38.2342 116.887
87.8124 177.028 150.261
30.3672 199.599 176.334
56.7978 198.808 66.7099
33.3078 183.17 187.296
35.5902 83.7103 126.691
42.6282 134.657 209.66
97.8401 227.455 90.6189
35.6323 214.255 123.499
89.05 204.887 110.203
25.4514 144.808 116.346
88.4738 136.226 42.1227
31.4867 68.6054 140.002
23.2629 189.589 159.399
36.8088 124.337 168.12
25.9514 116.528 89.6753
26.009 133.652 110.542
48.4272 178.303 98.741
28.8363 138.09 51.0146
33.3721 197.351 189.835
62.7985 211.588 163.38
37.817 138.922 34.2025
79.7079 127.059 41.0479
27.0656 163.417 57.8713
31.0581 173.033 107.54
57.1002 120.993 126.649
55.8942 127.404 33.2199
55.0597 58.9355 157.267
57.1872 164.693 133.91
26.8889 131.479 47.7453
32.3091 148.217 209.786
32.265 109.64 109.717
49.8576 84.7534 126.105
31.388 203.843 118.734
57.278 226.819 170.162
53.1351 94.144 60.5271
51.6389 128.651 39.7628
84.498 135.891 159.842
36.6171 130.942 38.9703
40.1859 149.545 210.711
82.2433 194.574 187.547
58.9873 53.9115 99.9675
83.6823 140.542 202.081
57.2396 114.648 165.025
44.9502 93.5215 73.7297
21.2511 133.261 92.686
25.7629 125.439 180.347
39.0598 232.208 149.408
66.5773 112.259 50.5997
81.602 192.959 196.777
22.1064 147.622 58.0402
52.1463 195.783 68.8186
68.8375 57.5049 164.059
43.4192 92.9222 129.46
36.9443 159.165 218.635
63.2672 116.66 206.401
98.8302 158.304 83.2941
47.1083 159.381 218.541
58.5256 96.0798 56.7464
76.5372 103.113 155.382
39.7215 118.683 203.356
28.8478 108.56 169.989
59.5075 115.138 37.8487
30.7006 122.883 177.491
84.9322 196.136 126.604
55.8577 134.398 126.594
51.5814 150.272 208.619
48.4709 97.5638 172.564
42.788 217.775 173.888
38.166 192.953 105.656
27.0615 148.741 110.686
42.7534 219.657 117.818
38.011 104.333 184.286
48.8956 229.911 161.568
28.5037 154.46 114.749
84.0995 101.553 89.6197
68.0712 175.516 39.7869
73.0876 128.953 42.203
37.9177 98.0764 76.3885
57.8552 196.44 98.9307
30.7982 210.226 170.475
30.8535 86.0285 141.74
73.0888 53.4097 95.3755
41.0923 141.225 213.245
79.6629 210.355 111.243
42.3199 92.8264 85.9221
69.3577 99.7733 60.3015
46.6213 206.632 194.894
22.8215 130.555 182.227
60.1921 141.255 170.008
30.904 156.485 212.289
91.038 228.206 81.8401
27.413 166.32 85.6854
47.2937 93.2717 142.871
61.3167 116.794 95.6189
58.4122 113.559 138.976
31.158 152.022 88.0599
28.6604 173.451 119.181
53.5288 211.354 100.17
73.4428 95.5269 153.169
32.6386 220.38 141.799
60.6946 96.9097 66.9048
34.0037 115.246 97.1698
74.8381 190.775 42.2109
76.3798 217.055 63.4309
47.2944 133.961 31.2747
61.9905 218.263 176.915
33.3467 163.681 159.696
62.0389 36.2446 110.717
47.8064 221.439 173.135
41.2194 137.317 200.624
41.4295 180.034 176.664
25.5559 201.188 161.74
37.5748 221.783 127.321
68.4097 231.569 125.205
20.1292 195.282 141.881
54.5206 133.9 105.285
24.1137 126.911 160.478
71.4259 94.6249 105.175
73.0042 32.4819 105.134
61.5007 231.048 154.069
51.1638 217.314 183.494
23.4311 131.588 53.7099
73.7044 228.936 86.1532
45.8075 105.265 196.948
35.552 176.148 143.839
31.6593 158.96 118.856
28.833 165.298 205.872
93.5703 169.4 41.9943
27.9071 192.135 113.327
92.4506 225.133 95.97
25.5859 74.2182 159.88
48.6812 120.271 39.5503
26.9877 162.488 150.964
74.6803 38.9029 160.264
70.5345 227.72 92.9331
47.0133 232.494 139.083
56.7554 193.983 87.9811
20.9426 138.221 88.3782
50.7141 225.853 170.605
59.1646 80.6496 118.915
25.2456 167.301 196.653
24.8702 186.034 148.511
34.5293 133.867 191.496
40.8411 233.441 143.443
92.9014 42.3377 107.263
31.2905 85.8971 132.975
34.3297 212.19 175.936
23.3766 178.275 130.33
40.0107 116.472 196.555
65.0391 228.829 92.0361
47.4911 169.761 38.7947
85.9011 220.164 64.5889
60.9448 75.3078 114.256
30.8166 139.032 41.9077
58.1331 110.149 43.8414
41.4036 99.7903 117.214
34.6005 109.787 53.5813
65.4745 197.975 87.6014
42.5588 205.838 191.098
57.2666 72.2996 165.631
84.291 33.9366 102.011
49.1227 120.795 210.816
65.9937 222.552 82.8407
29.3978 73.1237 145.915
40.7573 109.909 193.61
43.055 112.538 47.4188
66.6038 231.913 99.5152
83.565 170.05 39.6938
29.8877 112.459 64.3136
62.6663 231.126 126.519
80.6393 120.78 131.575
42.0941 94.7514 123.196
46.2317 142.022 211.816
54.4262 232.644 156.894
71.0758 106.355 52.8224
33.6356 148.945 139.406
63.4733 89.6465 106.308
59.6795 226.073 95.8893
23.9093 126.69 98.0008
68.437 181.91 214.536
51.7168 126.193 165.769
89.4932 229.386 102.284
61.1539 24.6422 124.848
34.2227 111.151 61.0623
41.6352 42.3999 140.694
33.6687 119.603 117.894
74.8512 199.092 47.3266
25.1618 122.797 88.3906
44.8112 85.3482 169.747
31.7772 166.652 55.3084
42.749 97.9172 180.041
37.9608 226.931 152.752
79.4846 95.486 111.079
98.0102 183.77 48.2495
49.8525 136.093 39.8598
30.5231 161.3 132.992
59.6444 30.2223 155.707
34.9078 221.7 148.818
47.4575 127.028 212.919
35.9847 103.474 57.3903
81.1529 16.9927 117.294
21.4421 189.475 144.134
31.3019 122.042 49.1304
82.8904 181.164 190.367
60.4343 112.879 173.038
22.3931 145.922 190.373
22.2786 131.321 85.7646
115.163 182.193 79.0692
29.2996 118.004 193.777
78.8401 101.99 92.0515
86.0032 24.9988 107.875
42.2088 182.167 84.0998
37.4658 210.924 182.623
51.5702 60.0337 105.868
21.7725 137.259 171.425
65.1462 168.525 214.683
55.2939 207.446 192.57
47.4944 236.773 143.21
66.6426 37.9019 118.391
31.056 165.447 171.968
23.8383 207.097 141.059
83.3221 88.8553 85.678
75.5462 109.884 120.868
84.7613 60.0944 94.0186
56.2395 123.073 177.981
86.8181 133.063 154.263
56.9224 182.775 208.873
69.9954 27.2375 136.693
92.6904 105.238 93.503
80.6109 206.806 54.5194
32.902 194.577 108.527
62.2347 55.9185 160.89
33.8197 153.813 123.35
46.7999 88.9891 133.385
38.0818 101.889 132.688
30.7315 173.927 150.216
67.7094 55.895 97.2211
31.2603 109.822 117
54.1384 75.0969 137.446
45.2361 163.052 43.0644
21.7386 188.82 127.871
48.9615 193.032 203.057
56.3906 170.911 38.1063
30.9972 156.512 61.3232
66.5377 226.411 152.413
56.1151 119.122 106.894
31.8294 105.704 126.186
99.8185 185.552 104.41
39.5866 102.266 124.936
86.4008 228.589 77.7382
35.3651 107.461 145.658
71.6035 44.8495 101.707
22.2565 144.231 64.7619
21.7462 148.398 184.682
64.5165 32.5497 156.151
40.1129 151.4 39.2445
36.8665 137.342 203.593
29.2851 107.036 73.7095
29.2042 196.953 167.777
68.1619 111.19 129.773
25.7354 183.059 172.004
91.7189 29.0782 108.903
31.2358 120.208 123.587
34.2207 165.109 48.1869
46.2574 52.198 156.155
98.8581 225.491 76.4351
70.8381 199.37 52.3381
78.4375 175.298 49.9707
56.7707 189.453 210.055
51.1819 194.364 101.992
41.1147 96.0741 139.251
35.3297 128.262 124.637
73.5482 151.459 30.3649
26.4516 204.546 148.371
28.0684 207.264 163.309
65.803 131.017 127.038
26.2286 152.479 172.188
61.4955 56.6678 171.466
51.9481 52.6209 141.99
112.284 160.117 83.3326
31.8107 115.586 112.491
34.9836 117.297 193.645
81.9524 163.124 48.9157
64.0739 106.509 112.643
28.624 172.152 191.783
69.7319 88.3961 162.496
87.5694 188.895 55.4758
56.7606 115.053 207.436
76.2807 18.7169 115.746
68.3117 69.8415 104.659
28.8811 125.119 135.478
51.5088 201.636 196.677
52.2723 147.682 35.6499
36.7253 152.966 207.1
24.1048 156.115 202.553
57.3527 157.16 30.4851
29.8287 146.111 44.7413
34.8986 118.939 200.109
49.4808 174.669 106.172
30.7014 111.426 177.731
48.0728 172.346 219.406
41.1514 197.14 196.221
62.3268 165.661 34.8241
23.0704 153.988 104.558
66.8721 202.032 157.764
56.4399 141.412 215.534
32.3157 196.628 182.247
71.7969 168.756 205.328
38.869 168.843 212.475
49.0203 109.776 48.7115
65.1531 151.269 114.824
30.275 158.26 89.6515
28.0021 148.054 146.65
59.1786 142.408 97.2778
80.3175 44.6555 102.647
36.2523 172.347 203.586
73.2719 88.3966 142.215
58.0157 173.264 47.2066
26.8965 210.888 144.05
79.99 155.151 32.3092
66.1766 201.465 56.6858
35.7385 104.348 106.658
92.3013 226.152 73.9495
64.4135 118.572 36.0303
92.3686 39.441 116.45
28.9364 111.762 132.554
71.9842 107.344 98.3325
66.0374 230.641 145.827
36.0614 159.219 210.766
70.7352 165.2 30.0571
37.4749 93.2608 114.243
31.5604 134.862 127.671
54.1019 46.5412 111.744
35.4008 129.851 115.946
53.3479 181.375 71.1266
79.4995 215.046 150.473
43.3169 120.364 45.8793
80.7096 184.235 162.549
23.0658 154.878 59.0762
25.9599 150.213 47.7761
68.913 95.2031 79.5582
35.9985 170.277 52.9366
35.0732 105.047 138.35
42.1271 225.535 122.701
62.7404 196.574 198.572
43.8308 89.3364 123.049
57.2323 134.011 162.698
35.8674 108.825 152.599
78.2519 207.161 71.638
38.9363 105.428 52.3451
74.9332 54.5359 157.85
60.3153 113.522 101.771
25.367 64.8054 150.366
44.0714 122.521 36.1222
48.5135 180.424 215.485
85.8279 221.075 123.118
60.0229 110.442 121.893
26.6393 161.184 108.875
33.5684 175.076 186.547
36.6098 74.3256 114.689
43.7213 77.6297 180.793
67.4965 195.072 71.0749
51.4211 180.483 80.2629
71.8769 231.798 114.082
62.2609 191.872 70.3129
46.3468 229.669 127.541
60.7643 78.2771 97.5557
56.3648 112.521 157.964
76.7803 130.91 34.5978
58.5186 150.522 222.157
76.3157 192.748 147.864
95.1248 180.291 131.146
35.2294 147.961 35.8988
53.1821 178.209 216.065
34.4754 200.693 114.129
55.2726 214.853 107.364
105.218 210.555 70.2778
75.8574 108.076 133.239
93.8032 22.5272 118.6
69.411 196.121 78.9993
28.4535 178.48 125.05
29.4157 197.237 113.701
76.1824 35.5632 101.09
66.0063 138.272 216.645
46.64 129.183 38.4014
29.526 153.187 144.599
43.0113 211.173 186.703
36.0918 105.301 65.0594
94.9138 203.827 91.5473
81.81 133.735 36.0481
85.9588 145.58 48.0896
83.3983 156.946 141.4
37.588 104.555 161.51
57.6049 77.7754 177.201
22.2124 154.365 51.9036
36.8068 226.435 136.303
70.0504 91.4725 111.322
101.979 218.639 96.2028
69.8508 110.16 66.5066
76.5667 161.219 218.313
21.2094 140.409 100.865
75.064 225.996 79.0076
44.5564 235.44 152.559
60.1877 136.939 219.891
24.4156 178.091 164.522
22.0417 131.604 167.392
27.5101 166.176 64.7537
28.2633 131.588 67.7932
78.5196 230.287 83.2954
67.4547 134.905 151.897
65.4022 162.438 142.097
38.1576 215.58 175.024
99.8209 218.757 74.2107
67.3467 144.413 187.847
45.5955 59.2726 110.197
61.302 177.483 39.3424
71.8912 226.112 146.821
74.8569 222.834 129.755
41.8221 209.168 113.192
28.9765 121.479 75.8798
29.3069 122.589 129.004
24.0501 142.942 168.776
80.259 25.6193 108.469
39.6125 111.432 202.036
88.0529 230.617 95.3251
76.5822 167.369 215.11
24.2675 176.728 154.491
60.6277 130.704 31.0807
36.9118 206.055 117.226
63.1788 120.102 81.3653
48.4092 192.671 81.0052
33.7125 164.479 208.697
87.6644 230.437 87.0797
62.6319 175.432 47.953
46.6372 147.912 39.3876
46.4199 108.802 54.6068
35.9271 189.275 189.249
43.4013 45.394 134.806
42.2598 49.3753 139.826
68.6696 49.1977 100.086
64.4163 101.893 51.3891
74.7343 205.572 52.8206
34.3625 108.969 171.883
63.3898 107.655 47.8343
39.7678 97.8592 163.55
79.2307 218.985 122.512
31.0373 120.972 57.8841
31.5007 148.928 127.866
46.1047 98.4205 161.046
83.5394 140.554 154.534
53.0477 34.0038 144.869
29.9734 161.789 123.102
73.2676 113.43 92.7655
34.127 212.92 130.336
82.5332 51.1207 96.5235
24.2233 139.147 110.678
40.6636 186.708 177.899
92.7726 219.964 65.7588
30.6643 132.965 199.683
33.2571 105.872 180.029
29.3521 161.574 70.7743
106.069 146.999 71.6469
93.7075 158.545 47.6715
29.7147 128.458 74.5054
59.1828 146.929 35.0221
58.4015 198.817 203.232
75.7392 151.863 41.7404
83.5787 192.359 119.45
63.3239 222.859 171.528
95.3772 121.297 89.6099
27.9494 128.802 129.629
38.6022 112.969 46.9093
43.6967 176.693 209.908
38.9912 83.4418 115.394
100.454 216.009 66.4034
72.1236 224.662 153.303
23.8645 156.233 69.6505
90.091 24.2688 139.924
37.4025 179.275 202.809
65.4757 111.219 96.3099
37.6413 53.1141 147.04
76.7464 191.788 205.869
60.477 120.967 89.7513
52.8932 116.755 41.2702
51.9175 95.7397 72.2733
65.9159 232.967 140.263
62.3016 195.43 135.501
22.7429 175.06 146.86
96.3462 221.212 70.3924
56.3341 114.671 178.782
72.0847 19.2933 120.782
75.7083 138.787 117.014
30.3874 134.143 118.594
30.1545 153.804 165.74
64.1635 187.556 42.2981
74.8189 230.61 131.573
45.2789 49.7771 120.332
26.2982 201.59 120.249
58.6858 193.504 205.58
63.4765 130.92 216.796
85.4422 28.4447 146.443
40.7332 225.461 162.144
42.2263 152.431 218.704
32.5901 147.73 122.05
105.844 209.054 77.6788
57.5697 102.82 50.1979
41.0707 225.813 129.624
54.3717 119.838 135.667
22.6228 142.5 183.49
25.4425 190.599 120.578
75.4882 143.076 102.516
55.8496 220.648 99.9272
27.56 113.013 76.7585
43.1288 171.315 216.923
34.188 216.83 135.792
70.9107 60.4255 170.545
62.4142 190.702 210.781
27.0288 209.224 150.574
47.8351 51.4724 166.487
74.3401 149.52 117.563
76.1495 31.3291 153.442
101.176 188.566 56.6234
25.0644 161.132 195.344
49.3814 229.432 124.192
39.3785 97.9534 63.5645
80.4142 229.559 112.839
28.3667 164.86 188.308
44.2408 94.2996 106.621
41.9644 174.935 57.4527
55.8136 160.397 39.2771
27.1133 205.062 156.967
51.8837 60.3077 117.077
75.3969 227.715 95.7712
59.428 144.704 220.039
59.5295 133.566 147.911
66.1323 20.0423 122.903
25.3263 158.365 189.528
67.6965 104.065 118.248
30.4258 116.043 186.105
22.4537 200.944 147.478
69.1754 27.6257 113.681
89.5125 115.635 134.138
69.5208 131.864 215.116
42.0283 174.897 93.2384
28.2371 138.219 64.2992
82.8774 223.453 74.5731
38.0353 121.247 46.9404
64.269 77.5464 140.02
26.8179 166.948 100.794
60.2001 234.023 144.359
50.9196 90.6885 74.3408
25.9973 126.61 173.429
22.0344 201.025 140.513
34.8093 123.769 202.726
32.5087 213.214 142.535
55.5442 117.858 186.608
26.1698 169.703 159.786
76.7115 223.377 119.221
69.9968 144.473 204.273
27.95 114.183 180.911
54.7617 128.879 218.162
22.0022 137.567 66.8888
61.8462 77.7129 164.802
102.272 164.027 50.5442
32.9154 74.4577 163.637
76.0256 109.552 71.5344
39.7999 204.12 112.271
35.7743 185.804 195.366
54.3207 102.456 172.778
51.3002 45.3663 137.613
22.9049 199.832 132.348
44.9617 158.309 37.7785
82.4025 139.849 92.0532
29.4933 61.1797 139.368
60.2631 226.463 160.404
46.3422 56.0993 164.958
21.4616 141.625 94.4716
33.8376 115.682 75.5658
32.6454 161.532 113.062
74.5197 74.9741 93.7078
29.1373 159.075 179.679
41.8477 95.8521 111.402
61.5252 163.312 112.786
41.1378 102.958 59.264
46.2755 224.04 120.48
22.7043 155.548 96.6307
24.7236 158.756 63.9656
29.4949 125.805 150.095
43.6337 203.475 107.777
56.4794 181.956 53.5711
85.107 106.971 83.9455
82.5493 223.435 107.195
35.2832 179.913 194.175
59.9251 109.349 127.626
83.7132 72.8655 127.466
33.0419 171.732 195.876
80.5869 125.516 92.8657
77.7802 82.6786 100.267
22.9565 183.22 127.308
67.3566 232.315 108.307
26.2944 135.539 148.24
46.5686 103.141 73.6052
85.2226 205.692 54.3056
84.9238 122.847 85.9965
22.1605 152.284 191.449
77.7224 94.8072 93.6254
54.3309 147.6 214.118
36.4824 60.0214 121.908
53.298 107.611 48.044
64.9802 30.9017 149.943
60.2356 109.691 107.077
36.5036 62.7338 168.304
25.248 186.323 165.524
40.8387 99.2432 156.646
84.2313 30.3378 108.39
22.259 195.604 152.837
54.7912 64.2151 106.217
65.3482 96.4448 61.2873
71.243 209.945 181.281
83.6792 144.628 102.938
52.8139 208.863 93.5581
27.1705 145.986 153.013
66.7945 22.217 130.608
42.3902 232.105 156.62
30.9693 158.427 128.752
89.9141 122.524 87.6251
27.4636 144.086 72.0369
56.8446 128.73 129.158
65.0963 41.9896 160.326
31.1889 169.988 90.432
31.4642 151.728 151.51
71.8804 229.432 100.794
53.3504 40.3583 132.709
63.9966 114.007 88.8223
80.0762 138.738 170.087
71.2093 106.932 156.491
31.7757 171.49 180.589
41.8537 106.311 88.469
83.0468 128.674 52.0045
25.4033 138.271 158.165
58.064 230.012 125.626
82.3005 65.0737 146.546
56.5124 227.735 118.456
64.9111 107.64 103.171
31.8108 150.697 133.545
68.1075 24.3663 143.585
28.0987 154.787 135.963
34.184 142.653 210.514
90.1582 20.3351 135.028
88.6915 86.8326 92.1014
49.4842 114.606 44.7492
80.7739 77.0278 110.409
32.7417 214.3 156.572
32.9588 121.221 95.8459
56.9163 127.637 142.24
71.023 135.791 111.589
57.5026 132.397 156.178
29.0811 123.712 160.607
70.2352 27.7051 148.6
45.6038 225.307 166.017
48.6128 92.0032 97.022
31.0423 187.356 114.275
91.2101 172.708 136.962
37.8963 102.058 100.511
32.8688 121.176 146.476
54.8098 221.515 112.884
82.1384 216.223 145.02
38.6704 50.9643 152.791
34.1532 117.115 50.3874
66.1753 79.4342 121.119
69.3417 37.559 160.754
27.0145 128.793 105.193
35.9428 221.465 155.549
60.1967 230.475 133.527
60.3836 80.902 89.4843
91.3431 43.4893 143.624
24.2402 145.312 106.157
66.9974 106.679 58.3985
33.1844 165.761 125.314
67.8987 102.074 108.816
26.173 210.577 135.497
68.4982 192.396 209.443
78.4095 221.154 113.053
47.4916 72.5618 167.056
29.9835 116.345 139.981
22.0896 142.374 82.2306
29.5264 122.215 140.24
75.8295 132.883 211.032
27.3826 202.935 168.088
67.9345 115.228 198.763
77.8108 162.669 36.0319
30.0491 162.227 97.8072
33.3901 216.448 150.692
31.3171 138.824 151.694
73.8545 136.104 97.3317
33.2974 116.949 80.5862
28.266 178.254 189.316
81.6007 160.773 39.5404
23.1417 130.91 172.586
40.6227 95.3714 69.785
24.1111 163.902 90.0354
55.4602 129.338 120.778
22.5688 148.756 85.5264
29.2144 213.723 149.879
53.5239 165.72 218.834
51.8747 142.917 218.288
33.4309 140.7 128.984
100.997 183.509 125.156
90.8345 208.737 56.1699
80.6718 220.79 69.6617
25.2009 134.554 189.875
34.5267 69.2282 161.829
75.1126 114.832 77.9677
52.2378 66.8214 171.789
80.8863 109.813 78.0582
33.9612 175.051 171.226
50.4778 193.777 90.2737
35.5137 113.82 104.465
61.8714 93.0141 77.8242
23.8138 193.529 127.235
58.9903 205.197 190.398
57.9019 124.524 116.637
67.1403 177.861 199.478
39.7697 174.408 206.855
51.1824 208.06 195.336
65.8113 191.827 129.19
82.5179 230.014 86.7651
54.2446 29.5142 136.354
55.502 86.6847 111.617
25.6562 180.228 150.207
49.4236 140.141 31.1112
93.5459 38.3072 140.211
27.504 121.251 170.559
27.4772 161.116 165.027
92.2756 213.562 116.414
46.3458 76.0131 111.957
61.6825 83.7282 109.712
46.3864 90.7453 83.7111
77.7298 74.8147 119.984
52.696 103.472 52.0566
28.7676 150.438 78.3422
61.8769 110.661 116.244
32.1743 115.643 163.917
84.8492 140.52 35.3506
94.2091 187.781 50.3688
56.0812 116.519 198.057
39.0442 97.3514 87.6557
82.4499 126.187 136.779
70.7341 101.459 74.5991
53.2804 169.577 47.066
22.0709 195.091 134.786
76.1158 25.8685 140.611
80.514 158.08 215.834
91.4547 157.903 57.1927
22.1616 141.401 195.174
37.2339 99.0917 174.746
35.6782 108.493 74.1925
66.064 126.219 41.1519
40.1403 76.7954 162.129
63.4732 80.9354 102.426
80.4539 228.095 78.1624
55.1585 108.477 168.896
32.2209 170.818 113.785
67.683 87.657 97.5367
58.1923 66.6398 173.858
26.2296 117.339 101.106
79.1372 108.562 95.8304
99.6719 183.364 62.7684
45.5939 112.577 194.251
50.2215 43.3734 127.821
24.476 128.677 91.8694
60.9106 108.937 154.856
78.8945 21.0662 135.68
30.4968 172.38 136.779
42.0464 183.551 76.2685
27.824 166.188 156.117
80.8492 152.016 41.4343
66.7357 118.301 44.298
52.8328 160.473 221.143
69.413 118.181 145.474
37.6325 63.8521 161.112
36.1907 134.13 209.276
29.2472 167.235 129.591
53.1737 126.323 88.7334
72.0487 120.459 39.3934
49.7104 161.692 38.6472
54.7876 232.53 134.924
37.4272 101.165 70.688
33.3671 216.039 163.611
74.3152 173.698 117.756
30.5029 135.598 203.971
21.1048 193.372 148.396
28.3572 132.712 153.028
64.1375 96.0447 72.7274
35.2645 103.747 84.5591
47.4446 182.873 67.611
84.2844 104.573 99.8526
82.1101 197.616 47.6758
41.7153 176.645 66.1619
37.8933 126.713 44.4098
69.1138 55.2402 155.569
66.5151 213.563 183.123
25.6504 78.4985 138.17
25.2584 128.611 112.585
61.9692 172.432 34.5804
64.851 98.0625 158.743
99.3683 110.666 83.6235
47.2607 66.0167 168.55
51.8989 155.697 37.0458
33.6178 209.479 120.327
66.8758 30.431 118.541
58.5906 102.299 158.987
29.342 209.712 156.82
80.5839 130.456 151.357
22.776 149.178 97.2109
81.1814 226.175 130.211
71.9311 18.8802 129.319
35.9296 169.249 61.5261
73.5745 143.408 36.3004
35.0679 166.625 107.012
60.2742 38.5798 114.829
80.5214 21.6426 112.363
57.0165 122.023 162.267
61.6012 152.526 106.161
53.2874 186.482 63.6308
22.9437 202.89 154.223
31.6133 166.234 117.672
30.7292 66.6537 129.357
48.7098 90.1096 155.985
71.62 117.194 45.8282
67.7102 140.448 199.3
75.4505 218.418 153.521
24.1472 204.05 134.701
54.5412 100.384 163.9
51.7688 70.3713 119.208
58.1271 180.441 45.9421
41.3732 124.389 42.224
30.8744 211.693 162.312
40.6937 158.04 35.9301
34.0035 159.097 45.2029
42.9417 211.992 120.182
45.3792 198.942 104.27
62.3201 112.256 188.233
26.4265 133.792 160.696
52.3739 75.2043 166.988
29.1472 179.734 173.828
27.9006 111.374 85.8442
61.897 205.191 77.5588
55.8125 112.869 149.98
75.5837 127.035 193.096
29.6948 157.178 155.496
43.5699 105.767 188.495
70.8494 126.696 35.4129
25.068 164.569 95.5898
53.9127 234.277 142.549
25.1578 194.417 163.849
64.9163 39.5046 154.754
52.1619 130.239 173.305
63.2573 154.699 222.143
50.6168 188.088 73.1262
73.8311 208.128 161.644
51.8412 166.794 41.5567
86.915 223.966 111.169
25.801 157.496 169.641
46.3217 51.5401 149.041
80.433 39.9855 109.375
85.9825 215.121 67.3637
35.8142 51.8823 140.934
68.3259 112.239 57.7311
30.8827 189.877 190.701
94.8996 174.079 126.317
34.297 127.075 207.385
63.5527 187.019 61.9262
66.4181 107.383 160.954
57.4531 125.575 168.745
23.4116 140.414 58.9948
44.5327 95.8241 100.985
45.7007 41.2053 131.386
74.8309 80.6009 91.5189
27.6322 122.926 95.0662
79.2261 158.587 131.652
22.6484 182.316 139.837
35.5369 84.8318 156.771
22.8522 155.2 196.794
36.5299 174.888 104.274
49.3989 235.632 151.482
97.0281 193.321 108.131
53.0466 157.354 203.097
30.1204 213.234 136.61
37.2101 63.5327 118.704
28.1811 122.312 187.214
29.7226 144.504 157.043
34.1614 59.0281 155.559
22.8404 150.53 90.7971
84.104 99.3653 79.2492
76.9752 185.88 148.965
32.1736 166.328 75.8816
67.4309 48.0891 158.473
71.2563 114.94 85.3958
68.6088 114.864 79.3225
77.9189 222.561 73.6142
25.1648 69.1979 134.024
37.0044 74.4121 155.875
52.7014 119.369 155.219
36.8648 184.679 100.82
40.5374 96.4329 97.0507
24.62 144.802 90.8502
56.7975 136.861 133.876
28.7291 168.047 148.438
31.5557 171.407 125.019
33.6179 108.162 160.036
60.0048 122.56 110.799
57.5385 211.384 89.1862
69.6407 69.7068 151.488
29.4961 149.405 162.21
78.0062 151.15 216.714
50.7311 56.3572 114.569
60.1639 101.251 56.2761
71.1926 92.6852 99.9288
41.5028 65.3197 114.468
44.0832 73.9271 174.733
38.8418 167.963 47.421
32.4821 173.75 80.9153
79.3334 146.583 128.262
44.9525 91.4007 91.7595
46.4828 116.948 49.5273
30.7051 116.652 172.299
70.6771 187.096 210.878
85.0947 129.369 44.5167
73.8281 114.212 127.692
23.9984 196.779 157.367
64.8613 52.53 101.129
30.152 77.6707 130.284
27.6686 157.188 147.594
63.894 143.1 157.229
44.5378 182.417 89.9323
40.8239 220.001 165.401
55.5124 203.025 85.0777
54.0898 102.4 180.562
52.3814 58.0161 169.25
86.7384 39.7952 151.249
53.6059 191.966 74.6375
88.2955 221.623 71.5786
91.0932 109.078 102.903
80.4525 116.028 101.493
75.6348 44.7875 97.8874
70.217 203.659 75.1616
42.8007 170.822 52.0378
94.1433 52.4153 131.315
31.965 174.736 86.2464
83.9532 181.76 126.108
38.7697 57.7834 144.48
37.1063 219.171 160.822
29.091 67.0359 154.344
75.4003 151.413 134.538
71.2017 223.533 86.1058
64.4604 47.2769 102.593
67.8353 213.225 86.8182
72.1933 135.725 39.9939
41.1019 79.5099 174.706
52.667 124.421 130.29
29.8721 136.265 73.8516
88.6761 135.806 67.0666
79.534 198.011 142.75
72.776 227.304 140.61
73.2737 81.7093 129.762
28.6754 141.417 105.615
71.5084 80.2297 108.537
52.6362 74.7513 103.439
35.0901 107.784 96.4074
34.1993 79.3251 121.145
63.0361 57.9421 102.521
63.1246 228.678 117.81
21.5799 146.85 73.4575
32.1968 119.716 71.5385
46.0727 211.672 114.893
48.4179 88.8419 147.364
72.0002 139.458 88.3145
49.9883 211.966 105.911
78.8964 154.213 94.5055
57.1635 56.3391 166.307
79.8482 26.7469 148.947
41.6476 95.0739 79.4117
59.4988 81.7968 176.998
81.0892 213.645 65.5667
87.2521 63.9995 141.556
28.6098 188.729 177.319
72.0855 220.274 78.2622
84.248 143.617 95.9699
38.6749 125.551 207.514
29.3213 119.217 82.3025
84.945 147.434 34.2652
51.8873 198.649 201.279
68.0126 119.011 65.6583
71.6919 176.722 216.268
51.7814 190.94 208.238
82.1464 228.186 124.04
28.9032 171.498 143.376
70.1158 86.8278 107.494
105.171 117.539 89.8462
72.8091 118.661 199.854
25.0347 157.992 101.934
28.9993 164.429 180.815
55.8466 193.22 81.1951
82.1415 30.2723 152.681
30.2136 124.541 197.093
72.8709 74.8087 170.537
57.8504 213.763 95.1605
64.2801 138.571 29.152
79.6276 225.008 142.81
33.4873 139.333 36.9292
27.56 203.376 128.067
38.2305 218.253 169.31
30.7484 161.697 51.4029
30.0368 174.363 130.212
50.9575 209.811 114.131
44.7957 90.4863 114.544
32.3612 73.7451 151.847
86.0803 162.469 42.969
52.9696 112.424 174.344
51.3816 125.809 122.978
73.255 49.3143 98.5701
46.9314 125.201 44.1592
60.1586 49.5141 105.705
53.0312 202.731 105.424
81.4638 133.579 145.274
85.4954 205.091 126.592
54.6798 128.74 112.168
32.4583 168.463 166.035
69.3924 188.088 46.4776
71.389 42.7401 164.545
36.4882 108.334 102.82
57.8552 229.868 148.344
94.1305 197.497 81.6301
31.1821 140.561 123.054
65.8186 106.092 123.729
66.5709 206.68 88.9875
32.827 108.04 67.181
70.4164 148.099 194.391
78.6674 43.7141 161.784
59.9328 76.4682 107.843
49.8078 186.858 211.227
77.6583 179.522 43.2482
48.8163 101.861 177.103
47.2072 100.578 184.901
42.5894 99.6783 93.1577
63.8704 25.7688 147.478
85.3873 187.734 193.62
85.8274 215.151 128.91
83.4162 57.0585 144.165
69.752 193.814 191.824
42.5111 55.347 129.522
75.8028 182.347 212.973
58.6217 86.2841 177.198
31.0998 183.095 110.885
67.6144 162.509 39.6327
57.862 121.636 155.476
49.6076 118.484 201.034
60.2957 162.71 220.759
50.6615 43.394 158.08
63.254 23.7314 139.582
27.2039 139.351 116.588
56.7413 110.423 183.732
72.1426 212.453 66.5526
86.0077 187.681 187.226
84.272 137.505 196.99
29.7482 109.484 147.17
81.1225 187.441 204.728
85.8577 141.077 86.4914
74.7955 223.564 102.663
27.5616 75.1339 133
32.6005 75.634 124.485
78.1208 53.2239 98.7911
32.1072 122.567 154.253
28.5163 155.521 44.9741
78.8062 184.775 173.555
22.4476 189.192 153.8
26.7273 139.309 164.593
68.7231 205.349 83.8429
24.2679 183.198 161.355
33.9828 104.384 168.333
65.5981 197.195 190.171
48.713 232.395 133.753
76.9737 221.779 147.143
22.9532 148.204 197.925
37.4743 162.665 42.3717
45.1508 95.6565 152.578
68.2645 82.9994 169.202
60.0172 175.772 158.05
70.6081 143.516 159.204
62.1776 67.9195 100.201
51.2765 76.6919 175.221
27.8251 124.661 107.49
87.1746 38.2496 141.283
29.3022 207.105 126.489
78.7058 128.389 49.2151
60.2864 192.933 81.0387
52.4669 182.965 210.915
63.8689 113.031 199.284
36.2689 110.387 80.4923
57.1154 133.069 73.2891
55.1857 51.0013 109.408
37.8757 114.905 52.6363
37.0145 152.836 215.86
69.6799 21.8978 116.173
40.6542 172.402 97.9099
67.3828 193.997 52.8348
58.6267 140.239 181.708
49.4682 131.146 150.291
25.444 163.911 201.192
65.905 135.516 132.082
24.5068 182.275 144.842
95.7249 136.865 101.43
73.9469 24.5647 146.438
64.8102 135.991 98.8705
53.0036 135.093 168.962
58.5335 137.079 176.482
86.9635 130.531 164.199
64.4902 89.1886 147.643
27.4416 179.914 136.005
56.9055 120.168 98.8105
91.4337 204.65 97.6711
39.6983 78.099 117.018
28.9247 114.048 127.461
60.821 127.746 171.533
63.5175 193.868 61.467
60.0925 132.801 140.864
24.9628 135.769 83.4606
66.7382 170.823 34.527
76.3591 192.866 181.687
72.7587 206.124 58.0815
74.7311 25.0285 109.514
76.0734 40.7755 103.992
74.2565 107.297 77.9131
57.2119 125.318 137.116
73.0221 49.7156 164.36
73.2343 168.138 113.523
31.8614 177.163 111.802
66.3312 207.925 66.5459
62.7001 116.439 67.6361
29.3511 150.071 117.26
54.391 45.5065 124.076
64.5629 23.4912 117.554
101.239 211.795 81.7076
24.1616 162.185 74.2876
58.1866 109.697 194.732
35.3712 81.204 134.672
62.2554 116.645 140.611
60.9902 173.927 128.052
32.3723 123.303 67.5662
28.7522 179.963 116.557
29.9675 148.298 38.5761
79.2394 175.859 112.234
27.9747 77.5213 147.61
22.9294 146.998 101.672
27.6732 175.902 137.264
59.1892 158.297 123.965
28.4845 146.181 195.929
44.6544 45.0972 146.404
24.5482 183.322 154.641
76.0213 136.267 159.594
59.3323 31.1071 149.884
58.4373 71.5885 104.495
55.8679 40.3514 126.152
74.1035 184.443 122.326
85.9753 206.984 118.887
67.7271 122.26 182.94
69.8246 111.233 73.5628
42.4404 63.8067 166.415
51.7972 85.9506 137.496
91.1417 128.684 93.7344
28.7263 130.16 192.36
59.4004 55.5895 107.592
104.552 153.888 120.739
45.4405 67.5365 160.87
67.7335 60.4301 107.26
73.6872 164.818 178.753
62.4774 221.237 90.2608
93.7682 23.1719 131.477
75.5077 194.078 135.4
67.8717 152.884 161.075
35.7478 57.5785 139.228
66.6064 130.919 170.599
36.1515 188.767 108.175
65.677 155.043 129.493
31.0583 171.108 173.719
91.7444 34.85 111.963
91.7011 219.154 110.673
58.044 124.319 186.229
67.1779 143.562 216.279
86.0412 188.749 114.766
56.8557 119.462 168.232
42.5211 51.1812 133.887
21.9609 150.272 69.795
78.7396 108.467 104.656
73.024 126.921 206.684
67.2279 152.126 219.508
63.9272 92.4174 173.989
26.8175 149.747 66.2949
48.7654 42.0731 142.857
75.2571 197.659 156.941
74.5832 120.565 190.889
63.8711 180.973 46.0228
93.1951 156.15 118.207
62.2931 42.1396 109.448
98.6186 223.253 98.008
80.5339 114.838 109.599
102.218 210.105 104.005
27.3168 150.33 200.846
63.8142 119.497 74.5127
23.7173 198.109 123.531
77.4366 151.089 199.43
58.7424 169.856 130.604
76.1794 62.4375 92.048
93.2573 192.481 115.753
47.9411 65.2525 115.024
72.5002 209.093 77.7857
32.434 116.557 60.447
77.1485 102.247 99.7719
70.386 157.129 38.6676
54.2588 132.036 134.626
61.8904 43.446 165.699
47.1886 182.898 82.9512
58.2995 76.3922 170.969
59.628 63.1103 159.937
71.3964 127.33 211.711
59.7923 38.7921 151.196
57.9206 181.572 62.7874
59.0805 59.7315 111.152
56.8327 82.0803 126.831
62.265 228.345 101.621
34.4805 112.229 139.704
70.0813 36.0441 106.852
44.7015 114.522 203.193
77.0678 169.995 192.364
60.714 64.259 107.871
65.4569 174.423 210.353
54.5065 105.393 185.729
59.329 153.863 213.218
64.3463 207.781 186.473
88.6248 151.489 39.1269
76.137 117.214 145.357
55.9438 150.845 41.5539
83.7737 194.517 135.514
23.7421 155.794 184.972
24.7969 131.8 101.918
67.3812 213.169 74.2806
63.9582 186.527 154.388
67.9463 116.649 60.8633
48.0074 47.7912 125.116
65.041 199.313 63.5654
29.8509 66.7954 146.066
59.1393 172.48 216.685
42.7423 72.52 114.167
56.0421 174.715 52.7339
26.739 152.316 178.145
64.9679 153.868 181.141
34.9018 142.312 202.08
50.8033 47.1032 117.826
78.1791 63.8265 98.9059
85.5627 221.021 130.48
44.7074 52.3121 125.588
40.7649 55.4725 135.956
99.8331 218.545 90.0032
81.4603 181.084 205.853
63.8747 226.279 142.711
60.4336 166.326 216.19
31.8647 71.3546 127.864
34.1047 154.052 129.809
72.2789 207.878 167.437
51.9154 156.759 215.478
33.637 102.538 118.369
40.619 71.212 167.963
58.992 137.203 110.861
28.6318 128.425 145.479
34.9766 101.724 111.315
59.1243 88.6514 101.963
69.0546 171.642 209.813
66.2103 118.206 54.1441
35.4634 66.4567 135.202
52.3222 35.4405 135.674
32.6056 116.228 146.799
32.6127 183.729 179.039
93.1634 43.3211 134.05
73.04 202.576 65.3326
70.7832 105.612 122.522
90.7613 97.1074 81.9733
104.544 215.252 76.0455
44.7046 69.6513 121.189
23.4182 151.26 81.7717
74.6578 85.7958 85.2295
46.1619 49.2185 130.179
62.5765 205.063 90.6906
28.6983 124.467 101.191
90.9816 123.604 130.78
69.711 42.3671 107.941
69.6049 221.484 157.536
65.868 161.289 220.725
69.8224 19.5407 136.659
34.8313 175.701 91.5097
59.1463 219.567 92.763
58.0128 27.8287 132.377
68.4993 34.4232 124.289
91.7326 195.509 105.652
63.5683 165.847 126.158
60.8236 80.5195 132.605
27.99 142.493 131.516
94.7641 28.909 136.443
50.7938 131.178 117.346
103.463 126.507 98.1205
93.3129 211.604 60.5299
81.3706 221.556 139.488
84.1206 19.0059 134.015
54.761 138.744 36.6648
77.4434 178.868 175.102
82.7927 158.839 209.725
29.9105 126.725 63.8362
63.5559 174.917 216.107
79.4876 190.258 124.992
67.9397 26.1559 124.846
55.9542 90.0954 97.4833
29.1304 193.265 180.308
57.5311 136.867 67.0806
30.1109 124.71 83.6603
64.4762 28.2722 130.266
72.2048 139.987 108.511
98.4242 153.273 88.949
69.1239 176.891 145.893
69.4275 157.55 180.025
93.8763 136.305 50.1623
59.2367 158.035 136.883
54.0822 227.893 124.43
73.9826 47.6356 157.037
85.0624 221.889 135.922
65.5395 201.947 194.57
88.1664 49.3927 145.458
63.1863 89.4129 81.2602
50.0214 55.4475 120.735
59.682 68.7258 110.402
79.7564 138.274 189.619
91.3954 154.48 190.504
65.7335 96.1744 110.029
25.0739 118.354 180.249
63.9043 185.724 213.166
64.1214 148.624 149.255
35.5413 61.469 129.502
80.3012 159.293 103.156
55.7832 40.9167 140.113
57.3128 158.232 219.35
38.9749 144.859 205.844
88.0554 50.7613 130.663
59.4427 128.882 176.971
22.7651 188.814 138.164
93.8289 141.401 44.2539
67.5826 78.6727 128.812
84.7966 41.3937 160.426
74.7704 142.982 216.358
62.2562 90.172 92.7071
49.49 221.188 115.312
49.5601 134.761 139.515
75.3135 199.469 194.125
68.7756 144.96 34.1819
58.9955 224.527 103.116
64.1378 155.811 146.051
75.012 124.303 141.316
54.9435 88.7639 152.07
91.2389 157.487 80.8452
54.3558 91.8609 83.7915
26.206 157.492 93.4331
31.7536 143.881 197.661
27.6143 139.749 201.407
70.1943 115.878 70.9576
32.2615 171.857 69.1277
60.998 168.674 143.939
47.5973 61.7982 159.161
81.0815 25.6974 142.912
82.4638 168.879 201.643
85.8985 196.018 107.105
69.5035 210.837 170.183
32.5099 121.034 161.357
75.1572 228 117.104
34.4049 79.1563 164.444
65.3554 135.271 176.336
38.6044 63.7244 143.61
62.4673 140.893 78.0751
67.7047 36.1791 110.399
63.3097 134.462 75.8137
33.6971 114.491 151.232
82.1985 200.032 149.102
52.1349 183.646 59.3158
28.9893 166.981 109.792
97.1299 33.6713 130.625
47.5401 205.869 111.514
40.9964 57.5229 150.734
47.6459 137.507 210.808
87.8153 35.3642 157.996
68.8332 141.723 102.366
42.9337 106.497 53.5297
28.1644 189.42 168.555
56.1758 128.961 181.317
100.498 208.051 61.9736
43.0386 181.718 208.923
28.4901 167.024 135.885
45.5276 167.177 49.1587
36.6739 169.459 101.853
60.0579 149.32 128.504
38.6686 100.952 81.8222
87.8663 15.0106 131.923
95.1807 101.047 87.3012
51.6762 133.73 85.1218
48.7015 167.09 46.3161
62.1345 169.631 119.063
69.1054 19.4094 126.378
55.8371 34.5655 128.048
67.9744 194.835 204.143
79.1818 135.6 180.618
96.8567 191.658 62.4798
73.2322 117.129 134.622
64.0887 88.9911 158.781
70.7355 148.536 218.936
55.3776 234.668 129.98
43.7063 56.4256 122.936
67.1828 134.359 201.4
74.7617 103.706 68.7692
64.0131 129.853 181.3
66.1742 158.963 134.433
63.7899 80.5159 112.586
59.8227 31.0646 145.06
71.5601 158.523 103.349
51.6163 64.5888 161.054
76.105 198.821 168.177
72.7079 170.4 199.429
63.2347 167.795 221.379
74.3542 141.215 210.841
82.3978 170.387 208.051
79.2486 172.642 196.694
74.22 205.729 176.843
74.955 33.3584 159.212
30.3878 124.016 117.44
48.3826 43.766 152.992
75.5895 121.348 43.9397
31.9905 108.687 135.012
76.5782 202.297 180.139
77.7563 57.4772 145.003
40.5293 69.7309 160.673
83.3773 142.582 174.401
31.3962 79.1207 155.28
77.6829 155.901 111.43
45.2969 60.4707 129.073
27.9569 156.107 140.43
76.9473 18.0257 122.831
72.7881 226.99 109.539
59.7507 28.7218 140.338
36.3767 100.43 92.3133
46.6271 156.015 208.855
54.2884 141.255 165.801
62.4947 85.1907 163.717
93.2494 20.5067 124.063
104.075 210.35 95.8287
38.6391 215.619 127.711
98.9047 144.213 49.0864
79.1302 186.878 139.294
97.8013 219.7 103.729
82.5233 151.453 210.799
36.4688 71.5021 118.848
55.4976 35.6916 150.261
59.4344 91.4417 157.85
110.942 195.874 84.4654
79.897 128.476 187.743
45.4815 68.7067 128.226
104.695 178.897 55.8056
74.9879 196.406 178.529
77.2446 70.6505 97.2671
27.8554 177.655 168.758
67.078 220.821 91.2331
47.7049 147.784 210.029
73.7216 218.11 73.8572
70.2676 84.7759 155.577
35.4934 103.4 127.192
68.6521 204.532 184.101
59.0309 132.314 99.9599
64.2901 186.216 141.962
52.9561 66.8556 111.798
71.7098 69.5915 127.001
64.2244 127.706 190.442
51.201 80.449 179.253
83.4002 175.074 164.977
38.8877 220.771 134.425
27.5793 170.683 154.431
110.172 167.774 61.8323
56.4884 161.537 142.162
76.3258 145.169 152.212
32.6971 175.341 75.1303
48.4557 107.275 190.204
56.7828 186.578 70.4715
77.499 103.672 162.287
53.3448 186.435 85.1875
59.5882 188.213 64.6833
64.7379 86.8912 173.989
65.3702 129.718 196.832
77.277 143.256 163.034
75.4045 78.0089 111.918
38.6535 65.0169 127.673
81.8068 47.1669 144.836
75.4368 168.588 185.854
90.3474 142.689 94.0833
67.6671 170.153 159.539
64.9975 131.946 186.486
90.0002 154.408 122.893
70.9916 149.167 40.1827
58.4231 107.236 161.99
80.0325 125.193 195.457
39.6611 64.4802 154.065
71.7606 147.453 180.221
64.4621 212.003 91.3344
58.0019 135.856 117.363
73.3877 144.58 123.629
68.7444 143.883 90.8483
70.1038 164.738 161.286
68.2019 183.018 129.112
98.3815 159.332 70.1794
74.6554 200.248 173.766
74.3047 97.569 165.464
85.6262 163.762 204.298
52.1113 126.318 144.576
76.5635 96.4585 84.5473
43.2922 180.467 71.4193
78.8067 210.113 59.3503
94.6867 29.49 119.844
91.2285 76.0194 107.51
97.3032 212.105 110.714
74.5581 209.552 62.8299
85.0292 16.1711 126.79
63.798 159.754 156.966
72.9958 111.628 162.336
90.1882 151.759 93.6211
60.7887 66.3359 165.807
58.2424 129.213 190.553
33.5565 173.551 96.6006
74.818 135.355 171.75
80.0093 70.2835 160.34
66.1554 50.9838 165.157
50.6447 91.1738 86.708
96.0739 48.6178 113.236
78.0379 31.6663 107.427
61.1201 130.716 61.6508
75.8787 167.143 154.665
45.4047 62.8633 120.774
36.836 177.235 83.5017
64.6792 206.795 193.761
79.2622 195.013 154.003
61.9333 32.1656 126.414
56.5726 109.344 189.628
98.2166 179.981 108.058
58.4119 133.744 170.123
69.9189 213.358 70.1004
76.668 151.392 183.128
82.2382 183.799 113.058
70.5218 166.566 146.679
79.8742 166.247 114.577
60.446 50.1345 161.727
85.6129 143.726 209.42
32.8035 110.257 83.3878
32.9743 167.285 95.7284
59.0314 132.4 112.871
101.091 220.146 81.3172
113.386 188.156 93.1817
104.52 211.994 90.2449
87.7264 153.848 197.164
88.0234 48.148 138.198
32.9826 176.295 194.065
83.8841 122.354 113.303
70.4294 155.874 170.393
26.1314 155.779 109.109
32.4421 111.388 185.146
62.1834 62.2894 98.9812
72.3632 189.082 140.708
72.7362 153.505 175.979
84.3067 113.533 162.754
87.0207 167.722 170.611
74.7751 146.231 168.451
26.0866 127.669 84.3803
82.1662 127.039 162.847
30.7385 161.507 104.226
53.4613 138.598 174.919
67.5396 168.373 110.849
74.526 182.676 158.464
25.5003 126.813 56.5539
87.1591 42.3416 104.317
89.773 131.302 110.638
95.2525 112.806 93.8435
90.1667 187.94 104.911
72.3881 68.5855 164.679
46.4641 180.02 63.1272
71.194 103.064 104.169
63.454 151.881 152.841
64.0423 44.2071 105.629
27.2919 144.719 77.9682
85.1545 182.858 103.819
83.4738 149.495 171.383
59.4002 234.479 139.176
77.2821 148.038 210.681
73.354 184.437 131.157
37.7775 69.762 123.957
53.8409 51.2439 119.741
53.6317 132.606 147.611
75.0188 28.091 149.989
79.2771 58.4767 96.518
88.8695 141.313 148.204
64.2786 123.808 58.0116
60.8071 148.142 215.309
80.3112 230.325 96.5371
63.4093 126.044 186.153
71.9658 123.036 202.983
50.3563 43.2986 147.643
85.6656 158.661 199.537
56.4503 123.744 211.113
79.5815 118.066 82.2846
42.3667 96.4271 147.102
99.3451 200.454 108.682
95.1507 152.68 43.9363
90.296 148.418 101.733
28.1077 161.693 158.005
40.6862 165.658 42.5638
67.5786 216.654 79.4912
48.4315 179.416 57.2765
95.3563 216.011 61.9308
58.2641 125.38 93.5839
68.3425 80.7987 161.548
75.9333 212.688 73.1903
53.4634 203.262 141.945
50.8422 170.631 51.5779
53.9541 84.2404 145.899
64.6998 177.656 123.317
73.0452 59.3149 99.3031
49.9466 71.6556 109.911
75.2499 199.077 185.089
79.1092 55.0808 153.275
88.7693 17.2028 116.157
98.0176 154.411 75.7855
69.4437 136.547 123.176
71.1454 74.674 117.878
84.3609 146.548 178.533
32.3878 166.987 63.0078
101.839 109.066 105.794
60.9896 161.382 129.818
67.0465 213.912 177.08
53.6733 122.847 150.97
76.2935 116.143 86.9604
90.009 30.2435 143.821
56.427 34.1564 140.207
28.5697 168.556 80.8186
99.7972 199.685 88.0996
88.2113 146.203 201.395
63.2235 70.1963 171.993
65.262 174.411 114.7
74.0902 177.657 181.779
87.1689 174.541 61.8475
73.8939 22.1 112.786
52.6283 54.7041 107.982
39.5039 171.065 59.1112
95.9973 130.113 101.068
44.2418 77.4222 166.03
63.3583 145.447 125.744
70.4665 148.693 148.29
101.381 206.006 110.308
73.176 146.981 84.6791
70.3658 139.494 166.821
73.4561 84.1928 104.804
96.9413 27.1019 124.995
45.6537 188.956 104.944
65.042 119.69 192.545
34.9912 67.3485 155.573
30.3917 126.754 47.9005
48.7149 215.818 115.245
46.8123 93.6968 163.057
59.7021 44.0719 115.582
73.185 127.277 50.77
79.9437 141.365 69.9489
59.2238 131.019 90.0992
79.8693 228.901 91.6108
101.561 190.191 72.8739
67.7915 131.059 56.5731
62.386 48.0173 114.151
60.7505 140.569 129.864
91.3711 203.44 117.273
63.4866 140.526 104.831
48.838 105.003 183.616
84.5456 46.9546 110.845
112.986 173.595 65.8142
58.3793 168.041 220.398
74.7343 86.6582 94.9864
79.3722 59.5824 159.996
28.0209 158.47 79.6044
106.095 191.36 106.943
67.2723 145.349 96.4992
68.1469 64.8467 98.9121
27.4727 158.693 174.664
97.2727 221.163 86.6655
61.5829 26.3409 135.116
83.5997 22.4098 136.804
100.622 147.074 54.9151
76.293 156.102 170.089
69.9338 226.945 120.783
64.2712 147.649 142.231
83.4036 172.898 122.063
82.5479 137.12 79.453
96.206 40.597 125.501
59.1557 164.219 122.383
30.8612 210.619 128.342
66.7353 130.166 50.8549
66.193 132.751 160.129
72.2739 181.064 164.018
41.8042 49.6462 145.112
73.6038 225.616 123.595
62.5941 168.519 137.342
70.9938 136.218 180.95
100.584 195.78 102.982
84.1843 153.973 202.955
40.477 59.4614 158.487
68.4992 152.596 140.95
57.3242 163.261 147.864
71.1655 177.741 108.485
105.296 186.572 67.052
80.9204 197.093 180.299
85.7485 139.375 51.9312
25.2534 137.525 195.569
83.3046 125.863 100.049
65.5943 160.765 166.163
94.6192 203.413 54.458
113.828 180.922 91.0007
71.9174 165.545 99.9963
70.6941 195.653 178.483
55.1497 64.2235 166.831
100.504 188.552 112.806
61.1681 153.292 142.941
67.3392 131.734 35.603
87.2662 157.93 205.384
73.7586 166.682 122.816
71.1182 176.132 123.192
73.4723 69.4938 104.535
87.1184 132.468 49.8153
99.8294 141.754 56.8303
74.4782 69.3206 145.394
35.316 174.699 67.7648
72.9238 135.248 67.3947
84.7741 207.475 134.511
73.4287 64.74 98.6233
85.5599 50.4306 100.651
51.3628 60.7798 123.974
86.491 213.504 136.738
81.6756 136.503 137.368
63.4162 150.319 134.725
94.9756 48.888 125.634
90.8094 132.88 104.818
25.0795 176.948 159.276
91.263 35.2065 135.268
57.4116 54.2972 117.121
39.1474 179.576 89.2861
74.3964 123.677 150.573
75.9511 124.579 135.309
83.1209 161.957 172.559
69.3902 135.7 32.8059
91.3149 183.311 61.5711
68.3343 142.001 147.431
54.2716 128.077 103.761
86.4911 200.98 122.562
85.8845 166.528 141.909
81.0762 179.118 120.365
91.129 134.739 138.968
87.3871 201.145 51.7014
66.0432 91.2176 88.0014
90.4673 149.343 193.249
73.1193 78.6487 159.492
65.568 136.159 138.064
68.0874 135.499 144.167
101.826 156.55 49.6416
47.2751 181.77 73.9707
74.5633 21.6158 134.26
63.1934 111.94 163.584
80.9018 77.0518 97.706
75.0613 163.103 147.655
62.6469 183.489 50.0466
87.772 131.66 125.627
77.9211 100.709 79.6851
61.8839 69.2351 155.61
86.4287 181.989 119.504
41.5017 55.001 157.486
79.7764 199.503 52.758
68.0036 116.59 152.867
86.4331 68.0269 112.448
100.737 111.895 93.2356
88.0934 97.6797 88.9345
78.8989 120.83 125.262
84.5171 187.151 169.212
92.9982 141.062 60.0607
39.0303 96.9948 125.661
39.0962 62.9562 137.287
101.926 213.477 86.2199
62.4833 158.319 115.937
83.3024 73.7934 116.15
48.5817 96.1103 82.02
73.4127 175.382 170.557
78.5004 166.936 196.322
88.6255 140.913 141.375
65.3544 147.515 129.787
86.7281 36.7634 108.741
97.4485 158.147 57.7814
81.0947 187.007 154.395
85.8387 84.8342 111.208
69.5216 122.795 52.1033
88.6447 185.533 110.615
62.41 177.362 145.68
84.3972 173.458 141.455
75.9996 152.661 103.631
91.5556 31.2426 139.534
80.6187 175.92 186.785
85.5139 144.097 191.98
110.497 176.287 59.2883
92.5914 75.713 98.383
81.5401 163.555 182.223
68.5349 165.096 106.176
67.754 154.959 33.5483
91.5472 135.142 116.066
94.152 29.7753 130.177
32.6789 74.4968 139.602
76.2118 60.7607 151.188
61.687 136.614 121.994
82.4993 180.335 169.632
73.5857 154.21 116.987
55.3236 91.5444 92.4002
98.4086 165.181 64.648
62.6409 168.834 155.707
68.9277 204.872 64.4857
66.5773 63.9172 162.301
78.9012 141.88 98.0067
77.997 193.321 130.52
101.671 117.906 96.366
81.8101 163.882 187.818
66.3194 151.496 124.623
31.4221 80.5921 143.925
61.5759 156.895 154.135
80.2779 175.549 202.737
80.5258 183.871 182.46
96.0668 117.214 122.662
69.6693 64.724 158.023
68.2743 158.542 217.805
64.0867 223.065 165.878
80.0152 207.967 150.757
75.418 83.5553 122.8
85.1632 54.965 151.511
75.5243 159.56 165.095
51.0772 175.532 62.3171
93.0975 108.6 125.488
98.3038 195.153 57.5775
76.3541 179.634 137.201
86.6145 167.893 185.124
32.0892 152.397 41.8672
26.1195 134.207 131.378
86.8501 80.7382 99.2018
88.9401 170.038 179.243
95.1699 39.2579 130.725
94.1007 199.336 119.515
73.2323 168.686 134.064
85.0781 165.95 209.538
61.0838 125.663 69.4206
39.1454 180.734 210.522
85.8767 133.357 115.722
88.9003 147.056 187.248
94.9798 172.701 110.39
82.6099 144.331 186.562
84.6094 189.224 175.832
47.1871 150.369 218.302
53.3068 175.535 55.9196
67.3809 145.751 137.193
90.3505 212.584 128.755
63.0267 141.281 85.2468
68.7741 138.338 65.8277
66.9171 159.809 122.044
81.7218 68.9874 133.161
65.2247 68.9413 160.756
93.5353 63.4129 108.094
91.4151 223.449 105.159
92.9689 200.283 111.323
107.258 177.824 99.7224
36.5368 101.822 152.781
90.0861 164.378 177.78
