ply
format ascii 1.0
comment Created by Open3D
element vertex 1043
property double x
property double y
property double z
end_header
52.7048 139.172 154.914
42.6786 40.9377 88.4933
29.5168 15.9062 58.2333
8.4164 20.2634 87.3474
47.9234 66.282 110.528
62.6094 230.257 134.777
58.929 83.9349 167.522
21.6148 28.5375 42.8956
64.7974 74.7201 161.132
116.005 140.613 76.1545
40.9229 138.074 79.9843
95.7495 60.2931 121.713
27.1113 88.257 52.6638
87.2422 74.5311 149.352
12.9449 36.4918 53.5559
20.172 31.4456 33.8246
88.2876 122.562 156.886
79.4697 49.606 126.425
84.2007 48.2999 115.38
53.5717 38.156 112.887
78.8776 189.369 145.007
77.0727 198.646 90.3731
52.0187 269.84 144.793
35.5491 10.977 36.9677
42.0549 154.949 84.7122
54.4443 137.848 142.299
65.8788 80.9569 167.988
44.9347 62.7045 120.114
33.5725 59.3005 71.7148
29.8391 147.372 60.3806
51.0029 73.3694 119.894
33.7134 15.5486 53.094
7.56006 9.69049 65.2395
84.8015 79.9814 156.428
48.8538 181.169 64.5607
57.4398 49.6725 61.4828
101.828 178.211 88.1993
37.7585 7.38662 19.7909
45.3419 62.0851 52.0888
62.1687 189.128 66.9429
5.69151 7.3459 39.7783
53.0489 123.835 169.829
58.221 116.945 174.74
59.0528 68.4903 46.675
63.0151 129.247 89.6962
50.2085 116.638 168.727
12.4799 36.0186 39.9384
47.8428 101.601 164.14
18.6538 11.1829 58.3642
105.879 106.456 51.9108
48.8386 100.986 146.551
58.4869 107.558 174.172
24.7661 226.809 178.951
7.32777 46.5268 43.0199
9.11563 59.0344 37.4593
76.3939 42.4734 116.941
55.1363 194.65 83.0829
70.4803 133.552 123.815
25.4562 116.461 55.3282
6.54131 3.57636 55.5432
86.628 180.838 66.1953
67.1906 62.6642 55.1309
66.7599 43.3505 73.2018
47.8942 122.166 159.786
33.0727 88.6321 65.0006
36.0398 216.032 164.387
5.68625 3.64155 24.3036
59.169 44.8608 130.618
6.35806 19.2457 37.2283
20.5073 6.2935 68.9309
88.8816 193.557 124.921
46.5396 93.8578 157.961
6.64215 11.94 28.3897
49.5681 187.76 94.912
27.1418 134.785 54.8812
62.5093 197.712 125.129
5.12407 23.0757 24.8163
48.5987 89.6376 140.958
56.2247 145.56 163.69
59.9248 63.833 153.156
10.9548 28.4455 62.8106
65.5525 36.1347 98.2941
46.3063 78.0924 136.814
64.0239 146.749 94.4115
81.6513 85.6118 43.0516
59.2273 79.9865 113.731
39.9659 228.28 188.251
102.008 63.2937 110.875
22.7126 5.8369 49.8741
76.0103 122.791 32.1652
43.7433 173.727 59.9973
27.1872 13.3321 48.5114
102.218 61.8333 99.8179
92.9889 187.568 88.3598
33.3939 137.337 76.2886
45.2012 54.462 58.4863
62.0995 110.55 82.7176
51.7921 188.167 72.5809
70.1958 174.515 159.407
65.3906 84.714 36.2009
7.24257 2.99713 93.3351
75.7452 194.829 14.0494
77.0667 40.8241 104.374
68.8321 38.1227 90.5731
68.847 232.726 153.718
76.0562 134.974 32.3082
89.8807 131.138 141.667
21.7488 13.139 23.5645
67.6024 133.783 30.7001
36.584 46.0544 94.1356
98.2546 82.8941 132.412
6.50542 50.8798 10.3655
70.4367 187.212 65.8824
82.8725 72.2572 51.0565
7.23942 11.5724 53.8357
83.8574 148.231 166.85
56.8916 261.141 138.854
114.385 108.325 79.3063
27.1971 107.644 57.2695
37.8835 170.483 72.2366
102.593 182.993 110.9
85.2952 101.831 166.628
77.784 41.307 88.8642
27.352 100.196 53.3228
56.5976 128.55 87.6668
31.8694 144.62 73.3538
77.8102 179.568 17.7681
25.77 120.062 48.6791
34.6054 157.066 69.471
68.8162 167.842 111.13
97.5524 146.866 43.5002
72.9486 38.9153 98.479
6.67952 20.8109 57.5958
32.928 143.844 47.4155
37.9668 146.34 79.5782
40.9076 265.364 147.283
8.06031 15.9195 77.2565
67.0882 40.6013 122.697
78.4148 45.4748 95.869
91.5115 172.74 149.521
95.0541 115.402 125.97
25.9686 126.902 58.9886
55.38 82.9273 122.339
35.6787 115.515 34.681
36.2795 14.0823 29.5575
13.4592 39.9171 16.842
87.9802 136.279 155.248
52.8227 128.834 142.926
92.9716 155.243 154.52
45.4607 69.5741 146.308
59.7908 260.267 161.508
85.0259 198.704 114.388
91.716 77.9781 52.675
77.9425 54.5376 65.9563
50.0368 77.1745 127.932
88.867 64.6107 137.867
33.4171 127.589 73.2799
7.31864 27.5958 44.3365
28.9832 127.785 66.2384
42.8786 55.8777 127.638
80.3933 95.6066 168.621
67.1578 66.395 48.2477
28.3915 244.687 159.875
45.2697 43.2519 75.9793
45.7131 81.758 145.521
39.0415 167.219 79.7476
77.238 202.686 114.537
11.854 7.2983 88.7927
48.5006 48.1131 65.3841
75.4198 45.4172 76.8648
90.3995 138.878 148.257
106.886 91.3156 59.4054
33.3408 127.405 38.8642
38.8945 3.37021 40.4894
88.7952 124.203 145.526
58.0085 239.885 168.095
28.1687 131.319 46.0186
23.0776 15.2479 8.656
71.1184 189.625 16.833
61.8837 245.124 127.515
59.2563 177.421 109.469
7.30255 17.7236 67.0268
86.2162 183.883 6.30851
48.3479 158.988 90.4604
51.1115 83.399 130.161
78.1752 186.252 10.3456
70.6366 183.06 151.924
63.9232 98.3431 125.885
6.32084 18.6957 48.7186
86.724 130.934 162.217
61.5348 198.31 85.9781
62.9755 147.197 33.4446
87.7435 110.06 162.732
68.3482 166.385 121.456
60.5047 141.181 168.438
5.54963 33.9582 27.7684
76.5188 86.1197 166.347
41.4764 175.795 79.9316
17.9508 16.61 14.9937
15.4973 34.2118 22.0784
74.1111 103.185 100.782
74.6348 187.745 28.6119
66.4236 112.57 175.965
51.607 158.394 40.6004
32.5504 119.731 69.4744
46.338 146.969 84.6592
17.0326 24.8067 8.67335
28.4697 139.227 62.5305
82.4167 112.602 172.138
65.5739 122.247 125.484
8.9395 27.1495 77.1071
36.72 154.232 77.0777
40.7517 95.1015 35.8298
10.8045 36.5057 67.7603
54.4372 89.4567 34.0705
71.7478 160.25 39.9983
57.7039 76.4572 41.1817
50.2915 127.645 154.564
5.6042 9.66824 9.67409
59.5113 128.236 133.882
65.5115 90.1053 170.585
83.4973 188.932 39.0177
89.502 92.485 157.877
86.4729 196.827 102.788
55.983 171.102 49.2144
63.6229 150.563 168.003
31.4559 150.975 67.6191
111.64 105.997 64.1777
106.189 164.957 125.493
79.2646 200.497 100.085
94.3507 148.144 143.135
56.7339 75.7413 161.702
6.1205 37.4248 39.8805
47.4758 239.962 122.175
57.3132 56.4308 55.935
43.0876 166.752 51.9611
88.4408 97.2028 41.8279
67.5837 225.53 157.404
84.9704 194.843 92.7187
49.4691 172.732 53.2415
53.9454 81.5922 37.5844
64.7637 136.559 94.1759
94.3976 200.857 25.4658
78.2191 124.676 107.227
44.1667 63.4456 136.273
67.5794 92.5665 96.1612
6.52345 4.83093 79.3489
84.7746 129.403 35.3469
47.2576 54.9487 135.364
82.74 139.852 35.3422
47.6709 118.504 152.249
90.7062 102.293 157.554
42.253 88.2621 71.6848
55.6308 192.007 112.504
46.8434 124.637 82.3547
86.6574 192.385 23.1655
48.498 219.275 143.205
64.7853 118.901 28.4797
74.7303 58.4161 145.268
4.63837 23.5414 7.70659
57.2707 76.1055 88.6034
87.2885 198.224 8.58004
25.3976 8.50048 38.4314
102.99 140.284 50.3143
59.7993 100.806 132.505
40.3653 121.602 32.9445
50.3652 37.2402 87.7785
98.039 178.01 20.4481
59.5937 177.067 53.4186
9.15059 43.0199 72.4549
77.4661 171.371 161.15
60.2188 51.9275 141.823
14.5332 22.2448 55.4113
58.0974 152.661 94.6577
94.6269 128.018 129.769
55.0759 263.822 171.51
92.5458 189.017 129.866
28.9608 140.52 51.322
50.1649 68.5365 45.3618
26.4904 3.31304 26.9735
104.669 156.679 127.35
45.9156 110.405 155.751
89.5641 116.206 143.427
41.803 260.856 158.239
25.0265 19.8152 15.4094
64.955 85.4152 110.524
53.1188 229.896 127.934
47.9259 122.973 31.034
9.597 49.9494 36.9025
59.4623 186.907 129.041
70.1897 49.1327 134.291
91.9883 181.622 75.7845
32.8248 83.1678 43.9644
96.2239 179.812 5.66157
32.6616 75.0751 48.1995
35.3723 216.689 172.89
34.2765 56.2081 78.7724
5.49334 15.5224 17.5332
7.13121 56.025 18.4386
110.156 78.6908 79.9927
27.5929 79.6949 56.0567
69.5473 68.1713 155.582
57.3993 240.063 190.502
50.6661 80.7752 160.027
63.0638 37.2513 86.0367
110.153 137.323 110.892
80.3456 182.782 35.4307
77.6104 187.951 69.52
62.2716 182.281 148.549
55.1268 41.1683 75.1221
53.2851 223.83 193.621
76.4995 110.576 35.1515
76.2471 106.588 174.29
5.37457 47.6434 33.1476
55.6451 154.725 37.4422
68.1519 203 100.128
68.5463 243.301 166.62
71.3391 178.178 52.421
51.4701 55.8041 55.6666
28.1559 8.41335 6.84962
86.2512 118.371 165.382
32.3749 222.814 176.463
114.318 158.073 83.8443
54.7341 196.586 105.185
38.4847 162.357 52.7668
14.9572 10.3919 8.91391
42.8314 41.6052 110.361
73.4065 109.949 115.019
29.989 70.9095 67.308
78.5498 90.1305 39.2906
68.4169 156.088 125.157
78.0435 183.019 59.9838
50.0055 130.223 84.9406
42.5415 179.521 73.6811
55.3031 155.426 156.244
77.5189 63.8214 55.2534
42.5081 235.105 124.693
64.6658 97.3048 32.4913
69.9989 130.52 175.255
83.0981 78.7368 45.967
27.8521 11.0085 13.3831
113.261 132.059 63.7848
95.8238 144.397 137.203
73.2881 150.658 171.187
61.1885 99.8453 173.888
37.8597 250.204 139.927
88.2181 183.022 141.673
56.3633 39.334 82.0971
96.149 136.513 129.86
76.2587 119.456 113.614
95.4979 54.7159 100.378
85.3522 118.423 36.6889
80.2843 65.0537 149.398
55.3582 187.078 66.1336
68.2878 170.519 45.6641
86.3904 177.804 152.712
57.3477 34.9685 90.6231
47.4394 114.03 162.665
114.093 98.5697 77.9034
70.4719 143.727 32.1459
61.4719 89.3932 85.369
44.731 135.563 33.7444
46.4084 265.629 135.992
32.0257 111.457 65.8703
70.9661 183.202 58.6047
105.088 67.3008 81.5839
91.893 89.6793 150.444
89.8483 109.188 153.37
23.7026 17.2063 58.4667
55.2778 45.6968 67.7626
45.7431 183.741 84.0257
44.3859 158.694 45.1651
9.673 47.4631 16.8373
99.049 97.4486 121.838
12.4487 49.8275 26.1713
73.1941 58.8115 58.9776
65.0078 227.046 147.809
31.6803 101.428 39.7187
27.8577 126.546 50.7448
36.9738 240.789 128.736
59.0528 75.72 96.7683
100.467 135.068 123.139
102.423 174.705 128.413
29.253 246.292 139.352
67.2629 108.113 124.525
99.7386 81.6659 57.5089
57.3764 240.21 128.736
99.1233 168.484 137.517
103.009 71.9058 117.912
66.5691 163.214 103.114
98.059 178.395 77.8999
74.6127 72.1789 46.3392
101.883 61.8014 88.4154
40.6855 54.6514 99.5483
45.8195 91.7712 150.533
52.3754 107.869 141.778
96.0392 158.078 145.705
103.998 93.3189 114.396
96.1865 56.6526 110.373
109.996 146.473 60.9474
34.7555 162.23 66.5616
37.978 129.432 78.7911
59.1045 75.0117 104.676
30.1181 233.857 144.333
52.7209 102.37 30.8396
109.301 77.0045 97.9501
62.5869 118.457 130.624
42.1705 128.028 32.5161
49.7968 142.473 33.888
75.8686 173.809 47.0321
25.5036 13.8522 67.0151
109.766 155.959 113.891
69.4632 38.3143 109.767
46.309 68.126 126.908
103.689 178.972 101.892
38.0665 144.808 40.2778
40.7882 173.253 66.6256
62.1295 183.639 59.037
49.2732 80.8959 79.7837
61.5634 138.785 31.477
63.395 248.228 171.254
8.86514 11.7425 106.546
51.7477 48.3751 131.418
41.0252 71.5289 45.2468
76.5699 201.604 123.528
73.1395 151.031 112.606
11.7475 28.2594 3.91876
67.6777 199.352 89.6555
72.0785 94.9128 172.579
82.4226 55.8052 135.979
41.2935 49.4488 65.6909
110.366 76.1133 89.2617
46.2253 44.3325 119.048
31.7432 79.4774 65.5164
36.6166 153.379 50.6489
51.8542 108.731 170.405
31.1495 11.4086 24.0737
52.2703 114.08 28.3165
48.0418 101.672 73.6019
51.1154 225.314 134.769
66.4977 235.867 5.24471
93.8559 100.507 142.574
60.9854 224.359 186.88
59.3081 254.942 164.566
59.0248 35.0092 98.7741
29.0719 71.712 58.371
44.1393 236.068 172.383
67.574 98.5051 88.8446
59.817 201.149 111.815
12.4707 34.9344 3.3028
6.90243 29.4124 54.6793
84.413 87.8271 162.032
31.1872 4.84285 16.5668
116.505 150.104 80.0493
5.81355 2.24862 68.1553
39.0831 49.6879 108.256
114.741 159.058 94.1929
108.191 100.548 100.478
59.6022 97.0166 80.6768
35.6693 104.966 67.0289
91.6005 146.888 151.701
49.148 162.886 47.5982
91.3117 174.245 50.3532
40.8411 223.218 139.6
91.6368 191.476 102.126
85.7923 167.352 45.0615
70.3107 227.488 179.177
44.7128 219.552 190.844
28.7007 230.104 150.004
65.7204 175.443 114.128
81.7093 195.097 135.035
53.6927 72.2711 111.175
78.9852 181.055 154.565
64.2406 164.623 41.9547
62.411 266.03 151.854
64.274 174.44 50.5003
49.8689 59.5433 144.139
69.7136 201.887 125.56
60.9009 89.3833 123.79
96.6391 179.151 29.4201
100.714 88.0553 53.7365
54.9598 36.0831 104.769
102.082 133.065 44.0267
26.6025 116.302 42.0326
55.696 198.457 94.1683
63.367 156.967 37.6921
41.0118 53.3567 112.955
44.851 113.97 31.5812
52.169 262.039 160.582
46.7238 170.8 89.6499
38.4457 64.7626 52.013
95.535 170.49 143.418
53.3685 121.006 82.4124
61.0881 201.173 99.9728
107.431 68.9236 91.0874
98.4328 91.7016 131.401
63.1537 245.049 182.101
62.0023 104.123 30.2753
45.76 225.334 136.351
16.9495 4.45309 9.86251
65.8352 161.874 164.749
43.6735 77.8041 78.8488
31.2188 241.485 132.827
93.6004 126.635 37.0314
62.1804 173.693 128.785
36.9098 47.3882 82.5261
14.1477 37.5986 30.7626
46.1581 152.165 38.8267
84.4382 184.03 148.287
48.0684 75.1825 41.1318
57.6225 192.255 119.628
76.593 77.3593 161.247
84.5795 46.3326 95.4232
89.5641 48.9669 101.155
65.1409 111.55 129.816
22.1906 23.2166 12.7752
37.8262 138.729 37.2383
49.8842 189.643 84.0301
39.5744 222.234 155.737
112.264 90.7509 82.4952
67.0169 195.956 79.7801
109.866 151.816 68.2231
58.917 232.262 191.069
60.115 142.241 134.507
99.7592 194.92 17.8616
62.4764 135.954 172.933
80.785 164.075 164.066
77.1025 147.762 34.3243
33.3104 152.336 57.5947
47.735 185.246 76.6767
59.8506 170.179 139.477
68.3093 194.536 140.362
93.2135 192.219 7.70162
46.9515 93.8394 74.6504
35.6654 68.3633 72.6929
54.6454 67.3738 154.038
42.7889 251.365 155.919
62.9487 240.07 186.467
19.8133 22.3472 49.8078
74.6776 68.3076 50.3956
52.3411 87.8609 165.073
63.722 34.881 107.722
73.3162 202.955 105.561
58.3264 248.518 175.612
113.447 127.847 101.123
106.205 166.856 74.7873
54.6369 102.174 77.0549
107.283 79.4677 105.834
66.6839 76.7182 44.2724
107.52 70.2051 101.982
87.3474 105.381 39.9899
82.1976 194.114 9.78181
65.2586 123.303 176.513
96.8461 73.7968 58.6705
73.3593 183.155 22.4942
55.2323 90.7073 132.011
92.9771 77.5657 143.8
28.5306 117.135 62.2817
52.4291 116.203 142.082
46.1907 103.416 152.991
56.1093 224.214 142.791
48.0513 250.954 129.22
68.866 218.306 127.568
75.0154 195.641 81.422
65.8971 195.337 53.5427
90.1457 174.55 23.848
63.4897 38.4239 113.889
113.527 125.083 65.7285
36.7284 237.262 186.916
46.7001 61.9614 98.0082
64.2846 195.863 133.469
86.827 179.583 28.9334
107.721 135.846 56.6021
83.5556 44.9846 106.479
39.6673 250.572 130.366
5.46301 36.9487 10.5914
18.9334 18.7013 40.93
56.4405 40.8311 121.479
65.3445 256.973 168.754
97.0216 200.905 13.4721
98.0468 183.94 93.6927
91.957 133.413 38.3325
69.2251 93.6443 102.821
107.008 89.6152 105.251
61.5062 183.858 140.707
20.1969 21.0686 28.4577
112.169 162.906 103.377
111.13 133.853 105.71
64.5342 110.469 29.5921
72.4568 52.5702 69.9094
40.2513 8.96226 51.6949
99.2575 64.0346 74.7532
70.343 131.481 95.8079
55.7844 215.693 152.215
99.4349 73.3252 129.824
53.1456 122.55 143.441
74.4828 143.127 105.822
65.5886 91.3499 117.241
53.8701 147.877 35.2675
53.3897 53.1163 141.06
101.216 89.917 120.078
47.8202 254.839 161.225
104.076 96.9442 54.0661
38.4671 3.03794 58.0168
43.3326 87.5725 37.1057
52.6802 67.34 93.7451
94.9472 66.9245 131.754
50.707 219.759 186.199
9.73047 49.649 49.6508
60.7586 61.2593 53.0441
95.66 88.274 142.102
73.626 166.451 42.863
83.8653 172.576 158.692
65.9777 85.1855 103.45
63.5477 153.734 132.08
70.2638 189.521 147.45
38.0305 105.199 34.426
95.2192 188.774 16.2886
76.7627 128.562 175.342
39.6729 161.373 79.9985
111.148 85.9979 93.5362
81.7211 98.3705 36.7135
45.077 105.35 31.5626
45.9442 111.779 75.9272
96.1502 98.4603 134.965
66.5433 225.15 187.108
106.953 131.161 48.5079
61.7151 170.649 157.791
48.8319 259.043 167.962
104.891 76.3714 112.907
59.465 127.151 172.763
30.9443 6.88917 73.3772
67.7471 192.136 72.2908
117.672 132.23 77.1
86.2083 54.7333 72.6086
58.0572 168.562 152.939
52.4981 193.338 92.6397
51.2265 238.923 190.671
48.8857 87.7013 75.8464
74.5007 197.99 133.714
95.126 102.013 127.318
113.264 149.804 73.2685
37.4664 246.956 169.415
105.912 148.24 120.217
33.9045 233.366 166.53
68.1713 220.192 180.789
48.2968 227.628 193.519
118.959 136.531 83.7141
80.6697 183.608 27.8154
8.65121 40.6337 18.3591
47.9746 247.757 185.088
99.4009 171.301 71.5449
52.2013 67.6233 103.182
54.5825 147.57 149.289
43.57 216.033 178.816
100.259 146.823 130.899
113.04 117.69 63.6647
8.95121 5.10828 110.906
67.7412 141.5 125.14
41.0078 251.482 178.106
54.8646 218.242 140.527
55.6426 93.4426 170.15
74.7188 123.822 97.3086
51.9839 253.33 176.686
63.7179 84.6491 91.5531
36.7163 225.693 150.061
88.8437 168.314 155.62
108.372 124.374 105.214
59.0965 148.902 136.544
101.487 168.718 129.877
104.697 119.61 109.952
53.6611 260.393 150.868
46.156 165.283 87.9934
84.7142 174.52 50.8195
39.6428 116.227 72.8718
116.659 147.625 94.6322
46.5089 71.5442 133.335
34.5774 9.71077 61.1336
47.7017 73.1657 85.49
55.2777 252.072 130.284
100.183 153.524 134.95
82.8239 178.649 56.7745
61.0172 220.049 150.952
45.5451 39.7192 99.7401
70.3267 100.844 118.039
112.058 108.908 90.6221
68.0769 223.542 172.388
30.7371 233.255 175.452
109.451 163.926 111.176
9.63331 22.1359 4.27536
89.3725 88.9285 44.8794
96.6639 74.106 136.191
93.48 191.618 111.354
10.7944 31.3517 49.0919
70.6635 41.2948 81.8707
46.8478 215.906 164.774
71.7427 164.668 166.187
114.596 155.495 100.313
74.7795 65.1652 152.773
91.6753 117.841 134.831
102.056 180.239 120.746
62.9469 217.075 156.164
79.9225 164.984 42.322
33.348 5.70687 9.28075
92.3014 136.506 137.439
103.498 152.579 57.7512
54.5272 97.6492 137.861
85.5433 50.3767 82.7507
76.4909 114.109 107.348
48.0034 227.196 145.366
27.6016 239.088 146.267
34.1536 99.7622 65.1951
10.7168 6.89135 98.8523
77.6358 158.031 169.01
108.274 160.924 81.6027
79.2499 46.3325 82.5365
65.5621 219.413 165.602
34.0335 225.481 159.628
31.3348 225.857 169.536
72.7835 116.549 119.277
46.6678 228.325 130.28
40.6642 237.4 133.92
107.096 157.214 119.457
44.7063 178.303 89.7917
99.5154 160.705 135.492
53.7082 132.841 30.2981
61.1165 234.032 167.27
57.265 97.5382 31.8262
88.9844 161.707 157.421
36.6014 1.94713 13.2753
33.0298 8.08232 52.7288
110.454 90.3607 69.1952
71.1088 155.002 105.589
37.5267 4.4918 64.1903
55.0289 123.686 28.9822
48.9944 72.2218 152.403
65.4602 92.2499 34.6887
99.7655 158.296 50.8696
71.0393 152.728 36.2636
97.672 107.123 121.996
58.9886 184.826 112.968
93.2428 141.402 37.5664
65.5026 226.37 163.9
18.3829 18.2158 1.90378
45.2064 224.958 161.739
67.3774 231.308 187.957
29.084 238.307 154.74
73.7991 138.027 101.404
62.8568 162.689 132.868
92.1464 56.4218 77.8013
36.9871 2.38272 4.00129
101.865 81.3995 124.861
70.8895 122.459 121.38
74.8599 129.007 101.991
13.9451 23.9761 14.2954
114.424 139.412 67.6051
67.9039 237.855 186.436
30.4359 92.1973 42.3987
83.0846 193.016 30.6108
54.1842 212.367 170.87
60.9169 42.7952 74.1185
91.4138 107.47 147.165
47.6667 79.0991 152.71
111.174 144.858 110.483
68.4574 149.163 100.072
98.4389 120.473 120.802
34.1226 10.8456 67.6481
70.2856 96.1654 112.49
53.7705 234.467 193.491
39.3584 256.347 151.333
28.0217 16.9198 21.2402
114.034 113.414 86.3608
63.7984 255.881 149.903
94.5611 164.335 148.583
53.0438 184.354 103.134
63.4459 176.709 121.402
52.1974 223.105 151.446
76.1119 132.344 110.934
86.9698 189.604 138.424
34.5986 77.0098 71.0755
64.1221 126.007 32.6245
36.491 246.27 155.555
52.0483 238.836 129.371
42.3359 222.799 148.792
101.06 189.587 22.566
99.0216 186.821 102.675
106.645 169.36 84.516
73.025 118.906 176.402
45.603 47.8464 127.665
109.693 120.615 56.7319
41.3028 105.407 71.1574
67.9971 203.818 115.527
68.8236 140.649 174.147
88.5558 156.43 161.146
81.7161 123.497 173.242
112.925 157.064 108.345
79.1216 177.358 23.6864
46.4092 234.051 130.402
53.6802 179.812 57.2628
116.118 117.474 71.8129
105.39 85.0821 112.719
101.382 142.594 124.532
83.6436 188.071 81.4014
92.2262 51.3301 110.199
42.9256 219.73 168.251
68.8431 105.727 30.0919
61.1173 210.159 164.38
47.6461 209.908 170.713
43.0903 259.098 146.773
22.4057 8.60919 18.0792
25.2517 14.6445 33.9792
99.0256 105.041 51.2605
94.9167 195.707 33.9796
58.0667 160.14 148.06
69.0868 234.038 180.112
25.4543 14.2493 2.13626
38.7562 226.249 165.531
40.8803 79.2076 39.7786
82.9834 198.127 124.216
109.324 170.106 104.75
107.234 96.6787 106.609
38.767 56.2396 90.1475
116.026 118.238 83.562
52.4992 214.397 184.065
50.5053 252.15 150.833
72.037 45.5139 127.834
47.2729 246.642 151.864
54.5815 247.593 163.843
37.3488 48.4166 71.9151
34.5014 135.561 41.4804
100.774 106.516 112.357
98.4961 181.662 128.58
9.97252 11.6885 3.0507
55.7495 82.428 84.0849
117.423 124.404 76.0952
102.155 72.8433 66.6616
100.051 67.0145 122.307
111.11 114.605 93.3318
39.3136 209.876 169.478
69.7131 53.1501 142.276
95.9227 189.225 118.771
29.2682 108.748 38.4586
111.558 164.217 91.8164
22.1733 15.9403 50.7341
92.1632 84.7608 48.5694
101.155 182.266 17.9109
33.7062 159.646 58.0482
54.9335 87.7313 80.085
82.8895 149.508 37.6789
106.103 160.758 65.7971
38.4559 151.793 44.1183
41.5861 229.947 133.863
36.6468 73.6868 76.6382
99.2069 127.368 121.956
73.324 156.395 115.663
58.6576 165.922 97.2509
54.1505 172.116 99.5207
63.3524 256.569 139.321
46.0171 118.856 77.7779
47.0683 239.103 178.786
4.77551 42.9202 20.3869
95.3354 103.821 44.6328
58.0315 155.368 160.944
69.45 101.698 94.1235
106.479 84.0562 63.853
110.2 126.889 59.4072
35.0323 236.93 137.1
44.3443 256.139 135.744
111.089 101.041 94.5685
60.2582 183.11 121.021
36.456 233.952 179.978
114.152 135.709 99.2719
30.0516 3.05653 47.3639
67.9514 247.437 135.332
32.9658 231.52 136.074
64.1641 83.3618 98.0737
99.4609 169.883 63.8616
43.7058 218.188 152.55
30.31 136.665 68.4841
67.0996 123.313 91.6451
33.8309 62.2297 64.0876
45.0341 245.07 132.183
68.8747 231.509 173.492
53.3008 132.871 162.504
42.11 236.048 192.568
67.8025 254.74 175.584
35.219 235.221 160.322
107.161 176.319 106.908
81.9758 60.4026 60.4907
44.3291 63.5077 89.1084
58.2838 111.119 28.6964
118.57 142.426 89.2601
43.2501 58.9404 112.331
64.3379 236.12 160.906
87.6366 48.5304 90.6993
74.7283 141.563 113.967
33.4832 68.4051 53.4768
111.063 85.3374 83.1653
106.598 155.863 61.7608
115.748 151.348 88.0863
33.8822 227.52 186.9
36.4595 229.021 139.96
93.1136 195.952 12.5513
58.7208 163.584 41.5658
87.3626 67.9708 57.3195
64.5864 118.627 87.7068
46.4768 246.035 176.145
6.6066 1.38262 14.1115
74.6745 115.231 100.124
43.4751 134.328 84.6832
73.5863 103.229 107.943
39.173 240.672 169.306
86.0588 55.5974 128.297
48.9496 212.606 159.813
52.0572 178.926 99.3611
112.721 102.285 88.1833
84.2762 175.146 18.4034
98.3054 96.871 48.2289
91.8767 179.254 13.3747
41.3473 65.4754 84.3812
39.7836 81.442 74.4887
82.365 140.316 169.908
106.901 174.077 96.0634
48.2243 245.657 125.908
105.304 140.986 117.175
35.3507 247.307 147.655
33.5636 238.41 176.667
52.37 242.709 173.109
76.9605 155.122 39.9734
97.4018 134.121 40.4724
119.804 118.038 56.4836
70.0676 115.156 32.5623
55.9308 255.83 172.808
94.2944 189.636 1.96347
63.6848 139.455 129.867
95.1193 54.5625 91.099
34.6833 242.92 145.099
115.835 141.621 98.5104
54.7005 223.801 185.422
90.3749 149.441 43.8807
60.0304 85.5243 37.1617
54.0963 243.471 184.984
42.3327 233.745 148.946
43.9237 249.948 168.471
9.38524 145.862 144.313
49.4552 242.304 136.928
27.7702 1.32235 74.0318
108.085 76.9897 71.9344
44.0759 240.318 190.357
84.7132 189.89 15.0791
61.0842 245.854 192.817
73.7194 130.044 117.184
108.231 158.294 71.4844
39.7219 238.706 144.169
54.6949 248.672 143.477
53.1403 218.196 157.054
109.958 168.685 95.7541
61.7448 218.094 184.135
57.1322 152.852 142.366
88.5754 93.0764 86.2509
45.6529 244.831 141.572
71.2887 107.064 95.3155
93.5794 96.1577 85.1939
97.9029 165.623 55.7841
59.6239 115.632 134.518
36.347 26.2226 16.0485
55.5495 211.262 161.556
54.3013 239.684 178.637
36.9655 58.5914 59.925
76.3613 141.796 173.45
64.1785 100.642 82.9708
63.1241 237.403 177.563
40.6254 249.612 161.296
89.0421 61.6989 65.1407
32.6473 234.175 154.864
115.917 130.999 70.0487
58.5887 214.994 173.515
90.9612 159.364 42.4594
94.5854 117.163 37.4477
31.7655 276.496 132.881
96.7947 113.11 41.1502
38.6354 243.279 177.53
37.1389 229.859 154.633
45.7055 218.074 157.677
57.6312 142.531 94.3717
54.3168 215.847 166.121
84.2294 109.953 34.9701
99.7002 186.112 5.91341
106.249 104.499 105.273
109.234 106.463 98.1272
62.1572 216.266 176.669
22.5705 15.4602 41.3886
98.6177 98.943 84.9454
59.8075 168.639 44.8846
32.681 249.276 174.127
85.4938 150.572 161.508
87.4322 177.525 15.0913
33.9562 243.479 164.328
95.9776 172.473 57.5706
67.387 242.385 174.768
57.5507 222.919 162.08
100.869 124.74 40.4136
105.208 171.894 116.294
104.051 145.523 56.3916
115.336 149.493 102.497
36.8944 67.7847 79.6476
96.4751 67.9536 63.3162
66.2783 53.434 62.8281
43.1939 229.627 144.696
91.1022 111.374 39.7612
38.6397 241.783 153.855
112.062 141.058 62.6771
6.82628 36.1846 1.26482
101.595 182.147 13.013
34.009 1.42993 69.4302
94.8879 55.9545 84.408
24.1854 2.75285 42.212
62.2279 265.35 158.031
40.8668 244.256 185.382
38.2519 235.777 155.04
25.0081 1.69965 16.7365
71.4812 150.145 137.35
61.6917 218.067 167.556
110.01 90.9644 97.7658
72.3609 117.264 94.7891
11.8884 2.4716 1.19813
99.8661 91.4241 96.2626
86.7374 142.444 39.6979
33.0304 242.134 154.29
85.2441 128.705 168.236
48.9972 247.568 170.85
58.7889 108.855 135.609
6.62548 7.528 1.49439
70.3218 88.4509 41.2373
93.9349 91.8163 85.5211
110.843 149.686 108.197
117.184 134.29 91.4194
111.151 121.325 95.5194
73.2522 148.354 140.715
89.6126 175.593 58.9354
85.4465 156.386 43.2765
113.833 127.271 93.7849
93.1066 175.752 142.43
