ply
format ascii 1.0
comment Created by Open3D
element vertex 1201
property double x
property double y
property double z
end_header
37.367 301.078 194.166
31.4084 218.964 81.3599
32.2048 121.903 87.3031
37.6639 77.6508 243.467
35.3705 89.7499 232.489
43.7729 74.175 311.727
33.2296 43.9149 268.398
69.9121 75.6146 245.025
46.4479 158.185 300.524
52.4329 141.873 70.6959
31.9127 166.374 59.6231
36.0705 98.2888 262.934
31.5997 165.793 112.807
47.7322 33.3269 197.15
32.8824 177.72 61.9977
48.0288 272.247 229.335
92.1578 143.035 276.755
73.9829 86.1941 315.751
56.5492 153.325 176.004
32.5573 224.173 118.022
65.1868 60.5034 224.353
31.6166 185.298 76.0946
33.3716 277.19 219.948
31.7833 46.4466 248.181
73.7303 48.0434 305.454
30.9803 238.777 92.0909
56.6247 307.085 192.693
37.2739 84.5536 277.589
30.9952 135.715 107.652
37.7728 112.024 267.19
31.779 228.592 103.718
42.5344 165.74 238.662
49.4045 56.0619 182.926
72.076 167.421 240.482
35.6074 60.1747 247.82
70.4489 153.63 294.93
46.8179 22.2342 253.243
44.7912 274.093 209.591
61.3219 299.17 215.862
64.4404 37.598 261.459
31.8055 168.034 84.4839
42.5028 82.8347 307.826
38.9215 107.28 251.298
63.3827 70.9153 316.214
30.5419 232.293 72.7646
73.2901 51.8528 314.517
60.5883 35.7219 216.973
62.7224 81.2405 317.332
64.4244 64.3657 248.551
50.7276 302.588 190.072
75.368 128.725 240.303
30.395 125.276 117.561
36.6645 91.0941 272.477
50.0558 154.841 63.5102
34.3113 57.958 201.745
40.5144 182.427 25.2036
31.8796 144.866 136.745
70.5778 165.442 280.864
35.0132 103.892 271.002
78.5089 226.944 80.1833
65.8996 70.0588 187.537
40.6975 98.7163 191.315
30.7808 224.771 66.6983
66.0068 86.1633 182.316
31.762 176.307 93.7447
31.6446 297.719 213.747
31.5504 29.2006 236.958
36.9011 159.587 172.233
74.3708 93.9874 310.953
31.312 63.4921 207.218
48.4072 296.831 225.059
30.2677 156.231 76.0532
55.5694 248.576 82.3992
77.0273 139.178 286.736
32.9292 214.88 120.054
52.624 24.2559 212.632
62.2834 32.0383 268.938
47.885 120.849 108.054
42.0893 157.841 136.351
38.9237 56.1812 187.751
67.0269 39.317 287.551
41.8622 23.7513 266.971
64.7094 59.3819 258.778
62.0033 32.258 281.21
61.8482 244.284 89.4653
31.0404 177.605 84.1423
60.6442 247.512 123.455
91.3951 72.1716 268.505
67.9942 110.624 290.676
32.596 178.64 103.729
55.3911 26.4705 259.225
74.2712 143.158 230.917
62.9402 242.184 110.269
40.4839 184.779 124.796
33.2058 187.963 133.148
50.892 127.406 62.9972
57.6338 24.4245 269.154
53.5347 77.2371 312.352
60.4549 169.405 302.217
67.4153 63.266 319.993
50.803 99.8505 303.356
29.9788 225.891 77.562
69.8295 237.286 94.063
31.1218 171.797 39.7918
46.1386 264.438 217.706
35.2567 152.962 287.505
62.1802 46.8069 253.124
32.0007 239.169 66.0019
35.7277 46.8262 197.981
33.9078 35.3454 270.198
43.6895 121.63 127.546
33.1303 81.1895 213.195
42.6113 74.8626 179.507
61.6939 68.0728 238.404
45.2932 302.147 186.205
32.7966 49.4706 205.84
70.5208 229.026 64.8947
66.0064 288.901 191.007
75.9305 118.545 290.107
57.2001 61.5116 310.371
36.0537 54.4194 294.299
32.332 174.6 71.5176
73.6322 126.76 206.399
38.4133 65.862 259.883
30.9151 210.842 132.221
32.6696 180.099 121.896
75.4572 73.8526 221.9
68.223 120.268 294.907
32.5212 187.104 102.799
66.4936 68.9903 260.658
31.3719 165.817 99.0016
36.4822 86.2021 266.576
75.267 81.7198 188.052
84.639 205.597 109.662
31.4731 172.874 133.8
55.2004 156.738 304.066
92.5597 204.165 130.067
50.2385 193.509 62.8406
41.0417 184.439 104.532
45.33 155.79 179.496
31.5057 220.647 94.8269
90.5814 151.025 269.082
79.1704 100.103 305.7
40.5396 29.3106 213.007
71.4692 149.973 249.88
31.3353 151.769 95.7264
58.7584 305.029 201.098
56.4858 54.3542 314.136
73.49 49.8891 295.744
39.2383 33.4256 224.169
29.3021 167.645 275.955
34.5377 31.9721 252.392
59.2592 173.638 241.721
58.0745 23.6411 235.65
38.792 123.136 263.985
59.5028 118.255 208.07
41.1328 32.6769 205.941
53.4315 168.879 47.9586
41.7009 133.673 268.441
52.4215 232.118 147.545
49.3478 208.36 157.854
47.16 130.417 139.266
57.0112 24.7284 227.446
83.2254 81.1957 199.676
61.2288 34.9034 294.976
72.361 103.975 186.507
61.0772 52.6489 234.85
67.095 38.8289 296.987
66.5649 104.892 297.963
46.468 105.821 192.56
48.5853 24.9847 277.627
53.1027 38.2713 190.48
85.1852 96.5025 304.962
60.6345 114.399 294.047
31.3147 163.227 159.697
54.0228 187.544 145.569
45.5008 18.6522 235.301
33.5293 203.015 130.086
73.3199 99.9944 304.997
53.6903 93.0274 309.566
59.8213 41.8722 190.794
58.9027 125.726 218.733
47.1429 19.6416 243.666
75.2137 120.429 193.091
60.2655 136.09 227.921
63.2749 168.838 238.338
67.1013 239.786 119.738
66.8496 55.5259 317.29
76.2373 230.953 98.076
54.1887 49.0818 184.455
54.6513 24.0765 275.315
31.4071 189.924 143.7
37.4913 58.5799 258.354
55.7721 84.5536 310.726
31.4978 136.049 143.004
91.6853 94.8917 210.306
31.1298 157.538 86.6836
75.2905 109.728 292.419
30.984 157.562 101.398
30.3485 145.203 62.0397
47.8691 110.203 221.243
37.0007 96.8998 197.5
76.9824 95.26 189.035
32.2383 153.914 114.118
46.3671 170.839 256.412
79.1743 107.48 300.447
50.6995 255.568 96.3849
43.9823 52.0979 186.71
45.2371 159.38 235.386
68.3471 238.953 103.161
73.5144 82.7521 205.449
43.9524 168.365 71.8186
66.7462 126.328 274.68
53.6902 242.077 135.148
32.0294 199.589 136.083
30.4545 296.495 204.088
66.2015 139.601 245.15
41.3921 155.546 241.074
65.9052 136.517 267.978
46.8928 117.994 84.4702
61.3426 238.875 80.0075
31.4903 161.761 125.745
44.126 105.671 291.716
43.2886 306.251 206.359
51.6399 125.035 76.7824
47.1242 149.863 266.354
42.3904 92.1573 250.379
56.0705 103.356 300.711
55.139 25.0617 219.713
58.2005 34.5995 196.068
37.0944 165.896 281.611
59.2519 199.486 65.5324
33.94 292.348 192.085
46.9399 22.222 266.348
71.2432 233.498 85.5774
34.7397 163.94 247.439
88.2185 220.72 91.0564
60.1482 297.782 223.473
33.2604 55.4783 285.934
32.2482 80.8657 288.748
33.3454 236.151 57.1511
52.3173 193.007 140.114
49.042 104.432 185.789
49.7367 253.006 86.1066
49.444 119.972 232.272
31.7647 144.456 98.2499
29.8913 216.913 69.6377
29.9699 130.623 75.0625
31.1002 221.908 58.8847
56.7615 138.786 244.328
76.2073 183.471 172.907
54.3914 231.631 49.9014
45.9196 303.387 219.057
48.1631 138.267 156.163
85.9006 211.546 158.25
36.4057 84.1708 251.812
35.729 82.6885 185.522
93.028 91.6083 226.038
55.2509 156.058 45.2919
29.3902 133.745 80.7442
40.8364 159.506 294.293
59.3752 86.8556 181.27
50.269 43.7768 192.464
38.4593 37.4804 262.855
38.9825 47.2582 297.066
54.4505 170.947 260.829
50.6669 133.725 116.964
39.0979 272.71 207.89
30.9662 138.542 125.797
61.6561 31.099 255.809
56.5212 70.5019 180.043
75.6431 61.1456 284.523
40.9918 253.905 97.9639
29.8171 147.057 73.7059
81.2333 91.3778 198.197
36.5998 86.1366 301.733
58.167 202.615 132.016
52.574 77.8648 179.463
76.113 132.82 277.288
67.5137 67.8575 229.282
40.3926 169.605 100.789
99.3068 138.019 253.873
35.6878 64.585 294.99
92.1487 108.5 295.059
39.7025 254.228 87.8366
34.6798 55.5311 229.252
45.1256 84.9587 178.63
38.9928 101.494 205.64
52.3453 226.336 138.737
37.1119 52.5819 253.72
56.4114 44.4892 310.161
51.9655 278.22 229.329
60.926 116.435 264.247
65.3138 172.364 38.8518
51.7254 246.755 122.994
33.0365 151.916 266.395
38.6126 168.509 116.875
92.6133 114.966 202.68
34.0979 200.72 95.3642
46.1483 190.232 134.55
46.4079 280.587 229.816
42.6785 187.642 94.6798
61.1727 29.6819 237.662
58.8844 157.391 26.7081
29.5463 301.044 244.494
52.6361 19.9951 234.718
50.0886 111.021 291.634
56.0327 35.6312 300.718
43.7586 275.395 197.319
67.2765 170.366 175.151
58.3431 102.448 183.4
35.5818 80.4254 232.467
31.839 155.639 67.8889
52.2049 28.1142 283.961
58.4738 93.9693 181.144
33.443 41.9382 278.974
30.3621 206.775 141.966
34.8315 273.51 213.756
83.4515 115.944 211.973
60.3649 52.7273 184.11
45.0483 111.426 207.372
73.6103 49.0094 285.331
65.3003 193.867 150.969
37.1723 139.669 166.277
44.8187 148.216 177.011
31.7754 239.017 119.11
67.8956 236.627 75.4729
52.2321 128.069 109.609
60.2522 159.132 176.504
46.9898 141.452 35.3641
28.865 170.769 297.707
44.5636 189.856 67.1727
44.3377 182.86 59.9856
91.9575 124.946 288.82
44.3871 119.098 118.953
81.6432 47.0049 254.406
33.759 192.652 95.0181
96.1706 95.5535 217.615
48.9239 200.093 162.456
76.6616 132.16 288.379
34.8232 284.186 203.151
37.4593 59.2519 242.195
62.4803 58.6563 232.65
33.786 190.834 115.225
81.5953 65.2107 277.939
39.3869 21.5238 253.856
71.5526 59.0981 271.891
66.5799 136.744 229.273
52.2612 48.0355 307.368
82.8907 141.689 239.979
60.4247 76.7679 184.096
62.0409 161.384 33.7625
81.7866 78.5144 313.656
41.279 164.743 93.4037
50.3071 115.647 211.401
30.5637 201.171 154.842
60.279 61.009 317.974
69.8687 47.5164 212.234
39.9761 266.861 214.694
43.9076 307.618 193.981
41.0833 176.102 136.178
31.655 246.623 106.606
34.9626 77.6794 298.506
53.0822 277.189 204.454
73.1344 195.901 152.465
31.7107 156.077 144.17
69.2789 117.381 191.507
52.4402 132.444 226.96
83.2597 88.6956 310.991
75.7628 180.355 37.8861
85.4717 139.038 287.073
42.241 27.6647 278.055
40.4928 282.473 229.257
68.3627 99.0469 302.112
62.1647 295.953 189.297
54.0482 153.319 161.63
65.3149 95.8642 184.815
73.2662 62.8879 205.147
38.1804 20.2777 232.788
99.7774 105.132 244.961
40.2948 292.584 196.554
56.7332 163.661 292.875
45.8538 174.468 142.932
41.0521 181.866 81.8113
30.0484 130.864 96.9568
37.5998 29.1505 273.128
49.0604 203.784 148.023
37.7717 75.1207 255.845
62.7577 137.719 236.431
63.1321 111.157 188.21
62.2807 94.2356 309.871
34.1409 174.747 271.92
84.7947 78.3487 255.101
39.3724 40.4204 290.046
42.9567 153.17 140.594
52.5968 237.71 54.9299
30.2473 215.451 54.639
33.4874 27.2613 244.735
54.7795 145.167 42.5078
34.9753 79.0499 272.477
31.5962 165.018 69.1695
85.1072 203.471 119.058
90.0421 125.314 221.171
32.1729 193.989 70.6898
81.8276 132.181 258.801
67.698 36.7284 275.604
45.9518 90.414 308.893
35.5985 151.509 253.435
43.5602 266.263 224.001
33.5646 60.8684 278.354
53.0986 21.9922 248.914
47.2297 112.064 198.171
68.0602 71.4394 237.272
83.2933 225.783 110.279
55.5143 266.636 215.619
44.17 172.395 61.5479
83.7444 194.766 166.786
57.6294 271.061 228.815
38.9699 45.4715 209.065
32.3926 137.477 152.439
54.1296 297.927 225.15
41.1694 96.3193 184.309
42.7454 137.255 247.453
61.0345 228.188 50.456
91.7808 113.736 212.038
82.2205 110.051 289.121
39.246 168.555 128.377
62.4934 282.099 195.095
39.9226 222.99 137.119
76.4426 203.082 60.4489
41.9978 190.516 114.417
65.5796 63.3827 191.521
32.3671 199.775 73.3523
68.5872 122.141 211.81
59.2846 70.2759 193.634
47.7151 175.59 55.3268
41.905 291.911 187.982
67.3976 135.729 256.098
38.6787 276.298 227.92
39.0118 20.6739 244.73
32.8935 122.935 131.019
60.5251 272.29 206.082
63.2199 275.511 197.307
78.5479 80.9008 233.918
60.9222 122.35 283.462
71.4286 178.54 165.131
75.6557 209.109 107.237
47.3307 180.719 176.67
56.4487 148.024 251.118
50.7855 121.027 93.0981
79.0741 209.227 75.2813
33.1265 67.9149 191.012
55.4048 302.814 220.418
59.4188 38.8388 308.081
49.5082 134.057 241.077
45.9999 41.9497 302.021
62.4744 37.5621 236.485
45.1761 168.915 302.682
53.5959 148.668 29.8577
45.2998 102.181 297.088
44.0243 293.015 227.127
43.4072 92.3802 206.671
48.3458 145.126 101.753
78.7152 86.2482 194.772
53.9767 136.279 62.9143
67.6015 47.9886 262.494
76.9519 182.158 29.452
31.0128 153.278 48.3942
70.8195 51.2251 270.969
33.0997 212.729 110.984
68.4127 274.253 213.329
51.6454 94.2548 181.518
32.8766 73.5858 214.251
33.78 282.38 216.601
49.1737 301.287 199.075
38.4365 95.0039 299.404
50.7645 231.583 130.474
71.1189 209.647 78.0568
36.5122 116.4 108.585
89.5408 113.624 275.036
63.3284 163.688 232.647
49.1957 19.3296 223.477
56.2489 164.872 246.237
39.6689 64.5075 303.497
41.8212 241.665 119.763
31.6728 246.624 97.7432
52.8899 139.024 50.4501
56.0544 110.143 187.746
56.3724 166.659 234.715
55.4745 288.795 229.114
90.2695 100.723 297.919
48.8147 28.1532 204.692
35.8344 269.777 221.456
55.3195 253.208 103.136
41.4205 297.225 223.158
65.8556 41.3858 199.079
72.318 130.524 258.424
36.494 174.313 263.694
51.8803 29.877 290.462
87.7458 137.031 256.207
99.658 77.4825 281.473
45.9538 85.0253 244.392
89.7338 90.6698 217.995
36.0112 97.7322 282.251
51.467 164.712 154.601
73.0971 141.622 248.507
54.1498 132.407 97.4476
31.5459 157.285 157.712
47.5627 138.824 129.645
69.2268 182.344 44.0936
32.5363 75.3132 193.984
73.9253 70.9272 258.384
49.5454 35.3322 295.388
36.1041 95.6217 251.219
49.3994 148.291 77.6355
53.596 174.803 152.097
32.4277 161.717 167.679
34.2495 53.2993 236.425
87.443 113.322 285.58
75.5224 67.2993 320.333
38.2039 131.853 50.9852
41.1497 173.63 76.1857
57.5859 174.212 45.9913
57.9941 239.189 63.8297
52.6325 145.607 168.956
81.1026 190.383 39.9062
30.5167 187.449 161.677
31.5536 150.885 150.712
48.0154 67.0234 315.044
61.5713 154.228 298.918
62.006 162.02 169.155
79.8412 56.8249 312.542
65.6153 47.1032 313.244
53.7847 181.372 148.914
82.7998 70.0408 317.87
47.9469 172.05 182.221
41.7049 289.313 214.743
50.4078 303.028 222.503
56.7729 161.024 299.22
32.053 130.215 137.242
94.065 68.6234 289.308
34.6746 126.136 63.3016
52.5368 202.706 25.5199
47.7634 129.663 50.8688
67.12 169.823 290.334
44.1988 45.9243 193.984
51.4076 162.469 182.716
34.2469 63.8562 270.516
30.5298 158.509 132.14
54.1962 137.157 233.582
66.3815 200.545 63.64
31.8097 192.602 80.924
33.3876 51.6072 271.603
64.4203 288.916 219.388
71.1895 163.861 290.341
40.9311 159.435 124.95
40.1471 65.3869 183.66
57.1147 26.6263 246.517
40.6123 284.457 187.317
66.0572 239.974 88.3807
58.3215 169.215 158.303
33.7916 58.5509 218.184
49.4456 147.748 156.608
33.0785 37.9943 208.832
38.0209 128.579 255.212
36.4116 126.906 149.683
67.8911 49.3692 196.072
45.9555 148.839 114.447
91.993 103.95 202.654
31.3417 36.7027 258.231
48.2378 66.1096 180.057
31.5254 153.989 82.9116
94.9999 82.5302 308.233
33.7267 154.894 258.113
49.8597 306.349 208.076
66.0978 123.513 203.189
47.6329 125.315 266.694
31.7849 137.273 48.4067
35.4322 70.4948 298.163
49.6756 290.655 228.369
47.4047 104.024 235.05
32.7264 247.981 76.9182
67.8037 203.526 71.8112
34.9006 80.7466 261.961
37.6227 103.816 280.696
81.3636 126.321 212.459
40.9598 201.537 27.0016
75.1119 126.839 266.802
51.7788 198.604 71.8711
104.831 100.107 257.114
30.4862 238.861 80.0549
37.0462 64.0696 236.723
50.2071 163.579 231.88
45.8494 94.0066 181.915
76.8723 212.004 93.5367
93.6563 212.673 135.885
43.7325 109.013 237.582
87.7435 115.95 257.225
40.057 101.55 216.91
37.3163 139.118 40.5137
46.6109 277.488 203.163
49.0911 157.165 244.057
32.9382 77.1692 281.109
98.5128 103.089 216.577
39.0265 37.4681 203.613
86.8328 88.8764 227.424
61.29 173.931 184.266
65.1467 172.831 161.145
85.7335 133.204 283.538
43.8388 151.288 125.71
69.5866 184.854 156.755
77.2459 60.619 317.863
45.1628 157.505 77.5963
34.3641 76.9761 203.79
42.3743 115.691 91.981
44.8541 24.9767 228.696
48.6217 160.502 282.223
46.6662 84.2793 313.412
84.3765 71.3623 263.667
98.3381 72.891 290.419
60.7733 31.9857 246.648
36.716 284.088 193.052
43.0783 29.6529 284.312
68.0486 41.1366 303.883
50.5488 157.183 156.677
71.5087 175.483 30.7687
55.9367 111.46 297.888
42.8609 72.28 299.889
52.3922 283.92 228.996
63.5922 145.382 253.686
59.6566 246.166 134.688
62.4558 215.371 166.45
31.4752 142.327 117.398
49.7024 26.9092 263.657
33.6034 198.417 66.4702
69.4262 219.432 45.0977
41.5058 103.013 198.527
84.9018 58.0077 307.78
48.9108 52.5766 306.632
38.9889 99.092 293.279
41.7248 128.341 238.383
57.4791 28.6278 204.756
45.9706 56.938 307.67
34.7648 91.6032 205.917
31.6209 154.966 278.953
46.7105 156.208 291.732
31.6526 195.938 86.6643
64.1997 119.794 197.222
70.5998 67.4794 219.79
35.5347 47.8525 220.457
33.6084 160.255 255.078
75.3407 56.0518 279.201
55.4642 254.195 110.214
74.8852 76.1429 317.72
42.6671 159.808 85.4796
53.0233 128.379 90.4483
57.7846 277.353 224.231
70.9593 43.1796 284.277
53.2231 181.938 181.481
54.3675 146.975 57.902
100.952 113.096 220.603
65.0786 44.8141 307.524
33.5706 205.596 100.339
44.5524 106.713 203.456
60.6651 204.71 76.6469
37.4333 157.795 247.078
60.5523 273.047 217.898
72.473 164.927 254.706
68.5755 165.658 297.027
55.1378 294.769 203.373
86.4596 93.0983 204.116
99.4151 99.7231 223.662
45.8353 149.616 293.632
30.1891 174.421 160.694
54.3889 152.452 280.202
45.553 112.635 243.279
88.9518 105.864 272.627
29.1329 153.034 53.9334
39.3121 110.768 277.622
65.2129 57.3662 195.099
65.8184 43.4992 215.595
34.1022 53.7115 194.827
33.9357 81.6763 196.043
55.4643 68.3182 314.525
39.1362 189.668 157.431
31.7965 38.0643 241.63
34.1087 58.4011 271.834
53.2136 124.522 101.44
49.3228 119.689 280.958
50.7952 217.963 154.449
62.9787 48.4045 190.843
41.0804 252.702 79.6444
87.9053 121.749 280.604
33.9975 206.958 151.272
54.0229 125.797 285.332
59.036 28.997 287.764
50.4855 268.383 209.202
62.894 35.0234 207.243
69.4196 132.776 216.811
34.6695 87.6653 212.418
49.7322 169.379 244.405
72.8064 88.0724 190.327
79.7647 144.262 279.135
39.6876 85.6892 258.874
53.714 204.919 171.23
48.1519 210.664 28.5352
62.0005 307.128 209.306
60.8858 197.876 143.292
57.3059 159.099 40.4544
42.2609 48.3414 202.418
58.215 114.606 286.975
67.0869 51.5844 220.887
52.5034 120.111 220.5
45.5535 38.2194 191.179
30.8764 155.962 60.1532
72.8622 55.2406 203.494
69.0868 60.0472 216.14
44.7599 287.027 227.085
38.9757 289.492 226.889
70.2721 71.079 319.868
39.0976 159.493 255.056
52.4828 118.503 288.586
36.6755 90.3209 191.877
33.7189 70.4229 274.538
42.6069 173.786 266.402
48.196 172.964 261.917
47.3012 156.935 148.555
64.3135 120.2 209.709
59.7126 241.929 142.845
40.79 119.871 244
49.2557 161.384 275.225
57.3268 163.908 229.842
33.8146 203.776 111.65
65.28 281.677 210.117
38.3108 115.504 254.792
57.9089 62.8848 181.622
83.4571 203.874 128.394
33.6831 209.438 104.068
98.7627 97.3548 247.867
47.0895 184.695 169.669
54.6513 307.762 211.698
36.3099 94.5023 290.656
40.1436 121.426 138.055
34.1885 83.996 221.424
36.709 287.589 221.981
44.6422 63.5695 310.517
32.0705 69.1556 284.956
57.4881 155.443 257.371
30.1433 129.666 68.0458
30.039 225.234 132.235
62.2157 154.382 278.099
89.3683 72.145 314.097
35.5167 91.0395 239.095
50.5833 128.935 259.304
53.7579 135.494 76.8321
92.9753 91.1955 246.185
34.5983 216.606 43.9594
45.9622 150 89.2513
39.203 131.006 248.423
78.8793 75.1846 258.558
95.2915 72.2634 299.144
36.7786 303.221 208.279
85.2231 221.346 71.9142
36.6163 93.5635 214.653
49.8265 155.005 250.868
73.6999 63.651 191.38
89.4139 126.896 261.219
40.7009 119.352 257.42
45.0313 171.85 271.34
45.1567 141.323 172.629
54.7839 163.459 274.56
50.9338 194.815 174.034
45.0466 128.514 150.325
40.9666 90.8615 304.174
36.8767 306.983 197.84
89.1842 75.6452 260.468
63.3001 182.61 155.19
68.134 46.9076 275.613
41.1481 124.873 58.361
31.7369 70.2646 205.763
87.8085 89.6331 238.941
52.5699 136.552 87.4791
106.297 112.015 250.15
50.2485 166.392 237.236
42.7675 173.098 23.8001
101.323 91.3664 292.223
92.5774 96.2837 236.01
102.744 140.936 262.508
46.5113 96.4844 305.983
40.9514 57.3732 298.585
98.7949 211.181 90.5653
29.6054 174.691 52.5057
35.818 163.761 267.414
52.6915 224.358 156.932
39.3301 73.7956 233.539
71.8929 72.3591 230.833
58.6302 300.071 205.735
68.1499 42.858 206.593
61.6316 299.206 196.871
91.5818 124.353 232.383
36.5232 280.329 208.117
95.6622 104.844 208.089
62.6192 50.384 242.062
86.7467 120.605 263.915
88.0367 198.739 47.1865
38.3202 299.483 202.772
36.9572 166.624 260.038
55.056 277.92 198.783
53.6629 290.455 185.078
45.922 164.766 249.032
44.8741 161.068 254.624
104.95 97.7223 279.396
31.1856 131.852 59.2077
79.3123 53.4251 294.118
96.0849 79.0412 275.507
53.0107 164.8 258.044
60.0234 284.383 226.647
84.6318 128.777 290.811
70.0273 207.868 118.421
53.9593 171.634 290.053
45.1309 146.501 137.668
31.8731 156.8 118.671
57.3221 131.607 261.186
34.0907 50.5818 278.676
89.8098 81.2875 314.394
33.6451 177.97 166.206
61.6481 296.232 208.808
30.228 147.455 127.431
45.6972 22.5591 212.021
40.0553 119.795 238.031
62.4817 166.085 181.023
36.6526 96.042 275.848
38.8966 119.365 248.919
63.4516 164.042 292.971
41.7796 242.121 57.0292
52.0143 265.748 221.022
76.0218 205.728 131.118
79.4464 59.571 299.148
40.0588 176.163 284.304
76.7288 67.2339 267.614
48.7952 201.436 118.736
32.8254 181.564 32.6824
66.9004 176.803 22.075
43.7228 301.416 199.33
33.9532 158.609 270.224
42.8389 181.666 162.5
48.5558 171.85 287.437
88.1893 68.7294 277.426
66.4777 202.505 139.261
46.4253 193.865 153.135
31.5082 204.158 80.2148
51.6856 149.256 273.772
100.804 78.2092 289.368
42.9609 164.745 177.875
105.695 92.5242 274.353
46.1986 306.338 213.106
42.0034 230.301 130.506
42.5372 123.106 251.553
92.136 132.673 281.325
67.1612 206.553 127.414
75.0185 197.691 53.6685
62.563 46.7366 223.057
57.9977 183.558 49.664
35.1405 197.854 109.629
32.7768 62.7332 284.96
34.756 65.3796 219.258
51.3866 127.652 278.301
42.3874 119.87 72.0094
60.4944 37.4629 243.7
62.7764 305.828 215.977
103.867 85.8491 277.701
76.6138 77.0406 194.258
98.421 85.2376 269.127
80.9478 120.991 261.807
59.0246 197.678 177.059
86.9206 65.0298 314.071
36.7029 68.9562 241.373
105.776 98.5255 264.855
33.0796 286.788 213.977
36.3134 290.594 207.485
42.3173 148.901 30.8852
39.4042 300.808 217.485
83.0431 61.4833 289.764
61.8765 208.556 109.477
64.2234 37.9043 202.977
43.3334 115.505 101.615
40.2769 86.9323 243.62
35.5724 212.478 146.498
49.7874 172.874 278.534
70.9436 43.8599 269.693
84.9349 157.42 243.394
96.2894 77.3473 266.138
44.1813 64.0517 182.366
98.3185 110.101 212.763
71.3119 63.9833 213.309
68.5137 212.549 87.9747
38.9934 211.814 32.1371
78.1554 71.1107 201.929
42.0446 289.643 205.378
89.0818 224.194 110.681
36.8096 153.658 263.779
40.5538 167.964 295.356
25.7976 169.221 293.771
34.0181 81.1414 207.048
69.0927 48.0217 202.642
59.573 162.307 253.12
102.196 83.1549 283.979
41.0249 303.28 213.492
34.8639 207.59 35.0554
82.1679 122.804 221.314
48.8565 171.165 268.34
43.6959 134.678 164.443
48.869 154.066 70.2117
36.5194 199.453 157.358
66.8201 223.393 50.8591
78.5449 73.8343 211.373
51.7159 165.699 253.091
68.6505 126.165 284.74
69.2967 91.6128 187.202
81.9345 122.739 196.612
33.2674 172.91 282.883
32.3051 66.3297 199.067
80.8579 196.376 48.7917
35.1537 60.9754 190.391
45.7094 141.855 270.681
62.2201 139.783 280.408
65.9501 41.6511 266.884
68.2845 174.353 180.005
41.5673 174.156 289.119
50.9287 266.693 226.112
34.6316 158.029 275.599
57.6847 267.976 221.347
42.4891 102.971 223.669
87.2801 61.2997 296.713
53.2942 303.817 198.671
86.484 84.9507 247.213
69.2443 124.721 221.103
50.7726 189.501 22.4233
64.1959 134.254 278.809
59.9951 289.489 223.672
102.455 110.257 231.089
100.296 138.796 272.48
93.0071 143.623 256.72
38.3913 169.534 273.687
78.8035 188.829 163.431
36.7013 37.3654 279.774
85.1194 86.7014 209.628
46.7319 212.212 140.813
31.0524 55.0548 209.368
40.899 163.772 26.0742
101.304 125.19 255.86
40.7292 247.075 64.5577
34.2839 152.01 34.746
90.6274 102.931 283.829
101.258 130.08 252.028
33.041 43.9803 225.641
96.4373 120.274 214.726
42.9436 22.7693 218.232
58.1182 151.11 277.272
33.2277 162.784 262.226
94.4797 72.6333 275.596
86.6941 124.209 211.297
38.0836 95.4689 232.901
93.2762 204.228 119.504
99.1591 131.335 238.336
41.5029 192.043 80.2246
69.9909 134.118 274.436
61.6552 164.227 23.3744
67.2138 294.631 206.641
100.126 107.025 274.367
61.5641 158.32 287.927
94.4404 103.14 278.349
29.644 40.8226 220.923
55.057 253.879 119.047
38.0017 84.8692 193.007
80.804 79.2276 209.835
44.0373 110.949 286.897
99.7388 88.9022 258.278
42.2722 161.81 246.361
92.9683 70.2316 306.291
74.0992 135.786 233.134
94.1877 125.381 247.162
83.2666 82.3842 215.753
69.5622 236.722 132.799
96.025 139.127 236.546
42.629 173.939 278.612
68.3578 131.529 226.345
73.3807 156.464 283.252
62.115 184.613 183.442
94.5002 80.6195 259.695
50.3134 155.698 271.009
46.0981 130.962 281.586
75.2462 142.596 258.474
64.7226 294.11 219.539
43.5378 168.458 282.819
50.8256 156.393 265.508
61.3522 33.067 224.039
56.6235 204.079 122.693
47.5756 191.434 162.223
73.2744 69.8186 192.256
80.2146 133.953 237.703
93.0035 84.5538 254.547
71.0628 59.0326 197.601
78.4385 81.4522 249.04
56.8642 137.086 281.121
40.6048 171.247 258.905
36.5381 97.8122 241.171
42.2666 285.269 196.894
65.9567 283.529 220.362
61.2398 280.756 202.63
73.5792 66.8019 198.427
105.57 107.6 259.376
67.2045 231.02 153.613
42.2958 171.5 172.114
68.9268 77.1942 192.824
95.5555 113.809 280.723
37.8401 194.515 55.4347
54.5405 292.088 195.436
61.8663 38.1721 230.202
31.2438 220.881 127.943
106.757 117.292 255.165
72.8089 232.566 107.944
49.776 260.465 213.154
31.7225 234.423 110.836
52.1756 144.864 240.32
58.8008 29.9278 211.469
92.3263 221.833 127.78
37.4449 70.7492 184.532
47.239 142.441 122.935
42.9614 128.67 244.336
42.4386 167.094 82.4512
46.3097 197.986 79.6758
64.522 274.611 208.659
79.5184 155.285 258.633
80.3877 196.214 157.65
83.6663 69.4998 270.188
92.5345 69.3607 283.021
71.7008 233.773 145.964
97.3979 112.37 238.315
92.3801 139.781 244.036
35.9636 69.5745 247.66
50.2752 142.134 82.8348
45.4346 149.399 95.0072
39.2903 295.926 210.044
98.4955 97.2684 230.191
36.0488 291.544 215.565
34.0193 167.024 29.9255
51.6973 307.009 215.921
71.072 42.612 278.707
40.625 75.8876 225.561
82.9553 223.79 147.873
73.0789 188.537 178.896
96.488 207.456 107.495
54.1104 178.649 20.9241
80.6544 206.054 68.3177
43.1671 229.238 41.9289
77.5952 118.261 279.78
40.1722 174.124 89.6849
66.102 169.231 24.629
61.8114 144.332 233.796
65.6566 141.388 284.321
50.7325 156.879 260.113
36.5546 194.213 27.936
61.1314 280.728 213.131
57.4852 268.531 210.589
87.4545 208.891 92.5844
62.3411 158.553 256.697
31.5127 36.1514 228.839
57.9729 127.845 279.423
51.483 223.79 37.7933
49.6283 164.424 292.499
69.0709 289.812 209.098
77.8861 154.755 247.324
45.4638 129.764 277.408
92.5626 89.7761 307.844
83.4486 126.543 228.565
103.102 95.1398 286.309
78.1578 131.277 220.434
46.6051 122.124 114.553
39.5218 166.526 252.252
81.928 114.739 195.553
70.9144 52.8833 208.75
91.8081 67.2539 296.743
47.4493 123.133 274.229
36.7641 71.5427 221.863
104.95 126.172 264.369
79.5128 217.606 50.1712
103.579 115.53 244.027
71.1717 143.98 280.388
92.7023 94.6815 303.022
45.7859 117.784 285.952
95.511 117.559 242.38
36.4809 85.4366 226.15
35.4491 101.941 256.932
53.0204 219.071 39.5483
62.0096 286.637 205.171
62.8304 162.318 302.646
52.8694 135.693 279.411
103.069 85.9063 289.055
77.981 164.55 247.529
48.1441 137.745 238.12
65.2582 209.728 32.4269
85.4031 98.4654 194.869
55.9965 293.906 227.27
34.5233 225.28 138.639
53.7847 272.524 207.28
48.4213 123.92 286.586
94.7128 119.46 286.78
65.6948 211.67 101.126
36.698 71.1048 226.48
88.3333 65.4127 289.367
54.175 190.467 55.1999
86.9705 123.687 203.41
93.4262 211.554 51.6873
38.8543 295.383 216.688
53.4506 168.054 280.511
38.6072 91.529 224.455
88.1371 149.76 254.728
82.5183 129.986 218.031
41.6633 161.382 275.248
61.5235 50.0261 228.009
36.8372 72.8315 288.571
36.8667 67.649 211.6
42.6417 125.15 257.086
63.8603 196.876 57.355
103.262 117.033 236.496
66.8738 146.833 277.862
104.187 134.905 267.382
103.399 90.2279 282.346
61.2835 114.081 248.355
66.1053 112.966 249.057
33.9773 201.32 53.1413
44.3444 263.827 206.035
35.496 27.2284 230.496
73.7663 155.847 260.193
70.4922 64.4162 185.485
103.445 122.236 248.625
86.9779 109.187 298.362
52.8413 306.963 204.678
43.8878 116.439 276.203
33.9207 210.188 86.4323
90.0612 207.296 148.917
44.8774 143.737 246.048
39.0556 83.5501 289.783
42.3716 219.96 34.5995
33.07 30.1562 263.538
61.0347 170.76 250.966
59.4253 162.238 282.552
67.1088 192.068 50.21
97.7153 106.205 233.757
91.1176 208.975 83.0172
94.0305 130.436 229.955
92.4642 138.205 283.254
84.7135 207.38 71.849
38.9229 159.274 268.508
80.9952 131.255 228.941
82.9202 80.1036 221.766
46.4569 169.525 295.967
83.5434 203.415 62.5086
88.7283 131.654 226.637
103.848 88.6221 264.491
61.6311 149.491 284.789
79.3688 69.0438 195.076
93.1929 153.299 249.343
55.264 171.128 285.768
32.8241 192.807 33.3922
78.56 190.354 299.009
86.4074 87.404 251.602
103.254 123.78 233.699
88.1092 224.69 120.381
54.9514 158.696 239.141
70.6934 288.563 214.748
78.4367 229.769 106.205
103.433 125.504 278.492
52.3179 161.067 22.4032
88.4249 64.5741 307.547
89.7357 204.838 41.979
64.9284 190.99 23.5717
44.0335 163.885 145.692
42.1781 282.322 205.795
76.3012 202.169 146.568
85.2161 146.258 248.414
49.8142 136.524 270.443
106.088 93.4928 268.72
89.2528 219.47 141.895
56.2751 277.567 213.708
55.1252 50.5066 294.141
66.7894 148.099 285.02
86.8124 201.208 57.7747
104.173 128.649 247.174
94.4045 204.938 61.7307
74.2007 202.768 32.2223
68.2173 158.641 280.545
88.0679 201.685 146.104
35.769 47.795 236.723
103.61 104.866 265.371
63.8137 289.365 213.469
87.899 114.788 265.758
88.5314 136.175 226.992
100.831 123.381 240.87
33.1634 197.576 56.8342
