ply
format ascii 1.0
comment Created by Open3D
element vertex 1315
property double x
property double y
property double z
end_header
30.5005 194.478 162.215
27.256 205.5 177.916
37.8378 244.792 277.074
33.9937 235.635 279.42
41.6907 67.9396 121.034
27.9985 123.719 195.659
27.0487 89.0415 245.903
28.2792 166.073 162.902
46.5082 120.958 77.5406
53.1585 263.511 253.125
43.1427 124.01 244.348
27.53 234.214 231.383
28.7083 153.987 189.35
37.7992 218.444 313.936
27.3777 104.641 201.83
45.165 119.104 229.558
66.943 143.774 303.96
26.9313 75.109 96.359
37.7316 32.3125 107.474
45.7417 102.029 37.193
47.7927 96.6372 115.044
28.0272 227.304 252.227
28.8937 169.314 281.914
26.0738 106.294 286.664
40.577 250.55 270.347
27.3979 223.882 219.034
26.3428 62.7443 94.4006
56.0488 77.6413 280.044
54.6214 125.052 82.7784
27.387 180.48 257.618
26.6915 114.183 223.75
65.7666 126.003 82.2288
60.9638 62.3947 78.0256
40.7427 117.627 159.797
25.2193 46.9348 84.1393
73.5953 85.2913 182.123
32.358 198.747 316.465
36.3942 98.4397 96.5399
54.9483 261.827 237.653
39.8717 115.074 52.9999
36.022 229.375 299.501
39.7066 163.769 270.623
54.9526 117.391 48.2519
63.4674 198.594 156.29
30.5493 180.243 320.81
80.7388 77.0803 223.356
82.1572 89.8529 249.431
49.2667 237.263 312.241
47.8225 171.293 297.809
40.5789 229.439 175.802
34.1664 150.615 153.739
41.4339 139.776 261.647
37.2544 60.8913 118.663
42.9366 91.368 34.1586
32.2697 76.7496 250.721
40.6095 174.287 274.14
28.767 241.317 210.145
29.687 128.069 183.247
55.3917 214.201 164.404
76.6625 68.0707 236.564
26.8181 42.3445 94.7381
54.452 179.233 148.171
50.8699 94.4583 31.19
25.955 49.906 69.923
27.4823 231.918 243.347
26.8433 108.444 212.112
27.9528 201.012 247.63
26.9319 201.68 201.152
30.7182 33.2781 100.743
27.6987 181.159 206.787
62.0533 19.2583 83.2971
45.9437 86.6728 289.519
27.4597 174.022 250.698
39.5244 94.2647 105.615
57.2985 69.7298 129.539
29.0304 95.6253 200.071
76.1667 96.2588 123.592
39.5961 145.336 227.191
75.0207 244.123 292.362
85.655 161.712 340.383
26.0552 64.7051 68.9439
36.1902 95.993 182.434
67.2903 109.204 43.6065
69.5343 125.157 72.1299
43.9057 126.917 253.158
27.1618 150.561 230.21
58.516 119.459 323.857
37.8781 98.7857 298.462
64.0184 64.3471 237.437
31.4139 169.541 323.394
44.8365 68.2746 226.375
77.2317 115.655 285.411
58.0974 129.42 329.961
27.6528 215.236 181.495
44.6778 30.6984 107.122
30.542 148.712 161.881
42.9639 179.01 217.744
25.4558 77.6885 68.1419
45.3753 191.851 283.394
88.6911 90.1949 284.87
73.0014 124.85 90.6886
44.1256 234.562 307.303
31.8849 205.955 311.669
45.6197 224.227 321.315
52.2328 239.688 188.814
64.17 263.77 244.534
68.2875 78.1364 284.392
73.0828 82.7171 104.33
27.4231 82.7368 255.831
48.0017 261.663 244.011
70.4088 116.371 150.868
55.9637 108.584 208.87
28.4086 193.56 243.367
25.9711 103.659 259.461
54.9258 250.629 204.368
26.1224 145.452 263.9
60.18 244.45 197.154
44.5923 184.421 285.819
28.2695 227.86 188.63
69.1251 202.579 304.945
41.3789 189.207 268.29
38.8866 176.802 236.831
84.4996 171.565 340.935
41.0803 168.2 282.161
27.9824 171.852 201.751
44.1883 176.271 288.31
73.1327 163.647 179.264
26.3004 120.967 204.645
39.9093 169.074 264.035
47.5459 118.265 50.7113
43.6856 235.587 181.273
47.3824 113.342 43.0812
26.7293 233.401 219.581
67.963 53.6082 57.4282
39.7073 148.346 328.891
28.9556 242.458 245.673
42.7815 105.285 100.836
25.1169 119.113 290.794
28.8782 91.3054 281.943
62.5644 190.668 152.997
65.8446 210.243 223.325
44.4672 32.4633 52.4521
32.8269 132.083 165.993
79.6297 207.754 330.658
42.6273 199.972 244.178
75.9735 82.99 115.17
26.8304 141.497 294.171
26.2247 123.815 221.86
88.244 225.584 204.818
70.8451 27.9215 108.973
44.5504 221.812 167.335
27.8442 166.615 175.082
25.9147 100.605 271.964
46.6796 34.8047 41.4288
25.9177 61.4098 58.5873
27.9686 188.713 272.537
26.3105 59.8725 47.5775
56.5967 74.0241 267.247
25.8121 61.761 101.794
25.063 62.0342 83.7899
29.418 118.249 186.893
48.9461 55.5915 24.496
49.3268 115.797 207.579
41.3201 126.34 222.713
78.9604 197.279 196.663
34.2729 88.2942 195.363
39.7528 147.717 264.137
53.9249 94.9808 122.418
32.7335 229.409 285.705
27.1542 176.143 237.16
49.5518 85.0128 26.2105
81.0375 197.767 332.912
65.4701 65.0836 251.128
73.2971 197.185 317.796
29.6164 197.872 229.794
52.7323 261.897 261.967
69.2063 212.24 165.815
29.0596 182.503 227.458
29.1177 156.611 166.433
27.4075 200.2 211.998
70.9534 68.486 264.248
67.6738 182.009 151.314
61.7142 260.779 278.609
26.7401 195.942 174.199
48.1899 247.088 197.69
67.9723 21.7717 100.793
71.7513 99.87 53.6697
68.3793 108.27 148.475
75.5712 236.952 301.699
77.1083 147.756 147.892
28.7799 84.4268 92.5894
30.1618 137.866 178.858
28.4565 210.032 237.911
30.9505 225.91 291.954
77.0077 32.3534 43.9738
29.5471 220.59 175.593
40.1264 76.2383 268.171
27.7071 196.537 273.115
34.1702 222.605 304.509
25.4079 57.3713 74.2744
77.6577 112.488 109.237
80.8193 30.8385 64.915
64.9089 18.3308 72.0568
79.5817 21.8427 74.6366
59.1061 150.415 179.121
42.9641 195.022 232.823
69.4662 186 319.205
26.583 158.137 274.074
28.8893 39.3497 63.809
66.2545 156.186 179.697
39.7198 112.119 87.8474
62.2475 20.3581 95.2706
29.0886 67.3014 40.8925
85.1875 114.985 325.697
24.9184 71.8239 55.8564
47.336 256.448 275.082
66.4889 188.654 313.115
32.9358 93.6185 288.845
28.026 161.869 317.494
32.6002 216.119 301.861
34.1966 205.222 159.843
43.1992 79.4028 29.1471
57.2735 50.8579 21.9364
30.3365 220.45 296.138
33.4506 97.9133 49.8537
27.6639 204.324 219.254
26.7642 155.379 301.165
32.6561 252.104 232.225
59.8535 116.563 273.422
38.9023 145.293 217.026
83.5906 194.82 185.505
78.409 106.75 112.309
27.1506 213.93 215.628
52.7475 187.206 211.113
36.7722 79.1815 207.657
32.8737 123.096 172.508
51.0458 161.981 301.818
40.3556 182.373 330.844
45.3218 201.738 156.281
49.9861 187.204 339.443
60.4732 193.053 300.424
26.6568 115.362 233.096
26.0403 131.06 282.665
28.0626 211.877 191.494
27.8725 145.285 318.199
55.0547 23.8421 98.5727
39.9705 134.912 231.405
53.6672 85.163 126.614
25.3533 54.9149 87.8164
39.2853 179.346 253.79
72.6752 191.4 199.901
39.7447 159.398 229.732
80.5417 29.4905 99.9937
51.2788 145.618 182.025
32.0025 250.86 240.318
65.7267 156.148 314.506
54.5883 172.034 306.033
43.129 161.505 204.013
27.0122 178.729 196.414
30.3923 99.8219 294.086
66.9526 131.641 293.843
53.7599 77.5198 127.571
57.513 256.941 216.692
27.9245 95.3914 77.3691
58.6607 143.873 293.949
26.4272 149.428 305.856
46.0621 173.139 208.929
64.5515 203.802 217.259
28.6794 246.372 227.769
26.9363 220.412 195.248
54.8486 235.001 321.218
39.3706 154.801 266.316
33.9552 38.9009 53.7057
46.5046 250.355 285.249
27.9888 189.403 261.774
59.6929 216.985 276.318
47.5953 89.7953 120.81
29.763 237.526 193.64
33.7813 246.735 262.799
66.8679 60.5034 130.858
38.378 177.01 227.556
26.6746 111.744 254.062
27.2466 241.821 222.244
32.9834 109.902 172.828
68.7759 95.5698 67.19
26.9546 146.274 250.637
67.612 60.6605 90.2861
58.36 162.012 190.012
27.0659 189.687 205.675
46.834 25.5992 70.4581
26.8132 116.101 262.083
27.2056 192.574 215.802
32.9765 140.532 160.129
62.3953 116.332 169.931
41.4407 139.6 251.378
76.8895 90.5328 237.916
59.5939 42.2908 25.4159
33.4973 233.233 182.644
28.7611 160.264 199.457
78.6388 214.089 324.205
36.7698 76.5101 116.299
82.572 71.5688 253.984
77.8443 20.9068 84.9502
47.1678 121.351 69.8178
36.5867 222.46 170.029
58.0354 138.525 336.149
55.5541 187.374 150.178
70.8395 65.6813 220.201
25.7277 101.539 238.036
51.0632 199.71 224.753
51.7574 191.223 292.594
58.0031 137.849 289.639
77.4396 227.379 232.144
25.3664 97.9093 231.38
70.9644 179.953 350.628
86.3213 153.394 340.607
41.7044 258.237 248.383
53.5287 110.087 224.198
75.8253 249.133 211.149
75.3098 40.9463 120.135
40.1421 26.6795 99.1983
59.4681 127.189 74.7516
83.5909 247.645 219.695
46.809 252.167 206.139
26.0664 104.536 251.11
37.3203 214.328 162.857
76.9539 144.981 156.763
42.2699 108.43 42.9514
29.0147 78.8436 42.2153
26.6629 195.75 279.682
25.8862 52.0943 98.0796
24.9647 96.0268 254.542
71.079 261.516 238.356
27.7795 161.081 252.511
59.9278 183.491 202.951
27.9393 175.958 171.73
50.1591 205.048 232.296
91.1098 107.506 310.487
27.4175 219.842 226.031
27.3317 80.6689 84.06
60.2359 67.3484 259.072
77.2719 68.0913 247.194
41.5964 73.8843 260.068
40.2069 147.824 250.971
26.8715 158.14 294.508
70.3452 27.5102 38.0638
26.2209 136.21 261.949
65.0086 165.98 189.402
28.9539 189.392 232.961
71.6766 201.682 313.409
75.6235 222.738 303.84
31.6996 244.64 201.03
68.9314 61.5777 32.6201
59.1773 97.5795 126.279
56.1119 220.657 256.655
26.0192 85.0736 74.0787
29.1395 173.142 271.629
29.7986 144.597 170.201
62.377 207.277 161.162
45.5333 193.046 224.586
78.8554 243.424 248.284
26.7819 213.147 276.095
88.0492 215.084 197.219
74.8371 98.2398 311.237
54.3647 202.596 157.319
39.422 138.754 221.305
68.8361 255.924 289.507
27.7965 165.739 220.192
63.0212 253.372 210.408
27.1161 186.451 173.176
26.502 130.054 204.893
44.8435 138.754 190.837
61.8067 68.624 58.2363
26.8106 78.9692 244.895
27.3783 108.965 298.278
25.6591 71.2006 86.5999
61.1797 77.6488 59.3699
33.7708 252.584 220.35
33.0642 189.759 320.255
66.8508 71.6911 47.6233
27.222 187.657 187.435
32.0467 107.911 181.806
26.6354 121.683 247.086
26.31 50.2388 59.9808
41.3286 129.241 212.875
80.2342 159.729 165.005
27.356 188.926 296.462
27.166 154.822 179.621
76.8789 249.886 279.44
73.9451 102.993 61.4684
64.8433 188.265 203.143
70.5057 103.742 164.897
73.1387 48.4906 32.408
45.0679 216.535 325.934
38.7144 165.641 331.61
29.389 48.176 48.464
64.3528 177.771 347.787
49.2286 257.211 215.849
27.574 201.941 287.277
36.4421 83.4168 109.312
61.0106 86.8048 129.317
41.9913 147.93 197.325
46.4217 123.874 260.371
27.8553 173.601 210.792
27.135 165.722 185.116
25.528 126.421 297.87
26.8459 219.223 270.254
26.2868 114.48 270.437
71.1941 259.416 276.675
58.8327 72.8006 70.8321
46.8624 44.1979 29.116
40.4383 119.299 69.0855
74.9081 120.955 290.361
26.9737 166.756 311.029
27.7645 211.028 223.932
84.4431 189.081 177.147
29.2872 183.58 281.172
58.8487 178.423 308.258
27.5371 235.853 200.393
35.2326 74.7863 256.98
47.2207 147.786 286.786
64.0615 55.5005 75.793
52.2753 106.839 114.477
76.9505 38.2415 39.6629
42.5178 39.5206 117.165
55.2899 164.494 143.559
52.1656 204.36 338.54
54.0415 62.5923 127.544
66.9036 121.993 105.731
28.146 41.1007 104.909
77.765 122.079 81.7497
39.3788 141.282 148.483
84.6095 209.974 176.763
30.5054 212.271 167.796
29.7713 227.153 267.494
52.0619 76.3511 22.0751
68.7579 256.568 221.034
54.8528 195.384 342.358
65.6136 99.1078 220.961
85.0115 211.364 203.258
56.6363 64.4978 244.677
56.1351 169.409 197.827
37.7784 117.325 62.0145
44.2344 191.443 332.765
69.2043 121.972 334.246
40.6014 135.172 243.426
79.1046 31.0352 52.1591
51.8732 32.8814 35.9894
48.7858 125.112 269.39
63.5785 68.7478 89.7742
26.6103 141.316 255.579
78.9484 36.1043 71.8631
77.76 101.68 86.4084
73.2523 109.685 119.249
51.1389 214.94 332.259
54.8137 177.699 203.754
78.4567 21.9577 61.6344
74.6399 71.0228 107.574
37.8843 100.531 174.469
55.4583 187.977 298.341
27.5089 183.666 214.298
29.9544 200.595 238.184
78.9553 154.974 153.689
26.6992 222.803 207.488
48.0968 45.565 122.523
48.4251 228.067 174.348
79.0557 111.761 77.3751
62.9381 80.8869 82.6566
63.1947 260.296 225.105
83.2268 242.426 236.956
46.7504 178.839 337.314
36.8336 156.644 149.253
82.2968 37.1362 93.3338
82.5715 181.279 335.058
55.7717 195.018 215.494
44.2132 166.102 289.79
49.4019 124.172 193.261
40.5959 255.002 213.997
65.4673 51.5826 128.097
27.8569 175.391 315.3
70.0826 66.3313 244.283
67.5756 61.58 44.2412
67.4462 149.411 173.041
26.2322 132.073 241.767
72.0044 162.392 322.853
47.0308 153.768 145.455
59.5288 64.6423 67.7561
46.4432 161.906 335.409
41.0396 145.788 243.417
26.0066 104.949 226.53
86.8196 108.78 318.84
53.254 68.9716 261.238
82.2473 38.8257 108.784
27.679 162.536 268.171
72.392 90.0781 170.266
28.0478 198.026 222.897
72.9662 109.241 52.3148
63.7649 131.416 336.926
28.3948 146.755 185.728
27.7147 177.725 277.446
83.3015 219.37 213.801
43.2639 171.48 334.675
56.8683 21.4308 68.0212
77.8465 109.688 279.474
78.2789 94.5678 107.861
62.691 217.146 167.303
58.5958 202.184 293.097
73.3279 138.271 303.942
25.7066 99.6821 244.926
60.5446 187.636 347.372
27.4945 219.613 244.053
39.093 155.214 257.184
49.5759 260.789 225.495
62.2065 83.5802 75.4963
39.4927 189.92 237.635
33.8449 112.597 70.6222
78.0902 176.445 328.838
26.8002 194.179 200.433
39.208 155.119 219.54
28.9777 241.49 253.176
66.4405 71.7147 272.951
77.9617 208.029 209.199
78.4706 120.319 92.89
27.1068 185.238 180.47
72.446 213.266 219.052
28.5638 79.989 235.327
29.1469 175.527 219.33
61.8424 264.167 267.77
39.8178 147.94 273.383
81.3417 140.233 315.283
47.7822 68.2959 255.789
60.4587 185.268 306.588
33.7184 38.748 111.568
27.2942 148.335 222.026
70.8006 95.8068 229.877
70.2142 73.0314 101.792
72.6872 229.587 287.64
28.9855 178.309 159.133
37.0185 26.6283 86.5229
44.4846 259.457 232.919
45.5702 76.1729 274.302
27.9162 51.5665 106.532
60.3049 104.877 227.512
30.0336 154.626 248.411
41.1364 241.273 289.572
27.1058 118.135 254.636
29.7273 165.43 211.521
30.1573 103.224 191.233
47.4501 133.436 277.193
53.5509 139.642 141.983
75.923 103.374 75.7491
74.5342 46.9719 58.1588
46.1248 24.4993 94.3053
65.1352 86.7248 44.5393
61.0036 119.307 106.668
28.8765 95.4527 85.339
40.2665 172.456 220.314
44.8491 257.9 261.261
78.133 80.2848 127.829
76.9146 216.255 172.25
48.6713 119.782 318.854
74.6773 49.2281 124.296
45.2434 210.505 159.521
68.0203 101.193 38.8078
58.5726 111.846 259.38
43.8708 203.442 266.439
52.3254 145.062 291.569
64.3424 125.545 92.2709
25.9424 121.931 283.33
39.0861 163.338 242.661
31.9252 73.1487 112.495
82.2272 191.768 336.775
26.2552 118.615 212.225
40.9878 211.283 323.55
75.469 219.482 313.083
43.3595 117.799 83.6732
71.2854 213.383 300.939
56.5347 211.503 339.278
63.9553 30.0573 113.982
82.2764 182.863 343.55
44.0664 133.518 265.407
78.4461 98.5074 116.964
44.4723 206.725 249.058
27.999 160.446 227.352
25.6996 130.627 303.38
80.5325 65.3384 115.19
49.8405 229.731 321.306
79.889 37.6145 56.0187
68.9608 35.9607 31.5116
35.0036 177.014 327.066
44.2076 111.951 93.7976
54.3183 203.538 286.994
77.0948 105.447 271.215
29.4502 104.67 71.53
29.5191 76.449 106.215
69.6081 119.784 56.1811
77.6854 152.208 163.638
25.0818 146.009 275.758
74.9465 62.7918 100.113
76.6147 68.2989 227.62
64.3976 127.558 288.641
57.4453 68.2796 208.638
47.7776 131.472 187.944
32.0307 63.234 113.52
88.6772 98.4501 278.581
48.6491 109.499 106.011
25.7468 89.2504 259.87
75.6052 224.284 321.587
61.6476 74.8185 275.598
54.8482 121.792 185.752
74.7449 58.964 129.29
53.7483 259.415 279.876
26.9554 205.414 276.992
80.0677 172.074 177.452
26.4985 230.402 210.961
41.2869 57.8244 28.4596
77.8358 40.4947 78.8311
36.5851 191.141 326.978
78.8795 162.642 152.529
41.6495 126.015 318.666
37.1885 100.343 42.903
77.3347 208.033 319.608
87.7554 226.589 194.171
46.848 116.788 219.845
37.6014 126.279 156.576
66.1867 80.1266 44.2706
25.5934 106.057 267.171
70.8452 102.338 253.854
46.2401 143.079 144.333
70.2396 173.074 148.724
68.0686 48.251 24.479
50.7948 214.188 262.563
52.6123 147.707 335.491
51.7631 115.987 256.121
37.0377 70.9532 32.9814
64.0658 127.323 163.651
50.2943 139.777 286.125
73.6479 42.9174 74.3206
30.8978 79.4723 263.942
66.0903 225.897 266.859
25.3423 91.0376 234.635
77.6819 43.3008 47.1178
39.9629 85.7117 115.223
29.2502 105.19 80.0715
28.5847 224.695 281.972
27.7304 227.259 274.813
64.1363 161.146 143.02
52.2145 195.432 154.823
87.8635 84.6132 277.626
27.2171 149.628 257.707
25.0019 85.4576 56.9889
70.7729 117.887 113.055
44.647 124.219 205.291
82.1815 31.2298 86.0142
32.9198 112.105 62.016
76.4587 241.758 198.546
69.6879 220.586 172.764
58.1813 155.426 307.958
69.6421 109.862 158.436
80.488 108.569 99.2384
27.9235 202.101 192.014
50.0015 26.1754 62.8953
44.7671 24.7119 81.5673
27.895 89.2583 81.6967
57.0901 106.151 216.344
60.4227 109.14 187.333
79.8388 190.795 189.279
30.6792 235.662 269.373
81.3318 113.867 93.7389
46.075 241.286 299.052
61.4038 105.483 253.299
68.2197 260.938 231.804
51.8677 253.993 289.856
34.9728 208.336 318.262
80.9957 42.7538 98.6293
34.7783 78.8242 270.43
70.479 124.566 153.056
77.3955 45.1531 88.9416
42.5016 152.245 283.517
46.7308 150.027 189.98
44.1929 68.4122 26.1206
63.4903 77.0827 180.018
56.2116 217.926 245.715
46.5636 150.843 333.233
57.5167 106.624 237.653
79.8722 254.786 230.725
68.0652 245.161 304.888
42.3818 135.073 201.163
64.9962 67.7504 201.517
77.8216 118.906 102.805
28.1292 203.219 167.504
26.9564 198.319 184.054
67.7896 93.7639 42.5404
79.259 198.452 324.62
61.5141 152.495 140.68
79.3608 187.932 328.847
39.2166 153.74 235.211
74.4526 87.0423 192.246
40.6694 31.5363 60.1031
68.6357 83.3957 89.42
39.5715 156.832 212.679
38.0933 84.5913 276.921
26.8582 136.634 220.028
26.4125 75.6567 78.0157
27.3543 138.511 235.255
81.6783 225.245 225.057
72.8174 203.669 344.704
26.8776 199.013 258.517
26.7951 168.08 298.888
33.7364 78.8495 36.2982
29.8125 86.5317 223.307
55.3664 23.572 57.6743
31.5682 87.6618 204.574
63.1925 113.804 176.075
57.6778 235.71 184.548
41.7986 93.3638 296.092
76.126 253.957 267.843
75.9608 202.197 206.722
81.7011 168.366 161.972
58.3329 36.2775 119.865
56.4224 125.553 68.0691
34.466 60.0228 35.3256
27.0903 86.7441 269.06
73.0372 97.1353 77.5958
49.0931 151.935 293.112
63.0894 176.621 314.514
26.4495 127.609 229.712
26.8316 178.277 185.213
26.1826 137.227 269.876
54.9575 21.3252 75.5581
70.3237 223.641 234.044
90.4776 121.008 313.71
60.6215 172.42 146.241
69.9826 51.5539 84.4014
41.4645 200.635 327.218
27.0754 211.325 260.847
30.9539 154.232 323.155
76.575 97.6742 254.303
53.6573 212.801 274.908
32.0945 29.1271 92.2043
35.1673 181.525 153.481
56.1165 123.257 91.9757
41.9722 151.386 145.089
26.9021 38.327 77.5754
50.3244 171.243 146.405
38.2847 199.678 156.371
81.6115 48.2949 105.319
33.7434 136.883 320.889
59.6875 151.334 338.752
51.0437 112.467 232.908
53.2697 135.85 178.232
86.2579 86.0777 256.63
40.3186 138.319 209.68
84.4777 77.7569 239.81
26.258 139.561 303.606
43.4577 97.9114 110.176
31.9363 105.504 55.332
25.9414 69.7075 75.169
65.4474 122.389 284.071
80.3825 136.232 309.908
70.6003 112.805 276.364
55.1576 115.319 107.609
48.9652 205.971 277.285
26.5055 142.562 211.134
66.0328 194.859 307.513
30.7372 84.9068 275.576
26.3686 85.8528 49.7753
78.9018 192.595 344.077
41.4226 69.9301 249.323
25.7854 153.305 313.007
48.5851 212.779 253.268
62.9627 122.222 54.7272
62.755 114.532 115.149
43.0754 138.381 275.437
80.9969 60.9024 124.477
52.4782 27.5757 47.0678
90.5825 96.9049 293.244
88.5632 123.048 328.757
70.4579 49.0109 67.4591
59.0313 139.804 173.582
63.6392 80.1185 52.1346
51.7454 128.469 326.101
52.8799 28.238 106.982
33.6427 160.894 327.344
82.2007 174.867 164.584
61.3497 73.4783 84.365
67.4539 101.679 243.054
26.9115 158.495 233.946
60.5109 26.9766 108.832
52.7741 74.5804 193.776
67.2896 222.1 289.385
76.136 234.474 291.012
52.8631 178.518 342.454
75.7766 120.242 69.3053
58.9776 253.076 298.507
76.8802 31.0351 110.64
66.7291 77.0295 92.4936
75.3538 139.351 147.789
28.7378 81.5898 227.713
62.1262 217.039 234.035
62.731 199.623 299.414
48.2311 199.265 282.593
60.0643 141.699 141.307
27.8816 189.43 309.283
28.0744 210.239 292.788
53.1284 111.145 244.347
71.0293 55.456 46.6293
56.9723 106.893 150.617
36.7895 108.223 48.4049
71.5003 234.601 263.227
47.3423 38.2375 33.123
43.9723 240.701 189.632
76.1362 233.784 242.544
91.3527 113.672 304.6
59.6123 162.724 312.556
74.741 89.651 129.099
58.5536 107.494 202.445
33.6556 31.0181 75.7084
60.2816 170.285 312.924
51.4848 148.987 141.98
44.8429 119.55 58.9826
28.5464 227.041 260.929
26.5602 153.151 242.97
78.4601 75.1599 118.482
58.4617 107.307 36.0038
53.6747 224.879 329.38
60.4414 73.4834 21.1223
38.711 71.8432 226.395
50.3741 249.458 297.226
83.9755 204.377 196.831
68.4853 95.6367 194.889
27.401 139.544 227.961
72.5724 53.3438 38.7276
47.2234 188.903 218.781
59.6615 63.9173 230.269
65.708 104.514 191.375
30.017 237.559 261.79
39.4089 230.835 308.228
38.0434 108.108 167.18
75.8035 148.083 316.204
62.8147 224.002 249.042
57.2248 46.0405 125.497
51.5079 64.8526 237.625
74.5353 219.156 329.228
27.3175 189.741 285.466
64.209 137.757 295.449
66.7367 141.195 168.395
57.7774 75.0497 186.984
27.622 229.924 204.222
46.8666 163.476 144.697
74.5643 77.345 192.968
63.4963 109.982 181.432
82.5419 220.778 180.299
82.6463 202.882 172.538
71.7213 172.638 324.459
61.2708 196.773 346.768
67.3875 198.828 348.049
71.7482 143.943 164.368
69.2198 49.7619 75.9897
82.0742 148.987 322.616
82.7046 250.503 240.482
71.5014 180.936 324.269
25.3601 86.7573 65.7914
64.3397 103.98 198.822
59.9832 64.9389 223
29.2999 91.4523 47.4798
34.6615 73.0782 242.89
57.695 211.331 285.729
63.4566 100.557 206.712
75.2518 48.6803 51.3427
77.1676 94.5279 244.311
48.991 74.3429 265.804
47.9681 207.081 241.212
39.9574 47.8928 32.5809
52.1798 213.673 241.715
27.7816 166.088 235.628
81.3694 245.131 204.601
77.6798 178.653 156.56
58.0904 115.596 187.024
77.4153 73.0871 209.724
65.9521 112.062 165.205
64.3438 71.8596 132.909
26.8122 121.982 239.64
39.4508 193.004 252.176
49.0384 91.3368 297.76
33.2893 50.7085 40.4569
28.43 105.605 65.1601
71.3555 94.728 84.2036
59.1678 122.18 98.7435
27.5339 177.63 306.908
71.2154 98.0019 170.311
26.5727 130.391 235.518
26.5482 217.68 258.561
64.8791 234.81 185.332
81.9296 76.0627 277.014
51.7359 74.0018 272.685
46.3468 123.367 149.76
66.509 111.263 271.115
83.7328 186.259 169.302
66.4607 144.309 139.75
27.4039 210.794 203.861
79.4286 101.864 101.515
52.781 118.296 99.7165
78.2602 167.164 329.762
73.7774 132.467 299.821
25.6832 134.663 276.117
51.2084 65.8715 228.854
78.277 164.283 171.96
27.4507 160.075 288.624
53.0505 127.977 180.679
62.6351 217.795 285.329
40.8183 157.535 275.037
78.526 205.373 338.754
35.523 253.871 246.347
52.0331 243.12 308.401
64.5841 224.167 241.268
29.0321 127.993 268.462
82.7162 84.9223 237.439
33.1305 76.8519 219.634
75.9085 225.742 179.001
32.2015 103.163 87.297
26.6215 36.6877 87.8698
76.959 186.429 192.488
67.7748 91.4517 160.686
48.3743 189.909 150.69
46.0956 67.2329 240.861
69.4962 251.474 296.5
52.4827 54.3897 126.982
39.1027 30.3053 66.6744
59.6587 58.9566 20.7746
72.558 263.627 252.506
27.2907 154.133 263.531
27.8341 67.3827 108.501
46.9751 118.666 240.602
72.9663 190.871 350.335
49.2885 98.6261 163.213
53.5986 156.46 142.061
67.5551 148.833 310.701
66.1368 106.833 319.61
62.1942 225.123 257.895
67.7921 123.903 159.928
72.9892 88.0366 207.182
53.4663 153.967 300.789
80.5915 112.863 85.6801
27.9408 190.801 252.825
70.3924 231.422 250.033
26.9462 119.957 269.435
28.0513 217.25 283.561
30.5146 211.06 307.133
26.3792 94.4948 71.0285
73.788 126.941 294.875
72.2145 215.664 335.385
28.181 212.518 286.55
73.0989 237.183 254.378
66.2417 107.589 261.461
49.3037 115.391 248.656
56.6619 107.595 249.168
54.8878 132.334 286.056
69.5441 104.726 124.71
31.612 248.821 213.111
38.8407 181.898 242.256
35.9016 201.673 322.59
44.888 137.837 327.104
40.099 186.356 257.1
25.1489 93.885 265.768
70.8087 83.013 295.267
81.6731 29.4677 73.3843
85.9866 99.8016 307.867
27.8988 219.319 203.565
26.7522 189.989 193.658
71.1922 90.4198 91.4854
25.8838 102.417 217.655
86.2281 225.088 213.343
72.3434 133.843 157.069
61.843 171.914 195.995
78.0025 105.876 322.568
76.6988 218.623 223.257
40.5652 49.4554 121.03
41.8104 68.6034 237.74
47.6073 159.888 195.807
48.6414 134.377 144.115
70.6222 125.595 143.01
83.0886 74.6596 269.214
38.6288 249.242 202.491
69.983 93.7781 218.431
64.8957 42.0716 124.676
67.5294 99.7535 152.863
26.9252 136.254 201.407
77.2678 242.737 276.453
56.9072 205.977 226.865
72.9313 232.342 317.367
56.2413 114.724 194.73
68.9332 98.7493 236.683
49.7205 123.795 60.4378
34.0805 47.4945 115.998
61.9025 65.6633 214.995
68.3268 216.745 228.125
39.348 74.2068 213.868
64.0376 118.253 142.857
26.6534 73.8375 62.9943
29.5578 91.0999 90.3325
54.4679 21.4427 87.0666
50.9442 37.2549 118.799
86.158 77.4516 260.863
66.8158 82.8814 169.881
57.6836 107.742 118.199
38.1117 39.3165 46.1683
40.8294 224.172 313.63
80.3658 79.1281 285.822
26.4889 147.413 288.516
79.191 213.78 213.173
36.1731 165.379 150.117
48.4667 80.8508 281.886
44.2795 115.898 313.862
39.7894 256.743 226.059
64.3641 100.536 126.406
39.775 39.7666 40.3352
26.7424 223.086 233.736
83.9189 195.687 172.873
73.0889 152.183 142.541
73.3791 133.397 149.722
74.9237 24.5591 46.7474
46.7148 216.783 163.138
43.3891 195.706 273.217
35.5142 72.367 233.178
58.6443 119.236 178.501
37.03 107.124 93.4252
46.3902 159.051 294.099
26.9796 111.533 198.859
58.4093 245.166 311.157
60.6297 228.863 327.941
85.4296 126.322 336.442
57.0188 29.7401 36.5282
52.045 118.351 90.5272
64.5915 64.3758 23.2909
26.2843 92.6521 220.785
70.22 76.6705 132.616
66.6641 186.052 350.248
85.1074 242.837 212.887
47.3255 197.545 335.753
62.8524 20.2577 58.3763
32.0319 187.977 157.92
30.7141 125.495 312.068
80.709 119.251 333.468
56.3007 66.4918 253.36
27.1839 95.8164 62.7719
74.8288 155.749 172.561
63.6562 102.992 235.459
73.9624 225.374 296.963
66.4719 96.8435 211.759
71.5048 123.206 101.39
47.7049 206.837 332.424
27.7062 240.984 238.784
29.7624 154.431 203.989
60.1778 23.6398 46.2665
38.7971 243.588 192.182
82.8889 157.438 329.44
67.2544 143.343 342.447
88.3176 83.3235 269.585
37.6566 253.73 256.337
68.2603 230.915 258.013
70.8923 161.76 144.527
26.8213 172.62 188.177
27.3695 172.739 264.289
70.5849 210.229 341.837
28.5884 158.922 261.715
86.62 215.195 184.544
56.2793 210.689 232.698
84.0506 143.926 319.819
74.1955 262.219 259.63
80.1651 125.856 299.083
74.5623 87.9401 199.39
27.7727 173.764 180.13
66.8258 85.655 132.208
59.0955 257.917 290.104
51.6651 31.6909 113.145
67.5378 133.291 139.621
75.6375 238.665 284.323
77.0443 242.497 257.098
72.9855 66.3983 255.687
40.2074 149.24 206.787
51.8009 108.777 38.822
26.3406 209.323 252.604
37.6232 234.954 290.456
27.1613 130.267 213.369
54.6687 226.874 173.83
84.6798 118.048 296.988
66.0974 169.166 319.159
81.7891 142.104 343.416
63.446 133.125 167.617
26.619 148.879 270.829
67.142 200.437 212.115
27.0994 199.757 268.045
36.0054 136.578 153.741
80.7355 195.354 165.262
45.0646 255.996 267.709
91.3797 108.125 295.213
60.4131 113.001 266.042
37.4325 114.616 75.0335
33.7016 110.387 306.102
27.9921 89.9501 211.305
64.3956 95.7804 31.8673
77.8412 249.139 260.403
52.3579 117.581 197.921
42.1718 173.257 147.974
79.6759 233.148 235.845
44.4439 101.909 305.451
67.733 225.39 281.823
73.0881 85.4576 97.7529
49.0762 89.7867 172.971
65.2979 87.5745 300.013
56.1347 119.726 145.633
35.3191 173.643 151.573
40.9115 79.6894 197.351
73.2773 180.841 191.944
59.9629 108.484 195.488
49.2042 69.7624 214.23
79.3369 78.8197 213.375
65.3884 239.94 317.302
59.7706 146.097 300.575
61.5759 80.4558 290.736
62.0088 207.112 343.62
78.0344 53.3717 101.708
36.1364 111.067 80.0575
58.6928 85.4684 168.403
67.9509 163.036 347.377
88.2227 235.788 213.263
63.0422 88.1754 57.6455
55.4405 126.834 281.729
61.2463 32.6484 30.9537
63.2411 225.756 175.097
54.2898 99.0434 306.646
40.3578 86.7842 286.34
85.7014 202.375 180.262
74.8053 87.2173 220.222
66.493 217.371 338.224
29.7487 53.2588 112.446
69.9259 114.523 328.16
57.1397 261.973 228.674
71.5654 232.207 184.136
71.6964 67.5986 206.751
66.6141 195 206.58
66.8899 223.598 275.342
87.1244 237.114 205.73
88.3842 220.268 192.701
71.2825 101.969 187.454
47.0889 114.42 99.0901
78.0305 209.746 169.12
74.3546 55.4925 95.2116
69.7824 136.8 340.123
83.0842 86.9994 295.803
71.1104 71.9132 193.461
74.0938 113.546 58.9733
56.9496 90.7895 25.0977
77.4122 114.827 68.3266
63.1057 88.0419 65.5037
75.4947 89.9046 227.957
86.5242 239.261 220.968
74.0083 93.5032 180.27
56.1522 184.322 344.475
81.3823 230.718 187.395
73.2148 73.6211 278.626
72.1401 170.598 187.286
27.0658 206.726 265.283
60.1221 114.643 43.8986
74.9126 80.9715 290.967
55.2124 159.729 340.558
86.625 233.442 199.326
30.8534 161.985 156.263
78.356 178.964 184.728
76.2131 88.5439 301.398
55.5088 166.025 341.686
74.903 154.414 320.254
62.3488 60.0836 59.3157
76.8333 42.6099 63.767
55.4086 87.0893 292.629
28.4026 162.312 192.001
89.5406 100.393 301.405
26.5458 181.564 166.612
27.7325 166.005 256.958
88.6663 134.38 335.04
60.2804 96.5312 155.631
63.6476 25.4706 40.7216
66.4171 177.485 194.872
54.1302 156.643 187.748
67.8752 34.3179 119.092
64.3868 71.9514 190.114
25.9584 125.015 256.261
68.808 68.4386 35.3433
73.99 241.067 266.335
28.2124 183.4 268.676
81.506 52.5931 118.357
58.2575 128.39 172.871
74.2874 200.067 161.859
40.7013 79.5283 277.225
72.4768 100.047 246.43
59.204 132.144 141.235
59.5639 219.369 336.388
83.8192 180.742 170.078
58.2113 125.72 61.8623
66.9503 94.1739 307.029
26.536 153.469 282.222
80.2437 254.143 253.008
60.706 171.838 346.112
41.3712 127.561 232.78
43.0186 59.0156 123.601
79.1655 62.0216 106.419
42.0999 110.556 310.777
35.1326 87.0915 38.6222
49.1215 181.766 294.64
48.8411 81.4791 183.965
28.9019 134.58 251.104
53.4722 110.68 315.19
84.4803 112.414 290.202
68.5894 19.5975 50.6465
75.7441 95.4714 95.1567
83.1352 108.381 282.094
71.7498 17.7939 64.1222
76.4438 123.992 337.047
71.5875 262.466 267.565
70.3692 229.25 242.867
65.3499 235.231 323.075
64.862 116.321 45.4396
84.1295 235.527 228.317
66.8092 212.959 295.242
82.0078 56.9096 111.96
57.241 91.0925 301.43
27.7893 167.7 244.069
75.7877 86.315 213.922
82.6005 91.3869 301.617
79.425 167.726 349.255
86.2392 81.4075 249.38
81.6604 252.087 246.765
82.1328 102.146 316.444
83.3883 93.1042 259.786
63.9633 68.3275 263.08
74.6716 103.511 263.427
66.3343 106.193 172.909
69.627 152.852 345.525
28.2771 127.226 247.566
70.8525 78.0382 180.542
25.6148 109.515 280.159
87.6833 94.4392 269.716
84.0439 247.163 228.049
76.7528 98.7304 261.105
26.7812 166.659 261.852
38.7397 168.651 238.872
66.6402 89.9416 81.284
77.5503 186.29 157.183
71.123 16.4407 82.3933
40.1097 188.257 152.249
67.6194 241.333 194.426
69.1564 227.86 326.522
57.9196 218.733 266.91
88.0629 103.402 284.575
27.6538 185.415 221.447
26.303 96.1764 280.404
45.5497 70.5078 219.616
81.7614 99.7422 268.753
68.0949 224.094 332.012
88.1102 145.096 328.958
82.7371 130.966 307.03
86.4977 151.496 330.941
76.406 70.9886 269.42
89.3481 128.22 316.56
68.9621 94.7219 202.436
52.7896 117.803 262.822
81.0072 82.9727 227.618
48.5862 170.37 202.735
72.4755 171.779 350.09
87.5743 88.1777 264.936
68.236 102.747 178.819
47.2894 138.906 281.724
76.1928 49.7762 92.4865
75.052 20.7252 94.4464
71.3486 253.006 215.4
63.3677 263.632 258.005
61.2522 120.016 278.598
66.2975 77.67 30.9121
55.4734 81.5346 286.249
77.8998 179.651 348.421
83.7998 74.1027 244.883
68.5948 107.901 266.322
76.0357 111.627 327.721
75.2373 68.8836 131.689
69.6839 190.39 158.319
28.5335 141.122 244.139
41.0311 155.212 279.027
87.629 140.853 339.091
81.2895 236.617 193.473
87.4685 136.777 324.67
75.7483 204.958 164.769
25.6071 111.515 275.013
62.0667 103.835 314.003
74.328 131.274 341.355
75.4529 158.82 348.407
82.8413 179.525 176.736
61.078 76.5258 32.8732
78.2539 259.133 242.63
77.5977 168.863 151.405
45.8376 76.8347 194.583
46.6283 72.5005 209.296
86.3928 206.578 188.99
84.5397 125.152 303.341
52.7974 71.0979 199.081
34.5098 84.1197 99.6958
30.3255 128.096 259.321
39.5831 169.361 231.904
80.5489 187.047 164.098
44.974 258.853 253.544
46.6496 77.9744 118.955
27.4958 111.529 241.52
52.1305 102.146 158.154
28.7433 146.099 237.426
90.3043 128.862 327.214
