ply
format ascii 1.0
comment Created by Open3D
element vertex 991
property double x
property double y
property double z
end_header
35.9617 174.599 181.365
42.0541 173.995 137.271
23.3084 185.275 135.555
39.1216 186.1 161.158
53.9887 240.877 187.649
38.3267 124.547 98.1582
25.9854 138.007 124.207
38.3339 110.502 159.021
36.2775 176.356 159.129
22.3205 50.7481 177.7
25.8169 135.615 112.285
21.4548 80.4179 116.656
40.4139 120.087 221.232
24.8665 172.079 127.858
46.8039 180.585 129.293
25.4964 238.831 193.369
62.7665 212.705 88.0959
23.1387 221.069 206.682
21.5772 64.279 182.335
22.1668 89.1412 123.566
22.5704 112.61 80.0245
27.9117 172.916 202.085
55.087 207.397 215.87
34.8258 89.5436 167.251
34.2311 134.034 182.677
22.952 147.481 72.7299
24.2607 141.877 99.4093
23.8727 95.0051 169.828
24.377 157.283 201.349
21.4482 56.9216 189.915
33.743 95.3024 123.682
21.9337 57.9835 203.055
43.0095 116.715 162.641
26.7557 240.945 178.435
71.1012 231.888 225.937
27.1853 145.529 60.3304
22.4453 220.256 222.609
23.2276 182.651 126.913
21.5126 65.6335 196.835
29.9419 213.892 103.326
29.0344 195.733 78.1032
41.7977 162.417 137.14
76.8628 183.331 240.591
22.1247 212.395 211.87
54.9383 179.065 111.836
68.3488 115.451 148.233
22.6533 139.252 71.1636
32.2947 111.696 115.203
23.645 157.301 178.005
21.8932 54.7213 154.861
38.4532 146.965 54.5077
43.3144 178.918 57.8203
24.6137 174.678 167.681
87.491 92.3606 113.913
40.9031 180.925 145.09
34.8476 174.195 168.44
25.4798 178.925 143.33
44.9364 116.053 174.442
24.5164 153.831 188.661
47.7016 198.842 163.99
51.0602 205.343 205.038
36.3765 159.881 204.241
24.1711 198.836 232.818
42.1191 169.885 209.961
25.5507 123.826 65.6762
50.4002 180.717 222.123
37.391 173.408 150.635
25.0666 103.101 178.563
73.0514 120.177 78.0021
80.9539 249.138 175.45
21.3076 170.691 93.3788
80.624 226.262 171.944
58.7504 150.197 110.691
44.5998 188.629 62.9913
53.5917 115.447 93.9998
23.6957 100.678 80.082
43.2003 150.909 99.5943
34.3363 116.085 130.837
46.0899 205.006 84.4639
26.1677 140.013 132.913
60.4764 117.88 117.139
21.9687 196.982 130.453
24.896 172.959 151.982
24.9273 172.055 244.628
22.1099 114.567 102.25
39.1325 174.481 199.832
22.0696 104.288 91.1413
34.0981 86.0513 148.564
63.9655 197.689 115.561
47.8885 108.357 119.827
39.7526 105.46 172.611
70.124 133.286 113.646
68.3353 232.361 129.402
56.0899 161.164 65.0817
35.8024 76.1064 156.73
22.0983 125.3 95.9961
25.6781 86.1538 198.682
35.0815 161.357 160.709
25.2246 89.405 184.587
33.3691 150.437 193.924
36.3559 88.1528 110.37
21.5802 109.559 118.342
78.6467 214.046 151.393
23.5509 174.83 115.624
71.833 225.143 190.917
24.193 138.049 164.824
21.5786 118.644 234.659
51.6201 105.516 94.8522
22.8352 162.143 110.911
57.5776 147.581 264.728
70.9672 186.797 97.3261
22.1362 155.747 91.7674
73.5384 204.597 117.584
24.6536 169.567 180.917
38.8034 43.8082 182.733
37.7693 241.756 166.759
59.2564 127.099 135.019
23.6537 127.59 186.642
43.9519 155.07 54.9493
24.4271 171.203 139.831
23.5191 132.592 257.788
34.7418 102.889 132.454
33.8784 89.9929 132.047
34.817 145.438 169.198
59.5225 239.604 218.563
33.0832 228.874 231.17
38.0444 216.36 246.125
23.0736 147.075 191.585
22.9358 122.582 105
21.8432 206.325 136.13
23.3752 215.566 114.109
58.9801 187.756 61.4599
34.8135 93.2646 142.717
93.0765 238.565 122.481
37.3902 73.1536 149.387
38.7881 186.961 183.195
55.2303 99.8508 136.542
54.2654 115.214 127.275
25.858 163.106 195.054
22.3862 230.627 202.268
72.9345 189.69 251.095
36.2881 80.127 178.215
73.4567 233.986 120.589
59.4138 108.411 134.726
85.0365 249.846 166.93
37.6662 71.418 177.278
57.0404 119.047 110.969
21.8894 214.878 141.603
75.0545 114.416 123.523
24.1182 137.296 142.946
57.3743 113.319 141.356
48.0169 141.548 264.982
41.7591 138.295 130.753
61.3774 217.687 213.524
47.8552 193.894 66.3532
37.2056 182.203 175.623
38.5143 116.05 95.4583
39.3773 242.794 185.541
23.0862 88.7765 157.644
39.3748 63.7308 160.661
63.0393 216.68 182.829
23.5589 168.233 253.866
24.3864 213.225 178.273
24.2994 163.784 145.358
22.4432 222.796 186.622
72.5913 203.997 243.708
55.4043 122.888 123.046
48.9664 129.232 66.6071
23.7004 49.6172 166.69
75.6466 221.321 168.465
23.8886 98.8844 159.2
38.7992 106.532 90.6959
22.7261 77.714 104.632
51.2072 204.453 184.579
22.988 137.417 152.531
74.7416 131.916 257.765
84.0459 225.991 162.453
22.552 130.531 75.9274
54.1706 157.687 263.948
22.7338 77.785 135.547
28.3021 131.261 60.3459
52.4796 230.031 146.544
41.984 51.3301 188.546
76.7783 132.673 112.43
26.0147 225.336 131.331
36.4635 96.9244 102.715
22.3465 120.143 165.257
42.5216 192.903 170.753
21.637 59.4377 139.037
33.8747 106.358 125.898
25.5488 156.078 136.701
22.7097 150.333 97.2303
32.6235 231.121 138.956
43.8933 240.648 168.468
21.7187 185.567 118.112
21.6588 68.9633 140.207
66.9673 140.687 243.099
53.139 92.3547 231.333
39.0924 143.324 117.981
37.0232 101.202 162.909
32.3289 121.477 119.863
22.6216 127.686 157.722
35.3581 60.4627 140.768
45.2129 132.932 139.717
21.6055 197.187 150.189
63.6046 86.0339 111.727
80.2985 225.964 95.9435
22.1513 126.641 173.091
35.7827 131.145 123.224
21.8126 191.721 139.191
37.7564 98.2533 95.0558
35.8935 73.8894 120.481
46.6642 222.103 129.947
54.1685 171.43 115.852
22.2784 233.42 186.11
34.418 100.728 139.894
25.4662 150.102 132.388
63.2221 214.323 175.045
67.7482 114.748 137.873
22.7328 121.861 85.1258
31.5145 242.452 166.035
32.7918 69.3177 110.264
48.9751 220.905 121.274
61.3276 177.098 62.5464
92.9784 229.364 108.369
36.8316 163.188 192.03
43.294 161.035 213.24
81.1307 128.426 103.424
34.1744 86.2271 88.9403
87.068 106.354 101.327
21.32 112.911 245.328
23.4716 66.4923 115.623
35.848 200.64 258.985
21.7494 180.804 102.549
68.7429 217.505 169.782
83.1387 198.525 79.4814
22.7952 161.61 98.8352
21.8614 115.846 148.927
61.962 221.986 111.777
51.7989 240.539 177.63
36.8226 77.2165 168.866
56.7225 214.722 203.991
23.8315 126.33 120.319
23.5493 117.351 187.8
34.5673 83.7088 125.45
41.7292 118.436 66.8264
36.4512 137.943 56.3088
44.0442 214.892 105.458
22.7859 137.886 231.891
46.4176 134.187 59.1981
36.5356 78.7957 108.607
40.0501 97.456 25.9586
40.074 67.4086 187.077
39.2062 56.6613 163.57
23.2613 131.834 192.141
47.1224 159.66 203.495
66.8282 186.14 67.8526
51.8787 108.572 128.918
32.3853 186.639 65.2281
38.9493 95.3877 179.809
42.0337 220.152 117.631
65.985 243.539 185.844
96.7676 236.069 151.914
22.0886 205.575 105.78
57.5591 208.013 174.569
35.3542 239.65 156.157
23.2488 165.181 235.713
56.5401 197.261 146.448
49.1181 149.961 84.1965
22.222 155.462 250.819
22.3269 197.473 141.284
59.6851 166.022 261.979
51.6577 240.952 196.776
82.2784 245.746 142.808
20.9775 67.2093 168.299
44.2549 129.636 107.86
25.9203 176.137 192.618
22.6173 191.095 177.111
28.5162 181.699 67.0659
24.0434 188.451 190.078
76.3642 128.033 126.828
42.8416 118.158 151.957
21.4468 215.88 130.988
22.8422 217.886 197.036
22.3601 198.3 158.814
38.1927 185.042 190.99
25.4496 164.047 187.024
35.8686 209.602 252.072
22.5333 181.397 85.8102
21.4759 88.9545 97.9009
73.3993 122.165 130.874
32.7336 156.282 54.9895
67.6747 188.199 256.699
22.2443 147.575 219.53
24.1981 47.2948 200.702
50.6421 154.212 58.5109
24.2135 100.382 130.423
73.1518 205.39 134.44
21.4086 147.546 87.9296
87.9212 220.614 94.4699
22.1938 219.032 159.612
22.1042 107.654 233.437
25.1966 154.499 154.231
22.2091 134.426 93.443
42.289 146.153 223.008
23.0649 209.182 150.304
23.8034 98.8199 252.299
55.2873 175.138 58.0424
34.2009 92.9048 81.3378
37.1097 115.663 151.965
25.4237 96.8374 195.466
58.9056 194.229 124.68
51.3074 191.994 223.409
21.4892 106.518 39.3876
34.5836 99.5712 111.8
21.523 188.319 110.649
23.2079 213.512 187.681
23.6478 188.039 82.583
39.1499 86.711 185.653
23.6058 226.803 217.675
22.44 122.389 151.016
49.1682 161.686 126.342
48.3798 51.7621 212.969
48.3962 115.413 40.2485
25.1902 151.44 144.182
57.3517 110.515 82.0704
84.12 210.778 102.553
74.1879 183.561 78.3969
23.5509 142.064 174.629
24.0417 146.453 179.565
41.429 237.907 156.592
71.9738 228.301 107.885
23.737 86.423 174.44
68.9766 194.624 70.2031
58.1225 146.839 235.767
35.5589 135.202 110.142
24.1106 99.3255 120.17
77.3748 102.129 83.1948
21.4169 204.519 209.816
23.9765 162.031 77.5081
21.118 98.1077 218.087
53.7173 196.383 131.951
72.0483 124.123 120.082
80.4249 126.144 84.9405
21.6325 105.619 223.519
34.1263 226.659 130.576
35.5227 165.28 172.713
35.5069 96.4569 153.251
36.9866 243.632 177.434
69.1776 197.363 106.043
44.3016 107.987 221.19
52.5288 204.076 171.939
23.5787 129.837 148.051
26.088 156.645 62.0294
37.4964 124.612 263.554
46.7533 145.417 56.4873
22.0739 79.8242 126.838
36.016 164.014 181.508
42.924 124.912 90.3615
83.514 188.676 82.8485
67.9248 243.284 176.258
44.5808 155.846 138.623
86.8211 232.033 105.276
61.6825 210.701 227.251
24.8425 78.4129 182.465
25.9119 111.859 33.4775
48.439 121.335 157.162
52.6258 140.719 233.576
22.4321 159.268 224.383
24.0002 189.634 202.135
39.2528 153.649 212.772
77.771 86.123 96.5041
37.2206 190.742 65.4831
24.5137 169.586 69.9686
24.517 156.399 124.616
21.8924 108.954 110.518
24.8865 105.648 30.2808
74.0359 140.225 261.291
32.3481 173.031 61.0823
58.7389 231.182 143.293
21.4723 210.174 225.736
31.1237 106.157 57.5212
23.7373 118.398 134.656
63.0279 143.263 135.056
63.9604 115.321 77.9345
22.7484 140.578 244.342
67.3296 224.479 220.597
43.7053 170.924 268.257
22.076 59.087 172.505
28.9484 43.4837 205.629
40.1797 149.43 266.954
57.5422 242.262 199.029
24.5579 119.055 70.7852
21.6272 206.361 120.772
93.1746 245.543 140.494
44.8887 125.102 81.8979
73.0334 241.084 140.392
58.4857 197.868 67.1179
37.3944 169.464 188.424
35.8455 117.693 102.963
63.8007 173.911 75.35
53.2364 108.973 88.5208
41.0801 236.555 214.2
34.6592 110.492 105.781
26.1148 237.789 206.641
68.0325 88.271 104.557
54.6862 174.852 264.875
38.9543 188.81 173.565
88.4076 231.232 168.564
71.5926 168.78 102.393
37.8657 113.429 212.211
23.5464 149.389 112.351
72.6417 92.6976 86.5565
65.1723 171.504 259.821
22.4452 212.734 234.499
25.8905 229.731 224.934
74.1229 206.911 127.6
54.363 210.939 182.587
66.8312 206.979 156.743
59.2401 109.543 121.007
23.3532 49.3396 214.214
43.2293 116.715 77.7215
39.1021 195.895 71.6226
41.7103 111.694 82.5675
22.785 230.029 151.331
36.8479 188.652 265.784
25.192 164.175 260.209
22.3125 124.437 113.144
32.7473 131.943 263.538
74.6284 217.51 89.3955
23.9356 158.768 242.303
81.7392 129.335 92.6879
23.4592 46.7239 187.316
83.3264 90.0645 122.544
22.6305 170.889 104.272
68.3529 200.756 123.721
74.3041 209.081 144.095
51.9591 96.3162 110.099
58.4567 126.07 107.784
21.8129 140.342 82.242
71.983 112.287 76.4203
21.911 189.791 158.897
35.1583 118.563 201.962
22.0361 117.063 173.165
63.8715 205.636 74.7005
51.2726 208.565 198.849
43.4119 59.132 193.052
25.3075 147.436 120.802
22.0995 199.118 117.582
31.3572 174.875 267.335
66.6416 90.9385 97.0771
56.703 90.2742 125.279
25.8203 201.978 88.641
21.8737 96.5598 234.52
41.4552 88.8702 56.9768
46.3219 109.923 227.741
77.5436 84.0763 106.823
21.4487 117.797 94.6702
89.1825 241.359 181.367
74.3742 113.57 112.175
62.9182 124.931 101.188
39.3917 120.394 86.6658
25.6205 128.501 137.212
40.9937 190.95 194.195
40.2513 211.076 94.5687
49.592 226.639 136.725
34.3829 117.823 61.8667
53.7087 132.375 148.049
78.1023 93.1875 86.7374
47.3552 53.0944 205.204
47.5003 126.897 148.03
21.6815 195.735 94.6472
35.1489 242.512 193.931
64.1433 217.476 191.227
73.4942 194.938 238.593
54.7638 203.54 257.734
40.5343 119.026 38.7716
63.4178 230.618 134.488
86.046 109.986 93.6471
42.1352 193.12 180.845
47.1286 73.7734 199.094
22.5142 193.116 170.257
75.6543 129.729 103.632
21.1944 121.184 249.555
23.1186 87.5334 112.73
41.5888 142.084 265.651
58.6384 203.497 227.42
56.2897 127.693 156.757
24.5308 107.033 53.0659
81.0813 174.727 88.6153
71.1222 220.709 178.418
58.9407 163.585 77.726
21.0077 196.051 227.1
23.3906 112.585 181.935
66.5534 204.91 235.11
41.5558 226.676 237.281
36.3861 161.038 149.77
32.6501 100.485 72.4597
40.4976 132.835 95.0345
22.1961 228.918 176.986
37.5094 168.314 195.93
61.0317 68.3928 226.675
80.6633 207.236 125.863
27.8623 163.494 64.9453
50.5004 141.096 61.0423
60.1252 203.981 157.586
86.9609 118.455 91.4573
22.8707 156.967 231.857
28.2324 50.3526 149.026
54.317 143.432 130.599
22.702 98.8415 44.3334
48.7868 166.428 55.7594
48.8884 156.115 94.7777
24.6655 180.168 255.672
22.541 158.284 71.9652
56.0711 201.125 152.243
22.8151 114.288 114.86
25.7907 127.961 127.631
22.2501 98.8711 242.826
69.4897 86.3514 112.606
52.445 166.066 119.187
69.1083 125.453 148.019
25.0961 165.259 136.053
22.8406 176.011 229.811
24.6 143.54 110.727
46.0466 132.581 85.2605
67.7492 133.704 130.188
40.4766 58.8568 180.898
39.6055 42.6225 208.618
52.3199 137.989 66.8925
40.2493 49.4444 175.209
63.7304 139.226 265.655
24.9267 239.267 167.176
47.514 150.034 265.802
62.0887 103.21 83.7042
79.7416 194 91.2086
76.5212 164.865 89.6063
78.028 153.455 251.951
62.0336 210.628 168.989
38.8622 233.191 228.655
36.513 82.0544 99.8202
72.2185 95.7742 127.12
42.1993 80.851 192.499
62.6121 109.065 77.2246
48.1032 238.658 207.695
85.5883 239.063 116.733
51.401 136.077 139.748
24.5111 104.726 201.396
22.5297 184.589 170.98
64.0806 95.0783 245.643
76.5238 201.742 95.1182
65.7563 106.662 142.321
26.5937 56.5226 133.634
48.1559 159.489 224.447
23.0795 107.475 143.601
66.6578 125.979 123.65
22.9355 145.509 207.241
28.5959 220.156 115.751
76.4714 123.011 112.496
70.4548 104.226 137.858
72.9168 97.4939 79.725
40.644 144.754 100.38
44.56 220.635 245.242
47.7621 208.791 258.083
35.1062 44.4066 170.599
53.2844 115.324 188.598
54.9941 148.664 61.9477
51.4138 184.432 57.4267
68.7148 245.341 204.057
28.0153 58.6262 232.414
73.0339 85.2792 101.794
56.2522 64.3451 232.681
66.1144 97.1092 82.5099
28.2694 116.509 39.7033
22.4285 223.855 172.814
23.076 117.941 141.87
21.808 198.74 185.232
68.7984 151.682 241.983
60.9 220.02 201.648
52.2547 146.501 123.991
80.9538 114.292 79.7608
88.0217 248.781 175.542
90.1591 97.2247 101.823
23.8576 122.246 202.148
54.1838 113.253 167.557
67.7475 150.028 122.759
67.1362 151.089 104.7
54.448 185.168 121.272
22.4863 184.616 157.737
22.5958 226.529 193.577
24.4328 91.4159 144.24
23.4556 184.601 235.998
68.9754 104.112 79.198
22.2122 202.141 196.369
25.6815 237.558 158.273
55.5746 129.42 265.965
65.9347 79.9416 245.958
90.7894 103.341 109.664
51.7515 196.74 217.259
52.4522 107.888 103.569
44.1149 242.095 194.506
51.9298 158.114 87.4366
23.2964 217.75 168.638
36.299 225.256 239.082
23.8367 206.108 174.788
37.1554 199.707 75.4157
39.5946 161.823 53.5686
19.791 76.2612 220.416
23.65 79.9681 174.765
50.981 122.356 166.461
81.0791 122.951 107.38
21.2142 162.831 87.6549
34.9483 168.115 161.474
50.8306 104.397 232.792
31.8583 163.12 268.059
61.4058 127.595 125.833
42.5165 124.552 153.407
49.5818 122.058 177.063
23.2847 178.556 161.912
30.7204 93.4398 57.604
61.6374 115.682 238.931
62.9506 132.971 108.279
73.7458 248.217 183.584
39.7459 104.243 81.6919
56.2377 118.423 193.916
23.8257 152.946 161.336
71.3531 200.766 74.0791
51.5655 68.1712 205.383
70.3923 130.558 104.037
22.0694 112.629 161.117
45.6791 193.18 150.036
57.4233 105.343 238.671
43.7836 191.831 155.425
28.0572 199.771 250.524
22.1654 106.608 169.188
35.3752 84.7694 48.8133
38.5539 41.4449 193.68
70.274 201.321 130.521
77.7082 172.033 250.118
57.0402 212.615 195.364
45.716 197.902 178.498
74.5541 128.103 87.4177
72.277 119.133 249.113
45.8819 164.938 268.028
23.0382 163.684 168.685
74.9765 153.437 258.634
47.2185 229.374 235.322
56.2992 225.319 136.809
73.5981 176.69 98.9894
37.6923 134.982 101.663
21.9749 227.916 162.045
39.483 67.2187 168.806
48.8092 184.277 265.998
78.5102 166.647 245.971
79.9634 119.246 100.226
33.4627 40.9101 198.588
21.5269 77.2175 239.872
55.3101 101.929 107.342
62.2183 99.157 136.551
62.5362 129.53 114.497
23.2984 194.156 85.7147
21.2896 70.7507 121.357
80.7202 119.55 83.2651
75.2907 124.281 96.9668
65.8465 227.75 121.164
38.2302 178.175 192.734
69.2157 213.705 164.623
37.8294 125.619 58.0692
74.1112 174.985 255.361
64.7981 172.637 106.022
29.0392 115.384 49.5912
38.8395 106.442 60.086
32.1509 190.408 72.0173
21.7929 183.585 94.3031
85.4089 90.3154 105.768
23.0275 127.545 180.843
21.3919 71.5597 161.022
43.3519 125.95 59.2707
78.5533 94.4751 133.036
73.9299 156.731 242.302
49.521 198.866 261.591
60.2716 236.346 163.06
80.2637 177.414 81.6822
28.1653 211.136 243.334
78.2394 107.419 135.107
55.1793 95.2724 130.45
34.0514 241.228 205.751
54.4705 204.336 166.376
57.408 154.422 103.246
53.5328 59.4837 224.521
43.9612 132.362 227.248
44.0932 108.489 211.434
21.5951 49.7139 194.662
24.537 218.957 235.759
80.0297 211.127 141.72
24.8582 112.297 194.022
23.6061 77.8037 193.688
49.5309 91.4877 196.812
67.0486 123.607 244.036
35.6614 122.203 192.228
51.8638 117.07 232.696
55.8592 90.9653 117.906
67.1072 222.9 195.981
76.7138 227.793 184.871
80.9967 113.847 88.7253
35.7634 147.892 199.656
76.5936 174.519 240.014
60.4753 146.399 121.039
53.1447 136.221 265.891
56.449 103.31 100.089
61.5455 86.0978 122.504
69.1605 87.1809 122.033
66.5367 130.091 85.3927
76.5012 203.389 103.775
32.1453 167.454 58.4182
60.9493 92.6372 133.476
52.2625 201.02 159.474
54.877 203.292 75.9777
22.6505 109.813 152.655
29.9892 209.252 93.7777
73.0556 232.817 216.405
63.5604 201.548 134.276
45.5274 115.296 264.086
46.1347 108.074 25.6414
25.4902 194.357 246.113
30.0197 40.7128 184.687
21.4493 123.027 240.867
66.2008 135.721 100.846
36.763 109.258 26.0877
66.9854 93.2101 88.8742
55.0056 107.623 115.933
71.3381 89.7071 131.211
64.5684 221.047 102.104
73.1589 209.404 153.545
26.5123 149.568 262.143
58.9724 94.2143 90.4568
48.8252 121.628 194.62
25.5329 103.105 188.978
23.7679 178.168 181.871
69.2183 124.165 264.322
55.4039 225.11 243.112
35.9496 115.009 138.156
23.8554 145.793 162.102
45.001 87.8517 46.465
57.9662 239.493 173.186
52.3311 100.584 126.902
46.0606 140.506 87.2195
59.0341 192.723 260.19
56.2863 96.0338 216.04
72.8974 85.0665 109.099
50.2431 148.145 116.625
78.2476 96.9733 123.678
29.0939 236.545 215.447
52.2573 156.151 100.11
65.3535 232.226 145.196
29.7531 224.993 235.948
46.3504 57.5895 199.412
59.7229 131.128 96.098
42.9295 47.5325 218.503
76.3887 241.377 208.867
83.3539 103.155 130.029
68.4716 123.156 80.8106
23.4361 184.574 244.63
72.0619 240.786 148.503
31.8643 109.808 66.4143
62.9496 198.742 255.901
85.4729 93.7809 98.1394
29.6399 97.1236 26.1407
22.3067 112.195 92.7355
60.0136 165.668 113.837
33.7421 154.016 168.901
35.6565 111.74 145.076
47.2757 199.701 172.844
55.9886 208.908 188.909
44.3636 112.715 53.4267
65.8836 150.522 263.486
67.0654 205.957 150.125
43.6661 196.263 200.904
93.6657 216.279 127.415
85.1846 242.034 126.337
48.7336 148.058 143.42
27.0019 68.9958 107.147
37.7908 166.346 149.315
26.9311 42.9883 177.787
85.0379 209.902 88.0504
48.3752 202.01 192.119
33.2173 234.316 225.128
58.6548 197.329 139.664
84.8108 100.294 86.3178
62.9086 201.061 127.561
88.2929 249.056 157.944
51.1704 141.358 79.0429
63.5278 83.8713 117.878
30.2372 189.703 261.739
80.5667 114.322 111.63
33.3304 235.776 147.518
53.4036 150.598 72.2679
85.4799 210.549 120.057
23.2799 169.314 76.771
23.2637 166.442 84.1708
62.8554 89.0165 128.445
70.1221 132.23 91.1009
45.1709 96.3623 259.935
35.2775 103.199 148.511
75.5491 192.345 75.73
79.1545 232.015 195.508
58.011 161.613 85.2262
78.5262 107.635 78.3898
51.0976 99.8567 216.262
57.991 75.3672 210.856
97.2836 241.712 147.443
47.389 187.981 216.302
31.3456 89.3429 53.4648
86.0736 220.459 154.309
60.273 101.954 91.1787
66.9636 96.4383 132.95
74.7802 104.664 115.872
23.2616 177.468 75.6229
79.9092 93.8399 96.3197
71.8551 168.54 236.585
32.9981 43.0836 214.944
55.9194 87.345 202.934
30.2264 61.6776 120.639
39.4752 146.774 156.849
65.3101 202.177 143.786
52.7627 95.7156 123.44
88.6055 218.721 117.553
62.6226 188.822 105.399
48.6197 91.0985 50.8216
41.3417 178.267 268.757
24.905 135.488 62.8817
40.3566 87.7863 36.9125
58.797 190.208 118.133
53.3144 139.645 135.175
96.2622 233.259 118.585
73.3943 133.787 96.383
31.3812 86.7882 36.3556
52.2127 186.789 116.23
24.2382 121.203 129.191
44.4313 99.149 60.0804
46.4237 104.385 188.232
69.0933 228.118 208.592
23.0351 164.584 158.635
89.0222 216.628 142.021
47.9797 199.321 72.2681
63.3663 189.298 230.032
84.9455 115.372 104.519
65.2077 244.664 194.177
69.1049 160.112 239.009
81.4005 232.359 188.057
61.9749 239.893 177.477
53.1602 98.7768 116.016
60.1909 83.7784 237.906
58.3891 162.261 90.8433
53.5403 86.8558 259.094
46.5884 139.161 156.513
85.7269 125.238 97.6629
62.9028 193.781 105.988
23.2241 203.406 238.584
67.7117 240.516 153.628
81.2165 88.8657 102.213
61.1502 208.028 162.653
76.8634 211.102 83.1153
54.2018 103.219 50.7527
50.2688 105.722 262.654
66.6155 173.947 232.258
45.3784 197.626 186.862
53.9678 114.782 101.549
39.5952 124.316 139.558
36.5031 224.567 125.934
25.2017 178.493 71.0288
53.891 141.566 150.818
71.6317 92.4017 99.9004
52.7976 112.205 108.261
57.7613 219.839 117.797
82.9979 117.152 119.211
68.2351 122.64 89.8959
51.9008 188.047 130.684
80.2899 209.056 135.403
59.199 102.216 114.555
80.739 182.478 90.7835
44.2148 231.466 147.509
83.4561 107.587 115.652
52.4971 109.275 37.9176
95.1821 245.559 157.874
22.0654 174.405 82.4091
67.8533 127.309 95.9972
83.8027 110.105 122.428
74.2572 247.942 174.427
77.3648 86.1707 116.397
77.1631 103.822 123.16
64.3807 102.586 262.536
61.7967 92.5332 106.429
73.6046 90.7154 93.4247
58.0689 115.607 85.0663
57.4682 233.81 154.148
84.8476 217.789 145.504
89.9343 226 154.269
75.44 216.231 160.935
83.5575 230.462 180.594
34.3677 108.335 141.334
99.0462 236.264 131.53
38.1329 95.8223 259.347
47.475 236.011 156.05
78.8862 112.077 129.509
64.2304 235.973 151.407
55.7874 123.132 96.2213
87.0999 114.351 98.9119
67.0146 214.485 248.334
72.9925 134.976 248.616
64.3425 113.8 266.402
63.8826 124.849 92.1107
52.3396 129.716 231.823
80.5017 85.8501 110.662
88.6683 98.407 115.388
56.4813 217.433 109.463
59.6847 94.8657 112.618
78.2583 245.471 149.472
68.535 205.795 140.914
80.7082 219.116 157.289
41.9667 188.141 198.843
60.4241 168.523 69.5932
72.3577 84.3342 118.164
39.6466 78.3619 250.937
58.3538 170.287 229.556
42.5798 183.157 205.073
57.8894 231.33 235.888
69.1765 165.062 86.1265
40.2186 70.2901 237.283
62.755 79.0721 254.762
74.6379 244.146 164.168
68.283 131.984 266.456
91.3713 247.628 150.691
75.5961 164.036 256.859
22.6097 51.4521 235.223
96.1844 247.307 180.633
83.144 117.912 108.209
72.6739 146.27 245.232
71.2798 155.518 99.3788
38.1317 52.1309 228.701
53.5895 150.656 139.594
91.5425 221.612 147.658
54.1041 100.14 208.008
61.8862 143.412 146.65
51.9718 238.233 169.234
58.2491 209.36 254.68
58.7095 97.1174 99.3331
80.6694 98.8111 91.4375
72.1017 239.643 162.955
70.7726 212.816 85.0819
23.0626 163.118 153.155
83.2842 212.362 129.713
76.5492 245.208 154.376
93.0799 242.664 132.024
66.9993 160.818 114.091
66.5692 159.608 94.954
48.2976 130.261 171.656
76.2643 169.897 82.0022
54.7321 134.523 167.647
47.6513 101.788 27.24
73.2734 160.289 102.64
32.5688 68.4506 242.977
82.6442 89.5028 114.157
22.8969 177.461 223.974
87.4277 107.651 111.012
96.1847 221.543 139.556
41.2822 61.2395 238.912
48.6102 66.8804 244.44
48.0743 125.958 229.551
70.473 154.923 111.511
63.852 220.572 246.649
85.5796 100.891 94.3798
48.6495 134.841 229.49
91.3559 98.1945 107.535
86.7258 213.002 125.657
37.4341 141.575 161.834
65.6948 150.839 135.194
80.9618 247.62 189.264
55.3249 104.806 263.977
51.8702 169.794 226.232
89.5169 218.077 136.128
70.051 215.071 110.727
45.2033 86.241 51.7737
59.5423 122.899 85.2437
96.4661 238.516 138.751
59.1047 95.6928 208.537
22.2772 143.224 200.632
66.0896 111.288 82.8332
74.2166 247.587 193.882
77.4533 168.058 95.0575
46.8122 102.067 212.422
