ply
format ascii 1.0
comment Created by Open3D
element vertex 810
property double x
property double y
property double z
end_header
22.6895 224.32 103.48
23.356 206.943 83.8744
25.5489 207.492 133.346
22.5318 185.041 152.244
21.8809 148.519 99.1285
60.2109 56.0181 82.3987
36.0854 202.558 113.579
62.235 48.3225 131.723
34.7683 167.763 123.778
23.6574 34.925 139.474
41.4917 61.064 162.546
38.941 53.4485 92.3697
32.6167 36.2843 125.884
33.6606 40.1962 139.15
57.7688 123.104 67.5105
27.1736 246.239 127.946
47.4837 164.776 186.58
24.2143 180.779 114.377
32.9632 79.6769 231.18
28.2154 76.6143 75.0087
33.1527 251.383 111.169
33.6667 80.3491 48.6544
23.8857 228.314 88.7528
24.7046 208.023 157.26
42.3994 141.19 202.453
62.81 99.8577 209.822
23.6346 120.624 211.724
24.4526 178.405 175.613
32.2807 144.72 163.11
34.8036 58.6619 189.821
18.8392 52.2379 167.614
74.0062 47.8478 133.459
23.1706 192.915 152.852
31.6747 154.509 167.859
37.927 60.0807 175.975
28.2777 40.6415 172.798
36.2004 147.481 244.25
33.7615 166.215 69.5615
34.1715 141.743 138.169
22.1653 170.174 122.135
46.5765 154.798 75.3622
35.1066 225.535 198.263
20.828 103.944 221.897
36.2089 59.0548 64.9128
38.7693 169.888 98.7314
48.5456 59.7277 153.466
36.9176 162.922 107.184
28.7007 112.048 86.8921
21.4073 175.094 128.936
75.8974 81.0754 88.1519
52.3413 226.886 140.213
24.6104 221.478 149.871
24.5822 171.241 152.495
24.4916 157.207 103.984
74.9163 70.0454 122.411
20.7874 178.732 136.97
22.5949 212.239 146.765
31.5715 115.544 187.106
44.82 153.554 203.087
28.0214 228.23 186.293
30.5036 90.6904 54.6439
48.4729 179.82 227.02
20.7018 37.8354 155.461
23.0292 189.999 140.845
31.6597 125.027 188.168
35.2509 78.5847 84.4621
58.0511 208.952 178.737
34.8628 192.411 226.586
39.6124 201.565 87.7742
41.462 55.6416 82.0761
40.8201 99.2811 182.353
25.646 196.167 128.278
46.3919 140.736 89.0471
26.2627 170.442 169.857
25.2376 130.719 204.384
34.3961 123.365 43.2684
30.1219 37.8379 156.945
36.2771 47.5481 147.186
35.5764 192.992 112.626
21.2903 161.438 75.8081
22.0836 146.146 124.38
70.8257 87.3078 81.552
43.9274 133.334 151.364
26.7078 187.515 62.2654
31.4686 149.01 123.827
24.2525 224.507 132.876
27.6722 54.0809 98.5139
49.6585 56.7344 84.0319
29.3751 171.943 238.375
18.3945 77.6379 180.951
34.7403 148.547 143.78
68.3347 91.5647 96.7285
35.756 67.7039 54.9963
41.1553 135.056 96.5937
58.1261 51.6312 120.841
24.0142 232.545 168.865
20.9346 169.054 134.511
25.4489 196.507 80.723
51.3984 57.6564 94.1097
23.5088 199.074 167.946
21.1589 120.537 224.321
40.5812 204.108 61.8653
26.8369 245.499 145.996
34.7481 150.324 41.331
36.758 142.886 54.0338
34.6273 237.935 89.1737
40.9618 225.012 112.087
23.925 200.966 150.606
21.6485 112.422 147.363
59.3542 90.7683 110.679
59.8294 50.889 142.842
40.8905 214.146 73.4786
24.1197 57.6741 78.0753
47.3843 161.42 202.625
23.1326 182.491 124.872
21.5033 209.175 193.897
24.0684 216.313 169.465
31.7808 46.8331 176.308
40.1893 89.3199 232.192
26.9019 170.747 177.95
33.8968 38.7849 116.856
49.2706 147.904 219.32
21.0731 177.619 201.828
33.3063 235.788 180.237
19.0056 106.892 160.002
72.823 84.5852 72.6074
61.7347 110.545 50.9135
76.597 55.604 145.734
47.2358 164.127 195.012
22.9671 112.467 80.9202
23.6615 165.79 197.402
36.056 189.331 233.441
53.6169 130.738 155.309
41.7052 57.49 112.09
19.7919 38.5863 172.361
27.3881 163.621 165.258
80.8033 57.705 119.113
54.772 118.451 74.0995
50.9868 171.798 205.765
20.1214 146.554 75.3984
40.295 149.419 97.0272
33.0893 51.1392 183.405
29.5821 164.084 181.202
28.457 86.3309 63.2081
23.1461 212.502 97.0951
34.8143 121.812 142.737
22.3078 215.349 82.8614
21.7865 142.688 94.1021
41.6815 135.978 196.004
21.6287 136.727 83.9655
22.13 231.719 99.4443
68.2498 67.7516 193.535
43.0865 152.782 238.386
26.1954 68.1484 81.6058
22.9704 198.438 211.735
25.9182 160.824 153.072
19.8049 98.9085 230.521
21.7302 153.071 218.974
35.9021 132.245 38.8956
29.3896 124.02 84.1711
42.5991 134.802 244.28
47.3817 162.52 229.033
23.8958 192.227 174.861
48.9544 118.212 153.572
26.0806 47.3646 109.757
45.459 146.28 211.988
31.3111 129.497 123.73
40.9981 94.5816 143.093
30.8575 47.731 191.502
32.6973 174.48 138.661
32.1387 91.5765 45.8694
20.5249 146.003 109.158
24.4686 217.049 108.773
24.2581 194.57 93.4724
41.2532 224.958 119.613
23.2765 186.136 224.399
23.8129 106.43 211.649
39.9565 229.47 103.722
34.6892 112.785 127.853
25.1539 115.467 170.611
26.3028 73.3503 228.432
37.1895 250.252 154.165
34.1666 115.039 48.1001
25.3003 200.103 67.2782
23.3551 175.626 229.543
52.3363 178.979 216.301
36.0434 139.848 102.461
21.8316 51.3222 193.813
22.5497 132.595 121.472
24.53 172.838 105.343
23.9508 190.596 116.843
42.5561 84.4596 159.94
21.3229 141.812 134.774
23.3726 76.2237 123.716
49.6981 145.168 71.2116
20.2117 73.4601 113.368
30.3827 52.7295 76.1015
24.7396 163.99 233.219
34.8433 71.4195 223.288
51.3443 122.283 86.0212
28.7609 250.287 139.758
52.9052 56.2578 127.217
31.4425 164.62 136.886
35.664 110.738 117.07
25.1333 132.754 75.8723
30.2687 136.187 194.713
48.0034 149.539 155.77
32.491 141.902 189.741
57.0196 112.567 83.0574
33.6226 129.662 182.228
37.9693 141.556 148.424
52.1995 89.9637 117.948
52.4959 57.2487 72.1167
44.6104 129.396 239.67
44.7967 231.697 121.536
32.5196 46.0858 97.2786
22.9507 59.0364 203.989
45.5725 107.849 171.948
54.3971 125.628 216.155
25.7851 234.476 177.206
36.9013 243.821 98.4504
65.9329 54.443 92.1536
22.2096 152.951 232.866
37.0007 48.2555 101.55
60.8886 100.816 90.3676
23.8946 134.938 135.879
21.3293 125.45 92.4887
60.1356 224.43 155.238
29.0771 194.445 226.531
41.9688 107.737 151.261
25.853 221.46 76.4931
26.4175 141.888 150.642
77.1781 54.2912 105.587
27.6265 151.651 199.075
25.1725 197.882 135.568
24.2125 218.775 190.064
23.9578 96.6967 116.809
21.5755 77.0368 224.845
40.3308 56.8089 135.383
67.7065 84.1424 191.006
43.2478 70.754 207.128
45.663 90.5915 40.6018
24.55 121.555 240.713
70.5479 59.8502 75.9675
48.452 157.639 51.6254
24.4298 160.882 208.801
23.2769 96.5756 213.647
59.2644 126.401 164.48
68.8799 56.6186 178.08
22.6704 167.887 144.932
35.463 105.179 129.354
22.5489 151.789 83.6894
24.2696 84.2527 120.309
37.0793 141.249 38.0101
47.3596 238.574 125.819
34.1777 111.035 140.932
50.9083 174.567 191.944
73.5692 49.0387 148.96
27.2113 141.942 244.012
48.0094 61.044 59.458
28.8547 190.944 72.0753
52.9391 57.6281 117.604
25.1665 241.43 157.062
20.0614 62.0911 144.574
28.3248 134.753 153.227
39.2791 215.5 99.6923
36.7355 120.193 57.9468
20.5085 140.776 223.5
34.3985 130.927 174.436
22.2409 220.888 92.0441
18.4048 94.6973 174.896
21.6075 122.145 99.46
36.7226 230.949 189.464
20.7576 104.656 185.5
53.3915 125.753 40.1295
41.5724 187.142 78.9539
20.85 101.025 237.963
26.1745 201.954 173.814
20.8416 68.6497 195.327
34.1878 52.5853 169.139
22.6123 171.333 204.382
57.1025 59.3227 65.9709
45.9398 209.467 210.904
31.9213 120.539 116.446
33.9977 159.499 125.778
49.1494 207.294 204.475
21.5391 87.0445 200.838
37.4412 206.633 124.9
37.331 133.417 144.977
40.3023 252.013 132.961
32.4468 134.8 82.9068
41.2813 170.313 84.773
27.9483 83.9782 236.753
51.3077 146.826 62.1214
51.2157 177.184 198.212
20.7001 43.8924 137.488
35.3126 166.954 46.6887
44.2618 105.016 236.879
28.1131 69.5448 64.0449
40.256 221.113 81.1917
24.2022 189.742 101.877
22.0783 225.567 181.143
27.4305 162.397 192.691
35.9166 155.716 108.347
46.6237 132.367 208.092
18.365 88.7895 155.065
56.8939 53.8772 135.64
40.3582 250.766 116.543
37.236 167.769 149.5
42.8218 148.139 198.966
29.4627 246.699 103.249
19.2831 80.9765 193.776
22.3763 116.958 235.956
56.2774 107.66 43.3716
35.5188 65.3201 208.147
47.9209 160.306 211.646
37.0168 44.0218 120.528
33.4429 44.6627 165.719
23.8569 201.141 160.579
38.4363 231.68 86.9221
36.457 194.691 140.071
20.6089 132.024 225.279
58.9934 61.588 188.182
49.3935 215.719 202.466
40.1148 216.736 204.527
24.2648 103.91 191.669
34.0107 149.692 76.8768
31.2889 243.074 94.4397
25.0476 182.469 80.6087
48.8662 98.8775 39.7995
73.8353 68.1927 181.128
36.4167 156.287 69.9396
36.8746 125.353 103.456
32.1005 164.963 241.502
25.2386 60.3101 89.7084
31.671 63.9912 61.4154
75.4326 73.8688 108.416
50.846 195.454 206.966
23.6263 179.288 87.4511
18.6306 62.0322 171.011
40.1225 125.871 193.491
46.5309 98.2567 115.143
35.9909 216.903 67.6479
26.4598 175.734 73.0822
43.7783 98.8003 148.558
43.2171 248.97 153.161
22.3742 210.633 181.131
48.0726 246.983 150.543
26.7523 76.3594 65.1487
39.0365 121.212 66.6184
34.1717 160.199 146.002
40.3742 213.534 89.6318
32.8013 252.658 132.708
23.651 150.392 207.952
42.0859 117.2 149.452
19.2566 42.8489 165.191
30.628 199.973 220.772
37.7727 50.1555 125.035
42.8546 82.2184 151.371
46.1398 88.73 131.297
27.6119 151.038 241.831
67.9262 46.0157 121.705
20.2505 50.0244 105.123
66.3887 89.9887 205.411
28.9731 78.2494 56.8922
28.3252 181.338 233.359
22.9097 102.039 86.1612
35.5385 136.683 72.7609
41.513 129.582 203.042
21.189 127.647 115.113
34.223 137.626 46.004
45.4424 64.9524 53.5917
20.9302 136.032 212.382
42.9602 124.958 36.6472
22.2838 144.361 209.721
52.2522 58.6748 174.137
46.6665 113.014 36.4193
46.2542 181.363 60.61
53.1266 92.9188 43.1063
40.8151 235.47 96.5464
32.6218 128.975 112.542
50.0791 57.4057 137.277
63.8874 60.9243 65.4245
47.8829 96.3553 156.06
42.1271 162.672 237.981
46.1799 56.8311 68.6431
50.1029 97.8739 107.475
52.1764 140.6 54.567
43.8033 102.476 36.347
32.6978 196.29 56.8562
19.9442 51.8786 132.39
59.149 101.177 219.696
23.946 233.288 144.839
30.9787 164.104 188.023
51.6952 150.91 176.155
29.5385 109.005 192.755
41.7742 119.442 98.5608
39.5651 102.466 39.1557
20.5776 79.3116 131.962
55.1557 232.159 161.639
18.8031 43.1279 148.663
36.6539 151.858 56.6472
41.7917 142.908 244.744
53.0075 133.563 74.7028
40.529 83.6182 43.378
49.3641 83.996 42.8044
26.3242 143.504 78.4577
32.5095 157.673 242.869
30.703 83.0556 76.4965
66.2714 71.4972 199.759
21.0253 84.229 219.363
21.8342 86.5842 232.72
37.2993 104.56 142.427
22.2339 130.343 234.374
21.1663 186.907 199.856
42.1406 151.051 37.5907
24.0936 247.415 119.485
50.2176 243.789 144.166
30.6573 61.1957 114.113
57.1113 85.0322 217.195
55.0824 101.036 197.513
19.5109 128.543 77.2861
50.2357 91.8317 188.062
24.0659 39.4396 125.052
24.572 107.751 137.492
49.1643 159.113 59.059
38.6523 151.129 150.894
20.0684 110.376 173.118
20.9739 109.931 226.276
58.9457 52.1635 163.059
36.0601 90.6866 78.5549
19.6911 47.9733 184.284
47.8857 153.578 216.037
34.0934 252.132 144.905
48.8341 191.862 217.602
24.2384 65.9858 216.04
76.1322 68.6631 78.1134
20.4122 92.2491 224.481
29.6458 248.27 153.184
47.3216 154.516 42.2671
33.2441 209.353 61.9143
61.9522 90.1099 52.5319
48.1059 149.364 231.425
21.4754 168.355 219.864
53.3561 116.18 230.62
31.8362 152.459 180.047
72.0195 72.1821 188.597
52.6271 117.477 39.0145
54.5933 102.316 98.1513
29.5763 216.747 68.1873
70.1478 74.8262 178.351
34.7853 182.986 49.5979
36.3084 183.963 235.393
22.463 153.519 122.329
30.1224 116.28 178.155
37.5989 187.157 91.9089
44.4788 141.57 189.459
47.5956 139.253 239.195
33.95 252.522 123.003
54.7504 113.491 160.907
44.2832 237.042 175.475
41.2456 161.57 93.5943
18.2309 91.5086 187.995
26.0774 212.362 119.74
63.83 103.105 81.2571
31.1438 86.0227 71.9979
58.5231 67.7726 145.008
31.2274 115.566 245.159
45.2252 112.012 178.375
23.677 180.713 187.908
22.9228 42.6443 183.961
35.473 224.021 74.467
48.0754 103.486 164.568
29.853 235.461 86.9171
57.3538 92.2105 221.036
37.8097 202.202 96.8713
33.8344 183.286 127.096
22.7853 119.749 76.6566
41.7229 199.362 72.7691
71.5239 74.4445 65.1562
49.846 71.8193 48.3207
24.1175 241.81 102.443
28.3485 82.6694 101.925
53.3134 174.068 185.921
41.8239 126.828 148.345
42.9348 88.8727 143.378
65.8992 103.962 72.7333
51.9915 142.517 229.354
42.4833 115.609 183.362
74.291 77.7908 101.621
23.8869 198.213 143.164
38.1279 133.034 58.5293
64.3025 81.3101 182.428
33.0237 99.4054 242.753
39.6526 187.115 85.2254
55.1568 85.2314 122.322
47.6889 246.708 132.866
70.2533 95.4547 68.356
61.3077 203.978 173.945
53.0814 131.853 227.114
64.9242 73.0804 57.8641
41.7739 250.981 123.518
20.6602 137.419 104.511
41.4027 73.4578 47.2808
41.4569 96.9468 235.936
31.8152 157.833 134.35
34.2508 100.683 42.4846
32.0039 40.9809 105.739
42.1919 85.3904 224.857
24.9847 51.8429 121.506
18.6486 60.0461 179.593
45.8553 250.397 142.292
49.9422 118.551 204.448
57.9678 124.889 50.0897
36.9352 132.401 247.826
21.928 103.537 99.5241
58.7868 190.749 160.506
44.5526 224.719 131.762
23.4171 187.881 132.027
56.962 100.433 48.8683
51.2853 150.836 49.6489
23.29 241.55 133.739
26.2747 208.567 169.15
59.6972 119.81 55.418
38.986 78.4368 223.257
41.4352 170.367 154.998
61.6798 82.26 121.32
46.1204 80.6348 135.238
61.6501 127.95 175.767
39.7665 94.1288 87.4406
34.6019 191.926 131.67
42.7125 107.314 104.922
39.6586 253.046 140.894
49.8742 79.8289 175.171
18.4302 78.7225 148.028
39.2554 198.546 222.05
41.6649 178.806 81.0188
33.3069 50.6431 86.3516
22.3046 91.961 236.807
32.8562 180.689 144.139
57.4407 97.0603 102.729
56.905 118.35 47.3814
22.7478 140.089 236.686
31.5056 71.1828 107.78
52.6701 136.285 45.6892
43.7648 151.306 188.463
25.8224 50.1632 86.2371
29.7229 66.8773 220.518
48.3718 138.239 212.809
71.7945 68.0762 68.2908
49.7568 75.0249 168.16
75.9859 47.6872 113.967
49.4074 102.681 230.752
61.6831 52.3905 107.904
34.4588 108.12 55.871
40.3005 206.978 214.378
49.4927 235.181 136.542
23.5394 198.704 204.413
25.5868 212.33 71.4155
58.6177 81.7216 51.4464
39.2675 50.5332 113.416
42.0113 240.521 111.478
61.9259 214.499 161.086
20.3047 79.7716 108.892
43.319 222.872 197.105
26.9776 208.056 65.3796
30.7433 146.488 131.328
24.283 182.199 106.011
20.0611 56.9811 190.782
52.6609 123.678 230.823
42.3606 246.447 162.486
24.2845 181.813 162.292
21.842 192.044 204.906
62.2348 150.014 170.522
42.6034 83.3061 141.1
56.7587 226.443 147.739
40.2351 194.013 55.0735
24.1376 126.426 143.847
32.2755 153.291 139.332
33.0027 129.958 136.51
21.9059 184.402 212.449
51.6551 239.616 154.638
23.124 112.667 124.999
24.1228 178.165 166.613
23.671 177.855 96.7842
58.1374 55.4171 178.12
46.3642 123.688 181.565
44.2794 238.028 115.942
46.4241 59.8599 127.943
46.7873 64.9306 186.098
55.8037 65.8382 196.186
40.8146 182.792 50.0569
54.951 159.269 172.802
47.8795 159.078 67.7219
75.1084 62.3863 130.286
62.2043 92.469 192.251
39.1103 102.566 82.7655
55.1984 234.286 152.676
63.9067 95.2724 198.101
22.56 107.423 235.285
49.5417 139.819 156.591
42.0675 235.847 180.69
33.6947 137.826 247.06
44.184 163.018 89.4861
40.4703 200.166 148.864
33.9854 177.889 118.899
44.0707 209.801 146.176
50.7275 165.024 215.695
36.5057 247.249 163.012
24.3962 224.117 158.55
56.7062 219.281 172.082
66.7627 89.0805 59.7716
31.0246 57.6765 107.523
48.5716 122.416 236.521
30.3283 91.1052 241.396
33.8587 154.12 187.024
42.0994 157.612 155.173
54.1507 115.002 177.791
38.1903 240.054 176.131
40.9292 178.23 157.762
77.4412 65.9392 92.0233
60.7204 162.202 162.376
68.0782 63.921 136.135
36.8501 114.326 38.3599
23.2284 194.219 220.809
56.4626 68.3722 152.701
18.9191 117.666 195.408
34.9285 48.1251 110.169
56.1849 118.772 222.666
54.9107 125.303 179.929
44.0566 122.482 202.55
54.2436 194.231 198.522
64.0024 82.5615 208.674
25.4037 45.3248 98.2509
59.3675 69.0732 54.984
19.5646 94.1678 195.743
52.8947 70.2217 138.938
62.8657 138.444 173.311
57.1943 134.598 160.568
56.3517 189.51 189.463
56.1328 209.591 156.88
56.2571 112.32 226.522
19.3288 67.4079 136.457
21.0691 91.1171 134.71
61.7839 189.13 169.059
53.9244 68.1308 53.7552
63.9539 68.273 130.723
66.868 71.3484 168.675
45.0007 105.518 196.003
59.8469 68.718 202.087
34.8444 166.959 57.5916
24.0722 100.233 198.088
40.1223 97.0261 128.974
19.4691 116.756 93.4583
26.0579 104.026 203.387
23.7885 79.3874 201.348
58.3523 119.111 173.794
25.1319 89.154 207.476
24.0938 236.724 100.188
24.1302 158.172 90.2722
55.8075 97.1261 225.303
30.4658 244.992 163.494
68.8971 66.7915 153.436
18.5215 85.3968 140.05
33.3217 90.4941 234.854
43.674 59.778 142.719
67.2624 48.2889 111.933
38.9682 177.479 237.22
40.5878 99.1402 118.573
22.2827 74.4089 210.687
58.4953 55.7469 99.2333
69.3579 85.0154 103.965
28.6078 182.501 56.5544
24.4883 208.07 201.798
74.8014 74.9666 73.5697
36.2874 68.0704 102.933
71.0463 78.8389 188.327
29.9486 216.582 205.032
37.8683 82.1988 97.812
50.0707 167.952 221.312
26.2654 170.781 160.118
54.9002 137.334 176.77
36.21 118.051 107.832
47.3207 71.8892 160.047
49.2075 79.2957 215.41
47.6231 241.524 159.847
28.9568 223.389 197.548
50.6861 108.488 232.472
24.2923 191.401 166.97
55.3716 81.6924 127.223
65.8342 47.8557 154.465
35.1355 150.137 49.0499
77.6995 67.3713 112.654
77.9659 52.2994 125.927
49.7377 89.6727 223.068
59.8215 113.84 210.254
23.4069 164.864 90.8325
19.1203 188.911 212.88
22.5445 47.9533 126.87
22.8967 111.423 91.7836
58.3752 171.752 163.666
43.0883 143.854 151.871
37.8522 85.5239 83.866
36.1758 143.863 70.8614
57.6622 196.041 181.017
37.9692 98.0077 134.587
55.3967 74.6805 210.101
63.4482 141.264 167.601
61.2851 74.058 206.574
33.8223 133.092 106.121
53.1941 75.8992 131.94
78.5349 62.4945 101.012
67.9553 71.6729 125.972
45.9265 140.99 179.633
22.3502 157.867 118.356
32.2642 63.3246 96.995
55.1224 104.421 228.275
48.5328 108.757 97.2067
67.2246 98.9092 60.322
22.1276 171.123 89.9792
23.2358 201.387 73.0402
45.1835 195.348 223.707
58.597 182.262 172.359
57.7233 177.569 178.456
38.4066 110.037 109.534
55.3875 143.553 161.395
24.5798 43.2073 114.463
59.1642 107.411 223.144
62.9916 111.907 67.7259
46.1599 237.739 167.122
56.4529 183.947 183.974
24.4766 98.8236 242.612
63.8863 85.2023 115.455
47.3016 216.834 182.777
78.1878 73.2578 94.2307
49.9151 173.053 224.387
46.1349 157.769 234.239
44.2008 188.88 157.143
61.7998 115.932 64.3925
46.4356 174.441 60.858
33.235 90.3396 97.965
27.3783 36.6922 114.337
46.0051 199.466 155.535
22.4701 172.529 82.7154
44.5092 86.6465 181.944
51.2721 217.496 145.634
31.1012 134.683 115.843
22.8599 83.2124 212.241
71.5624 60.7961 142.787
69.0737 96.2732 75.9239
67.0864 79.3875 58.5019
73.7366 55.4832 93.625
45.8843 161.919 158.915
57.4778 174.638 173.4
49.327 131.774 179.326
36.6828 104.538 65.9367
25.7212 121.271 196.144
18.5263 52.4995 178.15
59.2527 77.6662 175.844
24.199 238.412 115.877
56.3907 109.888 204.334
58.5982 70.6337 134.296
79.0259 68.6712 101.276
68.5334 102.465 64.1946
43.4423 56.834 73.3943
24.2117 169.341 73.7698
62.7621 75.59 125.287
60.8202 155.048 163.595
24.1034 166.046 97.4163
23.0068 140.456 112.011
24.2946 200.504 193.085
24.4745 188.23 84.7542
29.3769 154.058 77.5252
22.8363 115.815 188.299
49.6792 107.44 157.655
50.7384 199.533 212.58
68.5353 64.4402 65.5509
25.3451 122.967 188.683
30.6513 57.4126 209.225
38.9811 123.96 76.5576
50.0597 212.182 186.936
39.4949 190.533 151.081
48.1919 59.7989 108.042
35.5229 106.324 91.1761
42.0523 119.281 81.4306
65.5067 107.384 63.4625
26.1749 124.267 159.815
28.6851 70.1368 87.61
63.0274 36.9288 130.15
52.1699 176.34 210.258
52.7037 130.633 79.6656
52.5704 153.176 159.843
41.9921 184.45 154.448
65.0536 77.3595 116.582
51.3557 171.089 160.377
60.8714 110.953 217.168
37.4497 99.4508 124.394
66.4501 77.3679 205.058
56.8781 70.8492 162.557
32.4768 211.006 213.856
36.0325 136.831 65.1387
24.2242 162.009 116.405
69.4809 82.1677 108.908
31.7691 139.123 112.885
47.4878 142.143 84.2491
41.1509 118.137 242.443
75.6875 59.8631 90.1767
50.8021 209.909 155.073
41.5645 89.1561 164.449
23.7469 194.308 87.6845
