ply
format ascii 1.0
comment Created by Open3D
element vertex 787
property double x
property double y
property double z
end_header
17.0588 154.234 124.176
34.8387 172.022 152.254
23.8135 127.761 152.784
83.7796 221.339 77.8129
88.7455 188.877 57.883
59.0103 197.547 152.698
81.7041 162.525 83.2163
42.8191 175.309 149.64
61.0449 145.165 174.231
23.4602 163.365 156.835
61.5917 152.586 168.074
51.2504 154.725 50.3982
62.8804 45.5634 72.9602
77.0731 168.521 149.999
77.1608 220.593 68.6145
51.7788 209.991 129.507
54.6176 87.0129 184.038
64.7493 91.4194 38.6714
51.0468 61.5084 156.982
64.4843 211.854 60.3096
78.3153 191.054 50.7535
68.5025 119.306 182.302
76.7005 221.721 149.865
40.1355 187.91 124.858
42.7607 73.8576 123.603
81.7626 183.203 45.0432
61.0703 37.698 80.1178
45.7009 198.006 79.5109
23.0696 62.2023 98.3061
53.6248 75.4381 120.82
71.7753 101.053 159.551
93.201 178.371 92.7221
55.1534 188.712 149.905
53.306 184.507 161.274
58.8896 212.523 111.724
28.6512 139.887 121.174
70.7121 190.701 171.103
62.7094 133.441 172.714
33.9891 93.8031 130.265
78.7096 136.392 140.44
49.0952 103.082 168.879
30.799 174.095 131.712
23.5103 145.887 119.691
82.2174 168.762 119.393
20.332 135.648 138.605
46.8956 75.2948 91.3574
42.5125 100.151 177.684
79.0191 173.144 170.898
56.9672 171.354 49.9661
25.7426 175.38 122.145
36.1982 110.99 129.769
54.8881 87.3926 99.1746
41.7259 94.7069 182.175
59.156 64.6281 161.635
82.5622 145.035 122.489
58.3667 154.125 179.1
49.6137 67.8756 126.112
54.5897 34.2348 83.5915
16.5698 162.245 131.466
27.3862 116.459 73.7739
48.4241 42.6041 69.9611
55.4498 46.7661 74.9035
59.0382 78.1118 67.6678
32.9894 199.302 157.833
72.6258 101.672 109.609
24.2046 83.4011 91.0343
57.7761 55.0876 144.299
71.7534 161.355 166.063
50.0347 79.3224 129.522
36.5334 178.703 142.362
31.956 117.435 144.828
28.2935 124.534 144.34
67.549 92.688 133.7
72.938 91.2655 56.3336
48.2808 198.555 68.9745
80.4951 154.419 115.228
86.949 153.265 68.739
59.3443 67.6054 147.437
23.4691 73.8889 39.0501
20.6582 142.099 128.406
57.3173 196.334 164.654
41.8065 182.954 133.46
33.4876 62.5964 75.3829
17.4653 143.401 144.301
57.1432 68.2069 44.3529
69.9734 125.48 105.746
67.7695 82.5525 40.7649
70.6287 180.242 45.3895
85.4764 209.439 62.135
79.2661 204.969 55.0401
46.5825 129.837 179.318
43.363 84.1645 36.4004
35.6669 94.1923 155.378
44.5441 132.984 52.5902
23.3107 73.3679 66.9115
82.573 120.788 61.9964
23.1419 152.799 161.339
75.55 173.848 43.3551
45.0602 55.8667 51.5912
54.8416 55.2964 111.243
31.0913 163.399 111.686
20.0439 141.942 152.957
26.5118 133.283 132.153
27.6507 148.985 106.731
32.2958 143.096 106.342
61.5741 210.051 95.9023
33.3041 122.02 160.385
31.2116 82.6883 102.209
73.1286 130.686 44.0587
49.1961 65.7272 42.7622
50.4443 214.712 145.916
63.7831 203.875 166.078
23.279 151.998 110.4
48.5559 224.177 104.099
72.1977 181.295 174.457
46.4426 99.2852 35.0201
63.3557 100.239 187.523
75.6195 232.701 109.166
49.8546 45.0949 80.7745
68.6627 169.292 174.592
76.9353 212.55 158.703
54.3151 74.0437 39.0163
85.4332 150.777 60.0236
55.5461 90.0751 39.1956
50.9352 126.912 190.681
59.3539 215.451 154.609
43.4328 66.0786 45.7794
86.2032 206.594 153.383
61.7751 100.52 95.7631
51.4088 41.1181 111.161
24.514 140.811 136.753
27.483 160.219 105.728
67.2575 216.974 100.409
33.0534 155.996 91.5003
82.7851 194.015 134.462
54.6672 169.857 73.8771
80.3926 224.098 90.9486
78.2286 199.17 170.96
41.2677 142.439 182.538
47.3547 64.7427 97.918
42.8543 126.379 59.8805
32.6888 136.977 175.958
43.8248 200.461 136.654
51.8551 54.2629 54.6557
30.5866 54.7921 129.328
73.0811 107.586 165.151
35.3001 89.2358 111.71
46.2175 187.519 148.537
53.9614 58.597 93.8782
49.9028 80.1671 40.9174
80.8423 126.705 122.261
60.6677 162.702 170.934
73.4266 215.476 61.4672
45.6284 83.3459 174.379
44.2711 102.788 45.9621
52.0119 34.6754 96.1327
34.8098 103.533 148.409
71.105 98.4876 44.0221
75.8531 124.997 48.9018
42.8179 132.434 75.4031
43.3215 38.5526 90.6334
22.9478 106.527 75.1223
29.5206 128.617 138.013
80.7163 179.202 131.194
67.4127 129.19 53.8539
66.9789 77.0363 187.652
34.7456 99.8856 100.306
69.639 200.926 148.056
70.5236 210.787 140.07
69.0235 222.905 149.621
47.8603 138.858 69.4255
60.7494 235.272 113.053
52.2295 144.738 184.858
25.268 60.88 59.6191
64.2909 183.065 175.233
59.7501 204.827 59.5589
44.6586 45.0662 125.646
67.2042 103.343 172.274
77.7885 228.015 136.168
97.0873 195.413 126.846
28.5741 102.54 48.9251
59.801 196.682 80.7853
65.5366 172.133 47.6487
76.6856 141.248 111.757
83.7372 177.193 147.53
50.657 185.785 72.8838
52.0969 157.271 174.778
67.2583 103.959 39.8955
45.3254 37.9983 84.6218
80.8055 125.912 145.248
68.7482 218.249 71.8293
72.7763 206.023 55.6111
39.7573 157.596 88.8436
37.182 162.837 96.4448
42.0774 206.214 124.491
58.145 89.8517 140.028
35.7889 49.7201 76.664
67.2998 154.469 43.4351
72.8092 126.254 170.777
66.7048 81.8301 170.943
29.9549 53.0319 80.2315
61.4333 40.1831 113.083
57.6947 94.8774 178.097
37.0146 173.996 127.769
28.3789 172.606 142.089
52.2459 201.264 154.325
87.0157 173.522 55.7718
53.7685 126.513 42.9089
53.5723 100.995 35.9562
61.1188 107.14 40.2316
74.6417 210.186 91.1793
32.1901 141.561 80.5441
36.6979 39.8766 109.899
51.7104 46.6692 63.5465
59.8624 162.513 56.9286
56.2817 78.2226 169.283
42.1127 118.728 69.3799
43.5774 35.4246 105.995
32.4936 75.4547 148.534
58.6763 172.261 174.357
83.2439 145.624 133.288
53.8581 197.623 75.4577
91.0271 200.96 92.6477
23.2717 87.5817 71.5722
29.5716 135.013 83.7172
71.4047 110.391 102.585
86.8078 163.153 58.9601
57.1181 162.528 66.7283
30.9203 107.624 83.0189
52.0091 184.79 101.957
82.5142 170.094 74.1525
88.6572 187.808 149.918
34.3812 72.7243 44.009
52.6419 44.8762 127.253
54.3067 205.374 63.1165
77.3736 161.335 105.385
58.7462 71.7931 128.871
73.6728 138.775 48.1032
37.4445 84.2123 140.884
43.2779 180.77 110.263
75.4858 163.231 48.1995
85.0628 228.332 130.125
34.6086 123.611 70.8913
69.2961 227.566 139.779
78.5479 154.519 133.907
40.4802 173.163 111.996
80.6229 231.91 119.417
49.6424 189.822 65.3817
66.9116 211.514 153.588
29.2242 98.4996 95.2276
26.1132 58.186 81.9824
42.3604 202.797 97.9363
35.6403 113.436 158.604
32.5323 95.1168 88.5791
57.0668 195.391 108.526
35.8758 118.559 151.707
45.2081 53.2967 148.056
49.1753 205.154 147.412
60.9261 47.7008 134.832
40.96 124.575 111.848
36.9878 63.5757 49.3494
41.5109 75.0155 37.7415
46.3421 219.332 112.045
63.8509 229.221 90.6187
48.3979 50.5187 59.9429
60.68 98.8923 42.179
54.0782 177.767 170.804
81.5635 108.222 155.047
40.5613 97.0209 169.197
45.4065 71.0079 163.257
47.0383 195.083 90.3591
50.8371 56.3525 142.457
25.0209 169.042 130.953
80.1943 144.859 61.1215
38.981 137.332 101.74
25.7696 123.245 81.3116
37.1629 110.648 174.47
76.6327 57.5047 96.5111
36.0869 149.624 89.483
38.0042 83.3521 153.967
86.6497 226.51 111.588
86.3578 183.297 164.011
23.7336 169.634 115.087
54.8293 96.4248 187.762
82.5877 225.777 141.625
49.0712 118.535 167.94
53.4673 185.565 83.059
92.8966 182.992 107.001
70.7084 116.25 93.1533
37.0265 162.893 170.685
60.9242 138.816 42.8725
72.4532 103.898 150.43
70.38 223.299 79.8422
39.025 48.611 93.1807
60.5373 34.6899 92.6733
35.6004 137.881 91.3732
81.3045 174.094 138.872
32.5285 81.0822 154.929
47.6905 185.715 109.163
55.5595 219.018 134.495
47.1543 196.409 152.129
78.5029 216.392 102.36
63.8172 168.456 176.464
70.9938 116.542 113.482
40.1536 56.3403 137.302
49.1267 92.0253 33.5511
24.9926 92.9558 93.9821
50.4118 137.061 54.6943
46.4587 119.695 174.377
81.7207 155.727 47.6919
18.1298 161.926 118.494
62.0023 226.37 142.963
80.6256 110.341 163.358
73.7633 118.481 173.716
59.3724 222.446 74.9951
93.4191 208.015 72.1062
63.1426 195.516 54.0568
59.4754 76.6037 149.471
31.1519 79.0994 51.0211
97.8541 187.767 93.4188
34.5949 90.3593 41.0691
25.8345 68.5043 104.732
48.5339 91.3931 183.151
62.3449 125.027 170.52
72.7056 120.902 149.204
100.498 205.519 125.254
52.7303 109.198 37.5388
26.7813 143.675 170.901
55.9068 135.254 43.4332
38.8822 124.206 52.7829
62.5114 116.624 46.5684
68.3544 102.209 78.882
22.7854 87.3281 60.7581
44.2437 159.973 170.222
52.0769 227.821 112.16
50.8141 144.241 82.0735
33.7559 130.223 178.721
72.4774 61.2268 70.9887
80.9826 92.487 142.612
66.3006 203.452 107.962
78.4894 64.1521 92.7276
73.3731 117.639 159.34
62.2933 76.2715 41.7267
45.0124 120.357 47.2579
36.897 72.579 138.427
27.3007 131.484 165.859
57.4925 185.846 174.138
22.3655 150.319 151.226
49.6225 196.55 163.094
65.5235 118.366 173.331
29.126 91.801 81.6929
75.381 157.551 155.9
52.3894 190.008 58.253
37.6862 125.474 183.578
52.7913 189.623 117.386
74.2255 109.448 82.5169
39.6083 64.0764 75.9665
35.637 79.1843 115.914
75.6303 213.369 134.916
39.5206 57.0969 57.1169
72.7682 230.033 128.005
58.2476 150.074 47.2846
71.415 93.986 176.321
74.4421 128.654 95.274
81.6276 183.383 171.12
30.9022 108.595 153.195
86.3579 202.895 163.485
31.0788 68.3983 54.6858
61.8755 220.203 149.004
26.0645 99.8602 60.6324
21.4075 160.76 110.895
46.5887 199.809 104.757
67.7505 142.228 172.163
40.6725 166.661 106.468
76.981 49.9337 84.0653
33.6812 113.62 54.7174
79.1595 69.1731 86.0725
15.9012 149.606 136.297
59.6405 48.8934 66.3603
54.6457 204.108 109.164
50.2736 182.338 137.798
25.5375 70.5812 95.2561
33.5603 50.3695 64.6635
61.1502 162.875 46.3434
34.6946 138.326 74.7565
73.2883 110.782 177.483
40.8122 93.102 34.6862
88.5081 226.61 121.575
26.9244 57.2791 103.411
70.8176 91.7338 113.765
65.0589 202.959 52.9144
64.9054 198.826 136.268
44.2576 130.571 185.461
79.2076 128.38 61.5138
54.5752 79.3816 77.1334
74.2062 88.2238 166.766
40.077 58.0901 92.5944
73.0459 205.893 167.628
74.8792 132.918 158.615
77.7605 103.383 67.6656
57.9342 40.2263 101.005
46.2476 41.7646 118.382
45.9735 74.0609 75.2983
51.2789 215.727 92.8815
33.4153 126.735 131.171
41.2875 71.482 66.7408
68.9907 97.4994 179.966
24.82 80.2514 98.5738
98.3774 185.523 119.161
53.8333 220.975 143.107
80.4498 63.4767 120.063
66.4033 220.079 135.266
96.4781 194.611 117.137
59.1007 83.0276 40.4365
29.3214 154.868 170.51
39.8806 57.1576 127.544
75.6956 115.147 147.461
35.0371 72.1813 157.995
38.5529 115.227 50.2805
55.8772 81.2504 131.062
27.2205 134.354 171.561
44.0161 68.1803 146.733
65.9709 104.843 116.56
52.2822 81.6197 144.441
54.688 209.605 102.814
56.6496 43.2687 120.994
69.095 65.5132 58.6724
28.291 58.3202 119.869
68.7116 87.679 146.502
44.5688 195.959 110.219
78.6833 132.375 132.219
33.3989 74.5547 104.909
60.1318 86.8401 133.186
40.8832 46.5879 116.027
26.6894 131.847 146.473
54.608 66.1551 169.646
39.405 133.547 178.581
45.3933 37.9409 98.6974
23.2307 76.4276 79.9827
44.8977 218.182 124.231
57.5685 212.506 88.0938
41.4751 114.547 158.479
19.4254 168.777 135.996
69.5585 123.734 160.607
76.0748 114.006 140.066
49.2933 204.948 78.7139
73.8294 119.884 119.167
30.1056 71.9142 61.9344
78.7109 171.788 51.4434
45.3585 207.185 89.8008
23.9794 70.6043 84.4715
68.978 84.3856 52.371
50.1936 190.934 83.5931
87.1017 217.88 144.984
35.2032 65.6318 117.911
69.0076 53.6865 121.335
59.347 186.889 52.3474
47.6682 114.007 192.319
69.388 120.389 42.4226
45.2902 79.1462 165.858
90.4206 215.485 77.1558
85.3059 116.92 147.779
39.8206 104.238 154.952
78.223 60.7834 79.6148
43.179 103.368 63.6163
65.7406 75.1636 147.543
57.4968 121.554 188.254
60.1006 75.0732 177.349
93.4116 223.177 126.164
22.7791 93.2019 75.608
70.8111 101.578 123.041
26.2821 84.2994 54.3902
75.5812 87.525 151.619
79.9459 122.333 129.642
38.9427 121.297 172.973
68.7225 101.517 138.73
84.2618 107.561 77.6699
74.4887 53.436 76.4213
26.9176 138.731 158.72
89.4221 178.597 115.817
77.6952 168.702 162.003
79.4392 107.431 171.855
67.6223 65.8392 121.562
70.5377 171.791 48.0212
54.3591 181.387 61.5391
35.2322 70.305 144.348
51.7964 211.12 68.8129
39.1281 90.112 158.476
55.1883 116.467 48.0706
30.6189 46.6554 110.537
29.7392 87.5472 47.9159
79.6289 136.054 53.8695
45.6174 126.252 68.9713
38.2433 169.86 161.953
28.5922 129.39 159.34
77.5787 76.7653 55.676
30.0411 70.8757 111.033
24.371 102.642 82.6637
72.3162 229.979 101.872
61.8792 86.8621 73.9017
70.6259 111.838 50.9984
18.0853 157.585 141.038
23.7831 142.658 162.768
67.7151 91.7335 46.8674
64.7724 42.6412 85.4901
88.6182 201.218 66.8049
87.2069 93.4456 64.7009
66.2438 186.476 50.1602
92.2655 219.944 132.992
67.6674 119.453 85.2841
85.2734 174.666 157.638
46.811 211.707 83.5519
68.6504 133.101 165.284
34.3401 145.52 174.205
71.1968 67.1669 139.956
47.4334 206.431 139.287
69.8555 85.0776 176.85
32.2104 62.3459 128.006
23.3191 135.822 150.214
65.3211 196.326 169.611
61.6742 114.276 187.143
46.5417 211.536 97.3105
39.0781 47.3788 127.046
37.9089 82.456 43.2809
31.6664 47.8262 102.593
32.3171 176.131 114.971
81.9657 114.632 128.692
30.6402 84.8114 83.6019
47.4771 82.3847 86.5807
91.3435 196.114 145.017
52.9373 210.661 155.738
38.252 80.3249 162.437
35.9406 107.429 44.2172
83.593 107.776 146.764
82.1719 158.961 158.641
50.2478 193.082 129.883
45.1478 55.5109 132.916
51.8385 187.55 94.6877
65.117 89.2894 102.297
56.7309 74.5191 82.9272
35.8052 50.1758 119.649
99.6566 185.783 102.749
45.7673 194.212 122.824
42.7749 118.034 167.589
69.41 82.4963 141.208
57.9785 175.229 59.0978
63.0468 106.604 185.011
63.6585 224.443 78.57
94.7044 203.942 145.616
87.7814 209.886 86.9373
64.3488 70.5439 52.1322
79.1214 184.158 54.8846
85.2006 185.876 140.797
83.3946 75.5574 86.7571
48.1669 113.523 165.161
30.2418 54.9812 112.011
84.6366 193.313 163.124
35.3665 136.426 115.685
67.4963 77.496 51.1706
32.2617 65.9972 135.054
34.0301 61.4961 63.8511
74.0105 75.4594 134.251
88.8344 182.991 127.289
61.764 76.3188 158.923
78.084 86.935 135.519
71.4399 147.547 160.81
31.1712 91.1873 65.5758
29.7313 79.844 72.1595
63.0212 88.5348 185.004
59.4913 91.0248 123.925
44.0303 62.7219 160.061
92.0302 193.336 94.6608
74.7848 112.453 126.333
98.0803 215.841 104.628
54.0867 64.2431 131.313
42.2188 89.3484 73.4134
79.8475 123.462 84.3962
66.9226 149.873 158.201
61.0088 53.5874 118.906
40.8122 184.453 142.417
89.9103 175.867 80.1935
79.0262 74.7454 100.437
46.2284 157.669 180.663
43.0451 74.4738 170.589
66.4131 77.1843 164.07
67.015 52.2354 113.704
32.3667 74.083 117.058
47.7905 166.917 170.292
97.993 192.416 101.084
57.4518 66.5312 139.134
85.0621 89.0876 87.0819
58.4412 220.719 84.5337
35.7993 72.6247 51.5273
53.2182 176.061 72.287
56.8948 53.1101 60.9203
56.1838 130.35 178.241
55.7583 217.311 105.842
70.4925 77.1958 115.399
36.5198 97.643 44.372
12.8797 94.3155 76.1452
64.9172 57.7904 69.0684
67.647 91.7257 80.8585
55.1601 231.455 126.21
32.0941 94.6424 58.4373
70.7262 191.597 45.8432
58.1012 124.39 61.506
70.8173 83.626 131.901
65.0096 92.7828 118.654
83.2984 119.85 136.362
58.3769 94.8332 97.1718
31.7536 168.465 109.931
75.8797 101.172 146.075
71.9723 222.122 90.4799
36.4657 76.4572 77.7741
57.5879 172.622 152.239
76.6644 91.945 86.3725
24.693 63.675 79.6247
51.8742 77.6085 178.002
63.9575 146.591 46.7924
36.842 132.756 184.213
37.3494 67.7892 155.613
70.2598 97.3054 86.1826
62.9632 53.6526 103.846
75.691 116.314 55.1322
46.2218 109.986 40.4032
58.5737 179.6 155.049
76.2209 83.7434 106.647
41.8081 190.281 113.006
80.2964 145.042 51.0512
59.6905 61.5958 60.5636
37.9178 153.993 177.614
27.7882 79.818 64.0574
75.9026 83.5132 117.024
59.6717 180.149 55.6228
52.0083 124.686 180.503
84.7002 135.608 64.0751
63.7872 178.945 50.6424
80.1132 106.373 129.017
77.9225 208.235 97.4092
63.4275 147.018 200.575
48.7504 129.209 47.591
35.0497 61.2183 141.955
36.5029 129.87 124.671
51.0777 221.303 127.533
62.2366 93.2595 180.418
82.2956 58.795 100.908
23.5635 71.0348 54.6843
78.5477 87.8591 99.734
96.3784 210.838 135.014
61.9305 122.321 180.257
67.354 38.7868 92.4965
58.4892 196.862 94.0922
51.7226 104.991 189.562
62.0672 221.937 104.706
26.0319 61.6819 88.722
61.6016 207.562 157.424
74.5098 103.825 58.6264
75.589 94.9052 106.478
44.1543 89.7782 176.606
87.3355 209.643 96.8402
80.2832 94.6385 92.0674
47.8767 190.92 139.2
72.9891 101.009 101.929
83.3523 169.761 92.3809
67.499 95.2675 93.787
53.0026 225.317 91.1583
68.1662 86.8768 109.46
65.7674 196.919 152.702
65.5055 58.9522 131.525
78.5981 116.728 170.697
48.0748 50.4553 132.495
92.948 69.7997 86.174
45.2324 219.874 118.262
83.4021 127.973 154.895
54.041 205.252 72.5218
83.0768 206.337 109.018
46.1248 205.563 104.831
59.1299 194.898 60.4588
75.5114 96.617 171.034
60.9464 83.9564 124.662
83.848 176.977 68.7837
43.2672 210.436 116.928
29.5497 108.427 69.7516
64.4015 109.377 177.441
84.666 106.065 138.212
36.0752 110.151 67.6899
51.2739 226.206 121.461
43.6767 86.8514 153.983
58.7004 229.435 132.276
52.1502 107.173 194.322
41.1203 200.887 90.8692
75.693 55.2744 114.138
77.7118 111.163 63.3213
70.3344 48.7148 81.2252
67.9853 51.4669 93.6166
77.3996 98.2941 131.76
74.031 85.8326 160.374
82.3653 119.876 156.919
91.6202 219.378 111.277
78.5322 84.4446 57.5954
78.5663 51.7611 106.332
59.9215 52.478 126.519
47.5618 66.631 59.7999
41.1035 114.399 42.6854
52.806 41.9038 104.27
78.7551 66.0602 105.878
58.9992 215.57 66.5438
22.1593 160.07 147.544
45.2625 124.767 190.157
55.5206 115.02 191.169
40.9023 105.444 55.3235
81.9967 116.608 70.9593
86.8454 180.997 64.2551
30.3691 193.584 139.511
76.0037 95.9401 126.711
79.6881 96.7172 97.9156
56.9212 125.718 182.735
79.7532 90.9406 77.6397
40.7126 173.859 133.192
45.2705 172.026 113.052
42.9368 50.4039 67.387
87.132 80.5941 96.8896
40.9469 82.9799 79.8201
47.0389 69.6038 172.059
99.1811 200.862 90.1355
55.6968 64.5516 52.7488
90.5287 196.999 76.8912
62.8359 82.5313 120.121
68.0672 45.6806 105.982
54.3988 171.214 162.791
41.0947 52.8939 61.6296
68.3422 76.1559 126.153
28.2329 107.651 63.9534
41.9166 202.707 115.346
56.9797 115.058 39.4961
38.9571 68.5165 122.989
60.8563 98.8927 140.98
69.2938 48.9915 74.8011
26.6677 78.8497 85.619
28.4027 93.5074 49.4616
37.995 183.565 117.848
54.4661 182.339 75.6646
54.5939 80.7858 139.038
81.656 132.129 71.7938
44.3528 60.2203 147.264
63.3117 131.74 181.194
40.5595 149.773 84.9698
78.4654 95.4756 63.5245
66.5389 142.792 50.1407
68.4517 73.4744 74.9253
51.1373 201.064 120.527
76.501 122.332 73.4118
92.7316 204.286 81.7252
82.3293 77.1966 105.009
36.6474 149.295 218.464
82.1832 120.033 79.7138
49.1786 212.409 109.555
84.339 73.4115 94.285
99.883 216.418 114.479
37.874 86.1438 168.829
65.1639 136.142 202.22
80.4254 88.1776 63.9104
81.5981 57.8876 111.312
91.5231 216.352 122.064
37.9914 45.5291 102.393
68.5812 103.259 55.0072
72.4363 71.4302 125.173
74.8674 150.733 44.9048
26.0234 100.317 69.6346
70.3687 64.8766 65.7735
81.8152 71.8163 113.321
92.8017 212.952 139.914
25.9037 69.3307 72.1586
81.1061 85.0126 69.7812
100.192 198.271 110.504
86.3149 201.282 133.143
80.1417 83.2318 85.96
82.1904 64.7385 112.425
72.69 75.5184 66.4586
50.9225 214.083 139.012
55.7481 154.322 167.4
26.5244 152.364 139.083
60.3191 127.94 177.65
70.3204 74.716 59.0225
46.6603 217.833 140.32
81.638 64.0977 72.6059
50.787 87.4189 127.398
