ply
format ascii 1.0
comment Created by Open3D
element vertex 792
property double x
property double y
property double z
end_header
21.9422 103.027 103.442
22.8531 80.5252 108.681
27.2526 171.652 33.4977
38.998 152.79 77.422
22.5243 88.069 92.3217
34.131 205.607 97.8185
36.8853 102.673 177.354
44.1672 159.122 23.8407
21.9522 159.348 73.9862
24.7556 85.8506 140.119
22.0518 184.187 66.391
20.7255 168.482 83.6008
23.2649 144.758 36.91
33.2529 133.532 184.823
43.5807 169.47 27.6811
40.637 150.588 58.4358
21.0039 160.845 105.153
21.6517 107.847 61.8002
25.4077 123.431 133.397
32.2438 185.47 142.606
47.9353 122.534 35.8668
46.9943 44.1858 193.89
23.8168 92.7405 115.091
21.4267 163.584 38.9464
35.414 65.9497 121.954
43.1098 142.082 52.5455
36.8095 73.9206 98.6496
22.3611 185.435 96.2631
22.3378 159.731 63.3226
30.895 110.344 35.4179
72.5904 168.559 77.757
22.0226 133.059 61.1955
22.6082 172.105 128.381
41.8021 199.595 95.4075
21.873 168.441 55.4473
79.5093 134.664 127.248
27.6565 121.047 32.4414
21.5243 203.493 97.627
25.5152 37.1843 176.865
37.3712 161.365 155.755
31.4784 180.288 33.2188
53.6329 170.941 36.3092
20.7779 176.047 89.2776
22.0576 189.289 58.1724
21.238 145.425 103.893
59.5644 164.643 77.2909
36.4571 205.824 88.8314
23.1457 146.504 170.87
20.9067 139.198 52.2977
24.6753 178.172 40.0297
20.5671 156.145 94.7001
40.7545 124.161 124.763
67.0645 341.481 144.422
58.7684 278.327 175.12
23.864 96.5173 98.3854
36.4864 198.536 124.017
35.0587 296.718 113.114
22.098 125.282 87.8876
24.0364 130.755 34.4647
37.0046 99.3782 87.7882
22.9174 74.4414 117.547
22.2362 69.8246 90.97
21.6342 147.214 88.3324
21.2593 128.229 71.0249
54.5618 143.167 143.302
45.7099 32.9784 179.482
30.5975 263.042 157.39
33.1169 207.062 78.8104
39.3797 94.6939 168.082
34.6264 88.8089 115.769
43.5785 191.773 96.7697
29.0863 165.133 172.762
39.2171 192.21 129.872
32.3219 133.755 97.8506
24.1703 85.4798 121.063
44.161 195.126 56.6013
61.0148 288.989 160.483
23.6626 308.441 172.597
34.6279 204.436 68.7305
43.1562 100.382 73.7713
54.6865 181.841 72.8708
41.1653 149.633 22.9681
22.9956 105.02 113.273
25.2695 284.431 143.721
21.2272 184.402 85.8185
23.3806 118.431 79.5698
21.1578 171.973 96.9024
21.615 98.4902 49.3509
20.6417 196.448 101.154
21.8821 116.969 113.452
21.2378 184.682 76.8272
23.9463 151.278 28.7255
78.9955 107.986 159.27
45.1299 132.61 63.1778
38.2022 78.0566 79.8447
73.7765 335.886 152.459
35.837 122.779 184.615
48.7783 133.084 48.1498
21.162 200.204 84.5248
38.2187 307.318 116.161
26.7956 280.486 175.042
21.5392 151.402 124.16
22.8278 94.698 65.7138
20.5472 175.473 76.3492
47.1298 101.625 59.3485
21.5816 136.497 42.2093
22.0455 165.982 137.672
22.6255 80.0034 71.7251
41.992 182.081 115.653
20.8495 136.792 98.9326
23.3176 151.975 165.057
23.8431 150.059 155.743
23.1538 123.161 120.602
25.6476 101.01 149.569
39.9995 191.377 42.5418
23.4479 66.8853 126.318
48.1599 136.803 38.0592
27.9599 142.03 24.7912
35.7775 92.6962 121.764
25.4352 112.213 138.318
59.1836 158.461 120.498
23.1614 110.065 95.7995
22.7464 285.614 155.508
41.1985 92.6564 71.8685
34.7734 155.606 177.684
57.895 88.7226 162.767
40.5841 309.641 141.816
41.5238 155.203 65.7018
22.8003 164.832 160.384
22.355 87.2151 104.397
42.4825 181.32 100.706
47.9695 142.905 31.8826
33.9272 134.974 85.7387
21.6072 320.44 127.974
38.9503 81.1338 92.3928
70.1025 338.278 170.459
68.3637 104.757 146.841
45.9037 145.181 41.8565
22.9945 138.459 122.345
22.3483 101.562 81.494
23.5143 110.748 73.1796
22.9593 178.904 117.343
23.7824 188.188 49.2537
79.2318 142.168 120.986
38.9267 177.325 131.93
23.7047 313.732 116.538
21.0818 121.982 63.2034
58.6632 139.067 165.166
23.6496 158.005 149.948
49.8427 104.729 179.152
22.0217 193.798 92.5815
23.7404 161.973 132.016
37.4147 69.6203 137.105
32.8991 83.1078 159.007
22.4989 133.882 92.5077
31.6331 287.744 181.73
40.9919 119.005 186.049
38.4139 123.221 87.5885
46.157 129.732 39.6345
24.5742 71.6974 137.107
23.374 102.996 41.0562
43.7405 99.826 49.9183
50.7068 98.1839 173.936
20.9282 187.829 113.862
24.4063 159.196 27.9052
24.2354 279.545 162.221
41.9502 114.67 79.8639
21.607 199.381 119.079
24.8149 135.111 166.447
24.5431 101.172 122.632
39.4831 315.975 109.279
32.1337 337.147 164.647
34.667 124.676 26.1041
40.708 153.112 172.532
68.1684 342.307 159.559
22.3049 149.452 58.2073
47.7123 121.599 46.0983
54.0008 295.839 171.417
32.1823 97.1179 46.1286
32.6056 103.361 109.726
26.0581 98.942 142.235
31.4583 273.322 129.675
40.1375 167.82 128.455
34.9295 196.804 51.1939
40.3539 330.999 137.685
19.6767 110.725 45.5451
20.6984 123.001 48.6234
27.1705 207.417 93.5612
37.233 332.905 182.751
23.6519 100.746 88.3953
23.1755 115.887 38.9841
37.3039 272.635 137.056
56.0045 141.017 153.435
26.0852 206.727 82.3557
34.7722 266.386 137.4
34.2909 192.345 136.032
53.0846 340.462 149.139
35.4678 299.814 126.003
43.6996 110.87 182.97
54.8351 33.9055 203.128
43.8136 158.177 131.728
39.2032 148.334 180.035
21.3734 119.55 71.5695
25.4534 76.5497 149.246
23.8671 289.301 119.855
40.6923 88.0851 62.4173
35.4806 166.732 25.6181
21.4722 178.096 51.7889
39.8637 178.634 28.9309
23.5946 132.002 175.971
28.6169 63.0193 113.679
21.326 327.406 137.356
21.6855 170.621 40.9927
56.99 278.037 158.092
70.3934 139.844 124.38
39.582 327.848 118.904
21.9673 169.722 69.9742
35.0956 77.2647 110.781
47.3715 79.4009 150.13
21.4515 148.654 114.662
63.8936 327.515 188.272
74.8249 313.255 185.916
20.1673 126.385 40.0749
44.2269 190.739 85.8327
21.2673 146.546 49.4218
35.8494 295.397 138.394
59.4357 185.894 43.1401
55.0924 343.291 158.248
31.4394 114.982 107.742
49.3644 153.966 34.8162
44.416 185.534 88.8926
24.2794 95.6745 157.662
47.54 104.342 45.1669
42.6199 27.2471 187.286
67.9708 299.996 178.108
27.1005 199.075 58.5244
25.005 290.878 130.046
21.3156 156.529 35.9376
61.1345 342.965 168.799
45.3219 148.142 168.298
38.474 201.381 77.8168
36.7633 74.2592 118.897
45.5368 145.093 175.398
28.4425 131.233 27.2831
46.5794 335.313 126.533
24.3525 121.164 55.6058
52.4925 270.933 170.124
41.0161 134.224 116.93
36.3179 185.923 35.0384
29.9777 69.7534 142.936
23.1615 324.117 169.162
29.4722 105.902 177.816
27.6356 81.8283 155.646
20.3451 162.87 89.5337
62.2089 178.722 46.6551
21.8374 137.779 77.5925
23.124 147.4 136.923
37.7775 161.615 165.563
79.0044 158.635 97.307
78.9817 158.472 125.713
51.5621 164.362 28.1932
29.2902 62.62 122.668
54.2134 341.777 178.131
63.6865 143.786 140.595
34.4803 259.531 148.082
42.4883 125.192 80.2409
22.4356 323.858 147.561
27.5294 158.497 178.014
30.7199 82.8528 62.1827
21.7037 193.256 77.5497
27.509 86.7826 19.2871
43.069 43.3147 208.706
23.3487 131.801 113.349
41.9018 195.484 105.659
26.3934 205.007 72.7502
23.1561 323.311 158.938
43.2136 175.107 111.558
20.0339 113.028 53.5731
23.024 71.0415 81.0941
51.0872 124.897 184.594
22.4717 133.437 84.1943
45.6632 131.079 27.7287
22.3746 111.584 117.348
21.0356 194.268 69.0964
23.7782 141 150.496
29.9814 179.142 157.984
35.6935 160.439 173.528
50.7024 160.905 114.592
72.5442 159.576 122.019
22.2107 165.121 122.987
69.5169 139.757 151.653
37.3195 98.3319 127.259
23.8732 111.739 125.033
31.4947 67.9099 88.2091
28.7143 187.382 41.9139
30.557 76.519 71.1026
21.9858 144.559 70.1511
63.3405 126.291 178.86
42.6609 262.271 149.639
45.1294 154.383 52.5177
23.6896 129.926 157.028
21.2414 159.262 118.366
38.1959 166.223 143.601
57.3012 170.679 93.2018
26.0313 114.236 175.852
54.2497 178.997 34.5788
22.9433 126.016 98.1435
40.6513 135.452 23.7309
24.0795 200.011 66.4499
46.7826 120.682 184.904
52.5619 156.973 88.9066
25.0091 122.753 165.725
36.5047 104.758 38.6934
31.4436 34.895 197.179
20.4297 160.569 50.1535
71.9681 325.846 184.723
22.1838 174.822 111.734
36.2773 171.011 148.729
36.5858 85.1819 100.676
39.3355 78.5812 153.994
48.8725 311.025 153.91
42.8615 323.442 189.569
34.9735 109.201 120.316
47.2304 159.311 57.0426
49.1401 102.522 136.288
34.7863 127.686 112.813
25.8109 92.771 133.405
23.2924 292.777 173.882
20.8811 189.72 134.974
42.1698 139.341 181.088
34.2243 285.825 124.747
39.5964 93.1494 89.4308
36.0657 88.1566 165.521
24.4938 27.3872 187.034
43.6827 114.002 132.711
29.3368 146.719 182.377
20.3084 184.583 128.464
21.7615 77.0086 96.721
25.3427 294.002 136.423
22.8696 297.06 149.139
52.2638 94.3408 138.498
64.5034 157.096 98.3582
43.0679 77.2373 136.469
22.8072 63.8253 102.904
73.3342 101.184 165.228
29.2403 193.358 48.8704
42.7231 183 107.91
54.9847 167.912 100.766
24.556 140.567 158.152
41.4438 87.5984 78.5298
57.0476 45.7774 197.254
25.7998 103.877 130.713
24.8836 139.408 142.35
19.3425 67.5982 242.367
40.5068 26.419 202.802
22.9278 175.061 162.764
21.4126 152.979 131.613
42.4896 108.446 38.5035
23.6364 131.275 148.37
48.8043 153.775 131.454
22.4918 203.68 111.099
34.2276 112.016 183.615
26.8842 101.092 168.539
22.344 114.184 104.38
41.9125 151.242 153.544
41.5714 171.48 118.965
66.8327 161.743 117.643
33.2982 115.152 99.8687
35.9968 111.29 89.2618
47.5913 270.208 149.154
55.3939 331.908 188.081
33.6333 168.551 169.175
51.0479 124.837 57.8706
35.3483 70.9332 106.961
34.4577 145.526 82.6636
35.2455 73.6145 150.504
32.4656 64.8504 101.296
38.3754 138.252 109.688
68.2869 111.078 173.687
59.3937 189.637 56.1078
36.1555 81.1177 68.0868
67.2483 125.49 137.841
23.8152 132.466 51.6763
25.6127 33.1515 182.144
27.0688 206.481 106.23
64.2721 283.566 173.271
67.9624 292.231 181.883
76.8168 164.915 111.685
39.0996 97.7493 80.0067
20.9515 38.5781 196.081
40.412 83.6637 71.4132
48.9755 148.41 103.195
34.4026 296.295 187.353
50.429 191.609 60.9294
45.5737 157.157 82.1441
43.651 129.679 185.492
27.9906 125.944 182.117
21.6229 179.867 103.94
49.2368 112.514 46.2267
37.749 129.509 82.1008
52.5008 162.509 56.5172
20.6204 177.029 144.149
38.9019 261.955 159.503
48.7001 109.969 63.1375
39.8132 73.5698 127.213
57.8083 104.347 176.964
59.5022 37.5357 195.46
21.4513 154.893 45.1952
29.815 160.41 22.9127
33.2899 127.228 94.0604
22.5874 307.972 149.658
68.5477 165.27 83.6175
36.967 281.895 180.603
34.1471 36.962 208.326
44.9794 115.054 37.5317
59.1769 121.082 137.023
43.0369 99.4276 174.765
31.5494 29.1773 179.83
41.2861 81.0457 130.431
26.2115 194.259 134.677
26.8647 23.5719 193.88
49.7172 138.497 178.77
34.2455 147.816 183.339
52.8493 132.386 183.259
51.8373 84.2682 155.437
39.745 106.416 81.286
50.3139 327.516 191.584
64.2962 169.968 95.5764
22.2996 84.0264 62.1094
21.6495 180.383 154.578
40.3536 198.549 70.9345
78.1044 131.245 160.111
30.8302 279.11 121.777
52.8324 340.583 135.131
47.2417 183.299 33.342
68.2092 328.764 140.806
45.2481 140.628 114.466
40.7052 114.912 30.753
47.1683 340.616 163.019
26.4592 113.498 149.215
52.5102 317.709 148.075
45.8044 192.809 73.2929
49.7213 190.349 40.4707
41.0553 268.131 145.919
56.8985 155.003 99.5138
64.3386 344.278 152.033
22.019 130.937 105.134
59.3926 132.755 176.324
57.7517 317.514 160.281
35.8553 51.8857 190.741
20.2269 196.879 111.849
47.3788 126.028 67.8204
29.7725 71.6626 76.3437
35.3609 44.6467 200.414
60.7471 104.8 141.616
57.5315 116.825 181.298
41.2598 192.938 119.016
43.3702 144.496 105.631
42.17 340.112 170.385
43.8732 75.7765 143.471
22.832 151.556 178.392
21.1606 194.348 124.402
53.0929 161.238 70.7847
30.7066 174.177 164.475
65.614 187.096 55.4058
59.9875 300.125 191.204
45.9319 89.1136 163.96
22.6118 164.878 144.823
53.7096 138.548 173.333
57.5882 125.682 179.821
70.6986 308.806 176.908
32.7462 178.07 151.137
47.5641 340.63 175.875
61.0871 177.599 82.2557
24.9369 108.642 158.229
76.5556 330.964 171.212
46.646 97.3672 132.363
37.8464 80.9842 122.664
40.466 155.054 162.41
38.2401 74.2343 145.358
33.626 42.6935 179.445
21.9788 296.903 162.35
32.7123 121.557 108.535
26.8027 60.7545 17.4923
53.4123 111.099 180.84
21.7109 185.156 143.588
85.1392 160.823 116.591
41.3636 286.885 142.86
29.7557 40.2023 209.255
28.0781 167.04 27.5017
24.6029 132.726 138.237
47.6537 111.517 54.8207
51.835 92.5848 168.996
53.8916 192.05 48.194
49.77 36.4086 196.67
23.6294 166.009 171.887
22.3586 68.0589 107.939
53.3009 163.618 35.5944
22.444 116.795 88.6776
49.4766 145 161.017
47.3426 335.125 185.833
39.8892 34.8062 199.151
37.2325 31.0127 177.901
22.6859 153.214 141.483
40.4251 176.529 122.574
32.4091 321.554 111.509
22.4013 111.514 82.1198
72.8118 332.28 178.586
33.345 274.148 174.295
29.7825 92.5504 50.8497
38.8698 183.817 125.502
86.9212 155.651 122.996
45.6899 274.092 176.493
35.2906 142.441 91.3042
25.732 139.598 182.435
40.4839 84.3738 84.7708
53.1316 159.645 80.1717
53.7324 31.8893 185.101
42.5775 311.283 192.629
79.3632 134.157 150.095
23.5835 115.25 145.438
33.9973 133.991 105.668
38.4091 168.295 135.145
63.5268 183.479 68.3273
58.0548 164.216 62.2132
63.4688 114.485 176.591
31.7258 303.869 107.504
78.4552 320.552 177.598
60.2192 171.495 47.207
33.8221 93.1625 108.918
58.2137 338.788 122.676
43.4811 164.582 119.615
46.1224 337.093 143.509
19.7981 82.7736 83.1916
48.6443 175.198 92.1413
73.3183 101.118 155.384
31.2582 27.9441 187.265
72.0136 329.02 148.272
51.0362 42.3423 203.92
84.2814 154.885 104.255
53.2305 281.017 150.676
66.7612 115.39 143.326
31.3213 31.3671 205.147
53.3538 161.792 41.3744
49.5022 81.2188 143.029
36.5423 25.0248 190.457
52.1673 116.963 136.53
38.3487 203.586 104.03
44.1989 196.119 79.9491
83.6562 171.66 94.6372
36.5327 198.929 60.4161
29.9759 36.4022 187.842
55.6176 98.1007 142.094
75.0845 118.618 142.041
53.2455 302.094 160.744
89.1112 131.594 136.717
28.5125 332.579 145.371
49.2807 26.6653 194.834
62.0112 327.172 129.843
44.3963 182.093 93.1951
29.3018 116.538 180.846
40.6759 157.792 142.639
24.7748 125.739 143.265
55.7526 168.085 49.788
46.2607 159.043 122.836
41.1373 199.934 85.4035
45.671 121.52 66.0538
43.673 277.501 142.868
49.2455 120.802 53.4373
34.6192 66.1961 131.25
37.1129 145.668 96.0092
29.1999 90.8263 167.17
53.5862 146.565 112.046
48.8299 169.913 105.987
65.0112 173.284 55.438
40.3344 161.607 135.806
37.5436 117.566 88.9625
43.3026 36.8307 204.209
23.0839 141.644 178.432
36.2387 30.7831 205.756
24.4874 120.876 172.657
25.3264 108.128 165.403
33.3388 315.901 105.342
59.5567 319.862 140.883
30.9161 198.863 130.228
26.2909 41.603 184.707
50.1422 268.537 164.027
46.0922 321.125 126.141
47.698 33.6755 207.526
38.2141 88.7782 93.9141
37.2769 179.561 139.407
23.5244 36.5964 203.863
63.0072 136.947 156.616
69.1034 97.6265 152.773
23.8684 160.465 155.778
40.3392 145.696 100.47
74.7567 152.857 132.492
37.1552 105.252 125.363
66.1077 93.058 155.544
27.4776 62.8623 95.5975
39.52 114.283 127.953
36.0312 107.04 93.3922
72.5036 156.283 100.645
52.7414 137.661 121.836
88.8607 137.962 126.523
76.5727 149.569 110.81
26.7073 302.389 180.936
57.4047 322.837 192.088
35.9536 126.965 118.852
23.2169 297.788 143.24
81.5146 152.32 132.195
36.4527 90.126 55.1899
74.4113 173.443 92.4685
35.2766 72.7093 85.8351
35.2444 91.1767 104.358
42.4047 153.518 86.3305
48.407 82.9034 160.884
26.7636 201.515 123.668
61.7271 131.823 131.431
58.46 309.78 166.473
23.3299 137.245 133.331
53.0155 127.4 130.222
23.8094 279.438 124.495
70.9495 126.16 173.878
42.9467 103.647 131.626
26.1219 268.035 134.837
52.3789 163.189 49.7548
68.8144 300.249 189.993
68.4086 179.568 54.4836
42.4827 130.749 73.3411
23.3214 120.915 101.873
70.5892 147.19 113.952
73.2672 170.319 68.6285
36.3257 138.54 77.7706
40.6286 140.683 61.7816
39.9762 137.22 69.3927
48.5132 28.6682 184.776
57.7811 88.8809 149.322
48.8049 169.872 97.8459
24.1539 150.487 147.613
36.3223 168.802 160.838
22.3153 65.2056 5.21665
62.0479 144.118 118.585
83.0376 151.13 109.359
26.7253 30.7657 202.061
75.1553 146.54 137.619
59.8174 162.404 87.0845
29.7102 203.906 117.681
31.6407 26.7695 196.73
85.3128 130.101 147.573
43.7089 93.9771 53.3163
38.9382 147.202 66.4295
55.6895 148.671 137.078
46.6029 159.812 68.0902
23.0257 159.802 164.679
57.7765 113.907 138.866
65.2626 137.549 128.176
88.4102 159.885 108.275
80.8791 175.416 78.7017
22.428 172.081 154.21
42.8975 29.4237 196.308
63.4555 134.98 170.986
70.7805 162.489 90.9401
44.5001 317.299 135.067
47.7413 145.23 151.905
34.6295 115.274 119.68
22.0607 167.322 151.074
48.3319 326.337 116.889
66.0139 153.284 106.808
48.3915 84.5359 138.278
85.9618 121.013 144.488
65.139 148.138 112.907
57.9708 186.047 64.0183
58.3 95.9932 172.077
45.8095 150.648 140.395
25.7719 26.9176 179.172
25.3712 317.356 180.374
49.2568 180.742 81.7667
65.9445 155.272 127.852
24.4266 119.559 157.621
72.5927 181.235 60.8798
44.5769 80.5582 157.347
22.3491 305.757 131.206
75.8052 329.221 160.284
42.3022 299.921 150.893
25.3677 34.127 188.646
36.7655 96.0321 99.1551
44.9709 174.185 101.68
64.9526 150.144 134.229
48.8679 126.311 130.23
56.206 41.8665 188.282
78.4513 111.889 166.361
53.5545 105.606 140.166
50.3606 116.984 63.7148
51.2291 152.991 97.1701
36.6385 29.8864 195.951
57.5558 129.227 132.416
33.59 40.2444 189.665
46.8502 130.587 54.9726
40.8488 92.198 129.659
57.8123 151.994 129
69.7872 177.89 80.3625
40.8292 189.915 113.026
35.059 104.516 100.068
45.3619 336.92 152.877
64.006 168.547 64.0133
45.3118 98.5965 64.8901
47.3203 165.595 112.223
64.4888 97.7698 148.239
52.731 29.8309 195.307
41.1943 38.5161 188.971
45.494 91.0074 134.694
67.1355 323.424 147.963
36.2381 188.652 74.5849
53.3175 321.369 131.992
59.9917 165.665 67.9369
47.7443 157.71 74.6882
47.2406 187.424 76.7975
73.4932 142.395 143.614
26.6312 186.633 145.579
68.3654 96.8988 164.456
40.7185 86.4328 130.36
35.6149 143.862 72.7173
84.8217 116.097 154.805
62.4254 341.644 131.191
78.4632 127.155 134.772
63.5823 335.131 128.414
54.2565 33.5081 190.899
49.8694 288.855 151.398
34.7341 337.388 175.516
56.4117 89.3853 156.214
65.826 100.568 172.123
70.5027 181.521 69.7681
48.4703 111.377 136.65
85.0134 145.803 134.832
60.711 93.5848 148.278
87.2314 125.506 137.628
29.3891 36.0603 205.764
23.2742 140.235 128.297
44.7457 109.312 70.312
74.2588 108.177 147.18
30.0112 284.367 116.972
77.6532 119.953 168.161
40.5746 151.091 91.2619
53.0851 87.3566 146.236
72.446 166.362 106.425
57.6367 142.087 120.584
46.8931 132.005 124.056
77.9252 113.25 146.017
47.6133 159.656 46.7799
32.1871 35.4392 177.753
60.2977 90.093 153.703
24.7707 275.972 141.557
78.9922 160.629 117.416
46.1582 33.7562 199.37
66.6439 130.805 172.043
70.939 105.451 174.137
34.6372 307.502 175.811
64.4157 121.91 173.911
82.3856 110.802 150.22
42.642 119.245 72.0608
26.8474 74.6307 8.33675
24.5748 299.708 126.604
53.1867 337.744 118.159
84.5621 123.808 153.779
58.7578 162.269 108.815
23.2399 79.2488 23.0109
84.8619 167.241 103.134
71.8771 131.619 166.509
43.909 169.445 110.941
68.1319 135.093 164.01
52.3875 300.05 192.042
78.2256 125.107 164.567
73.7348 125.945 135.613
23.7305 61.7932 11.4153
41.3951 24.2953 178.342
89.0524 146.082 121.066
28.1759 69.9846 22.0816
36.2881 44.4386 187.712
61.7084 335.76 180.561
79.8743 138.538 144.753
34.6869 204.935 109.279
29.9621 324.915 183.578
67.45 336.665 132.833
37.0202 196.915 114.596
26.2725 325.985 126.781
65.2777 93.4471 165.848
82.3597 163.893 90.3953
82.7631 123.601 159.052
89.8611 148.489 129.092
80.8249 117.192 162.721
85.597 162.761 96.7342
