ply
format ascii 1.0
comment Created by Open3D
element vertex 397
property double x
property double y
property double z
end_header
29.5248 185.399 89.148
58.7853 201.817 107.081
30.6511 121.107 93.5528
36.0047 179.992 92.2014
70.7037 125.177 42.2003
33.3312 135.418 91.0597
43.4729 189.755 66.06
37.0714 104.699 80.9166
28.143 60.596 91.3324
56.7509 43.0421 53.7543
31.8576 137.3 81.922
39.0554 201.611 106.941
32.3808 65.4042 56.4208
58.9874 107.377 59.1339
61.2662 109.98 67.2568
39.2467 144.048 84.1714
63.0703 133.911 85.9114
56.5369 49.1609 97.1657
50.7324 174.618 82.0561
58.8884 122.948 30.46
38.7332 118.931 97.7417
24.9038 43.8151 65.9125
29.3978 55.1624 62.1456
25.1574 112.083 70.4486
38.1678 212.511 94.9727
27.1135 135.447 69.224
44.6151 57.9917 71.1723
29.0106 116.425 50.9346
31.2908 56.0454 106.379
47.385 50.0139 49.6909
53.2049 74.8194 62.1253
48.6599 113.215 38.2148
49.191 61.943 76.7462
25.4728 51.0315 67.6683
47.179 43.3146 52.7318
47.1441 122.532 96.3019
36.7081 70.8972 56.2456
52.5682 204.731 105.751
35.5602 204.012 99.7896
24.2758 130.694 76.2298
27.3227 188.481 80.2666
70.0194 121.018 34.5962
58.1629 79.6707 72.3524
63.8572 65.0728 81.1369
44.9667 99.4488 76.2372
62.2169 178.362 81.5227
62.9602 52.0606 86.7851
35.3989 114.98 45.016
51.7958 191.2 60.0411
33.6265 206.91 91.3328
53.9925 133.279 87.0191
39.5164 80.9277 73.6612
61.5079 106.975 45.5558
28.1338 56.6928 71.496
67.2228 112.452 55.4344
48.7087 77.2872 75.0832
51.3333 33.23 61.4854
56.9451 36.8367 62.1364
67.298 115.221 46.394
26.4232 109.859 82.2202
29.1686 127.369 55.3253
37.3559 66.0036 49.4913
49.6283 136.574 44.9393
51.945 108.717 44.2302
58.1798 193.4 105.981
32.1501 58.8165 76.393
47.7412 37.4223 64.8109
62.9543 146.286 82.0169
39.3468 108.979 46.4763
45.6822 73.1739 83.8444
51.5902 40.0314 56.1397
24.043 128.533 83.8252
30.7576 196.377 80.2301
45.8814 115.302 98.4445
34.2769 74.7071 77.743
48.6928 218.925 94.487
61.6613 118.921 69.4733
48.6165 182.307 66.2732
59.5272 85.9943 82.8161
62.351 120.494 84.6494
35.7104 211.638 77.7076
41.6459 194.641 105.371
40.5211 43.6103 105.379
50.7891 115.827 49.8585
64.5744 187.96 81.6602
55.4958 55.343 46.6102
34.796 213.279 86.5651
26.6089 51.5427 94.5061
35.5785 180.732 82.5923
65.4757 126.672 22.0747
39.2337 73.0751 48.1411
60.3897 107.248 78.2473
41.5432 41.9104 53.9998
39.2025 132.242 96.7744
49.9642 117.318 83.015
24.7371 118.084 67.3212
32.888 48.7523 94.775
59.8189 42.3292 62.4399
44.7955 72.624 55.7358
41.2239 217.932 88.6306
49.7444 196.889 107.774
64.437 73.711 69.4962
26.2936 103.501 71.6744
38.4928 60.4216 96.8321
28.5361 65.1481 64.169
33.0474 51.8682 74.1169
31.6848 72.5005 64.3536
59.0612 64.5103 55.7671
38.4954 153.448 69.9317
36.8211 37.0279 99.0076
53.4 103.051 60.5024
53.9372 70.1499 71.4555
40.618 102.089 50.9057
57.3371 78.7187 98.5621
56.958 86.0001 96.6669
64.3135 50.9082 57.8791
58.3593 71.849 57.2246
57.9749 118.43 90.9407
60.0534 42.9623 70.2266
52.8905 150.561 58.3332
57.4408 194.235 64.7739
31.3871 71.6549 93.1947
59.4261 141.558 88.8322
43.8105 67.4305 49.9084
44.2353 188.88 106.777
56.1049 104.527 47.5839
32.66 71.7601 85.3886
45.3082 197.5 64.4822
42.08 48.0303 50.144
55.6682 108.756 84.5382
31.3699 40.7812 61.5864
24.4628 55.0121 86.7981
51.553 197.876 63.0835
48.936 65.3128 50.6413
36.9358 148.36 63.2074
59.9563 188.858 69.5807
69.1324 134.222 75.522
27.1339 130.83 91.2596
47.6794 120.77 87.2703
69.1925 206.801 80.3487
43.6252 36.4782 84.515
51.1597 122.436 33.0823
59.4587 68.6515 99.0021
44.6807 128.706 39.2725
43.2243 55.2087 110.55
56.0633 55.9686 107.968
50.7797 51.0934 90.3772
62.0049 64.7478 108.423
30.0478 195.238 87.3385
44.908 40.4224 100.138
34.1272 192.811 101.817
55.2791 38.0636 71.4964
31.9777 108.527 51.1016
41.0078 215.717 77.7858
48.5979 102.159 54.519
57.9328 152.624 70.1935
37.1983 149.498 75.278
46.162 38.2244 57.3122
50.4533 103.43 72.3925
42.5951 70.8082 72.2161
51.839 43.6193 98.8327
54.0405 45.7618 47.8673
48.5947 55.5536 47.6871
53.9001 112.06 93.3298
54.5444 65.7779 51.9749
42.991 54.4603 43.9358
33.8435 45.8219 85.7826
69.8158 140.421 65.3581
38.3152 182.702 68.9259
44.6508 40.477 77.1854
66.7782 66.6289 89.5642
49.7524 131.503 41.1229
32.543 207.902 82.5576
38.5692 84.3466 85.7778
58.0176 127.964 89.6344
59.8307 55.4894 94.0739
70.8328 126.229 56.0363
40.5203 40.2426 61.3159
37.7286 49.7227 53.2506
62.8631 212.521 89.5944
34.3129 103.27 55.4488
61.1184 72.3975 92.9353
55.2692 209.82 101.527
50.7718 214.044 101.808
25.6217 51.9362 79.3652
54.3598 103.369 79.5889
30.9487 191.867 72.4443
52.7235 133.033 33.3007
28.2608 120.469 61.6648
45.1944 219.891 81.3609
25.979 124.742 68.8267
51.3379 69.153 56.5214
65.6353 57.4378 62.2644
36.5934 41.8084 55.5265
36.1499 49.4109 107.357
33.8313 109.991 90.0904
31.4668 102.421 67.0213
52.86 217.731 77.9567
38.7997 37.4124 84.6815
40.2575 58.8812 102.279
44.7978 106.389 44.3466
70.2968 123.31 17.9168
51.2807 142.612 85.9015
56.945 36.4816 79.9867
24.8308 63.0465 82.7343
34.8614 202.678 73.6892
35.6611 188.423 68.8854
45.7572 107.777 93.52
64.909 188.427 89.8659
45.3968 209.954 69.9223
27.4042 129.141 62.1956
58.4781 51.9512 53.2891
39.6191 198.425 66.8479
37.6528 53.9694 47.9109
41.5736 208.427 101.464
28.6435 64.0745 70.9653
41.9418 76.2171 61.9296
45.5015 152.72 62.9956
69.6371 200.723 84.6813
32.6126 194.113 94.141
29.3174 49.8103 58.1434
58.8672 214.344 78.1415
37.2292 73.538 64.799
37.5275 42.7298 89.7965
57.4202 207.432 67.529
53.0332 80.9545 87.7985
42.7119 35.324 68.0094
48.6019 82.2042 92.4726
52.7231 203.609 65.0351
57.3409 61.2137 65.2648
65.227 207.085 75.0162
59.2697 183.676 66.03
69.1251 124.525 75.0994
44.927 152.742 77.1708
55.8719 42.4204 90.5767
38.2623 213.924 101.712
31.2943 52.283 101.62
45.9204 213.447 99.4367
37.1866 38.7134 67.8425
33.1951 37.414 85.273
58.6312 47.567 57.8
29.3816 201.097 90.4096
61.0013 66.9051 61.075
67.5701 194.2 85.4237
60.5995 58.1737 58.6827
57.7475 66.4095 75.8971
31.2479 202.17 85.0405
45.177 145.566 52.3246
46.2304 75.2113 64.3007
32.7516 54.8567 82.3356
45.4168 178.676 69.7719
42.2377 77.6916 67.5765
57.5371 200.385 65.1896
47.838 207.169 104.344
68.3038 187.059 71.733
42.1609 59.9457 48.8168
30.3819 41.454 93.3995
56.7548 75.4454 88.4832
63.8008 206.222 93.8626
30.9642 100.444 78.2499
48.7516 75.1418 58.3453
73.5627 73.8157 57.3787
53.0991 125.616 29.2419
31.7341 200.341 96.1293
27.5397 111.331 59.9317
54.2895 150.884 83.9109
59.167 216.479 85.7462
35.7506 189.349 97.2527
66.9965 140.853 71.6103
39.2281 38.1039 78.8032
36.7999 126.487 49.0242
35.6338 36.938 73.0789
49.8569 51.2749 111.066
54.5858 176.787 74.1865
50.0483 61.3306 46.8708
45.4355 46.89 108.766
55.9133 73.9038 79.6821
67.6104 132.398 54.5998
50.4293 220.256 84.9068
43.937 143.517 90.3727
60.7077 210.093 72.1215
60.2107 78.361 107.399
67.6767 207.327 86.9175
39.7324 177.342 76.3494
63.7042 50.8322 99.8436
42.9329 184.226 68.8449
32.4302 44.7243 70.8513
49.7051 60.5698 114.575
35.7494 195.035 68.2617
68.2502 202.325 91.6098
66.1273 193.688 78.1887
29.9665 43.624 80.5257
62.4699 48.6987 80.2599
42.5779 43.7602 87.231
48.3168 34.678 88.912
43.5171 36.4263 95.0969
50.0379 131.464 99.0333
53.5529 186.816 66.4952
57.655 80.5751 64.8617
32.8096 52.8483 51.3147
43.4656 203.552 102.484
53.3414 48.0183 77.5743
28.9969 48.7558 87.8545
61.7005 179.315 74.9938
59.8006 213.053 96.4944
54.0219 217.2 90.4225
49.9576 48.3447 105.357
38.9356 76.4143 89.3898
55.0684 212.656 70.5766
67.4802 192.504 93.2893
63.4985 197.125 66.2778
54.5493 81.945 77.5309
46.5182 136.965 97.8382
30.0255 60.244 66.2126
63.619 122.256 75.9883
57.3693 135.736 41.4834
62.178 142.849 59.1698
63.7059 211.01 83.2504
60.7894 43.4127 84.2925
50.8745 154.337 78.5183
62.5978 59.6922 86.5369
51.2037 86.3281 78.9642
34.2234 186.674 74.8126
32.5711 56.1947 55.257
62.0838 202.946 68.1588
46.3384 204.405 64.664
49.1696 34.8058 72.3289
56.7441 56.4368 81.0819
32.7811 187.498 80.9993
60.782 207.538 98.9267
35.9082 62.3536 79.5404
29.9679 59.9386 58.9261
56.4484 60.5071 74.4656
56.4647 49.7922 87.6952
49.9135 39.4994 91.6711
49.1522 35.7065 83.1822
63.687 77.4561 80.3404
59.0929 64.8481 69.9617
66.5738 139.84 81.7136
50.8419 213.545 73.3054
64.8026 192.696 71.2345
43.352 79.3374 80.783
61.9864 47.5857 64.6192
61.7458 109.713 37.7395
62.7951 45.7702 74.7006
30.9371 103.466 60.6176
65.8966 199.169 72.1362
49.8075 207.711 67.9865
68.0327 200.727 77.1851
56.0345 85.5247 90.3438
67.6077 58.9969 99.7298
60.3496 58.0924 70.8244
50.2079 37.2708 77.2541
53.8574 38.3625 86.1719
46.6223 101.642 62.0329
36.9008 66.3305 71.1908
37.9924 207.667 70.3821
65.373 77.1318 99.7116
65.9352 58.5519 78.1257
60.525 46.6021 89.6938
59.4963 63.5308 101.24
40.4397 70.7742 59.7228
56.6861 58.0677 53.6357
60.0481 51.1958 68.914
52.946 180.995 72.8114
61.3218 197.093 99.04
34.7934 41.6252 76.8431
37.0378 181.674 75.8767
59.2725 185.131 77.8964
65.7698 71.3206 106.254
57.4306 217.303 93.6552
58.4735 57.6793 101.168
51.4228 136.485 56.4867
35.9611 51.5659 78.7317
57.5327 69.0875 81.5429
57.1022 68.8515 65.1155
43.5594 39.4947 71.9415
61.8622 52.3001 74.5415
36.9472 68.4673 77.9554
36.1112 74.5686 70.6611
63.9187 54.5573 68.3979
61.7124 55.3535 80.0958
46.4458 176.286 74.3712
61.6564 136.166 46.5158
51.75 131.867 49.3639
55.6539 60.2904 112.094
67.5459 76.956 93.2143
70.0666 133.371 59.6365
65.2788 197.118 93.1627
68.3088 56.756 92.0109
57.5937 200.565 99.1471
36.6587 43.9124 79.7084
48.7427 140.91 93.295
50.1841 74.8258 68.2786
67.1757 138.43 54.6179
55.8784 134.341 46.4796
71.1799 138.589 57.9492
