ply
format ascii 1.0
comment Created by Open3D
element vertex 2022
property double x
property double y
property double z
end_header
130.868 75.2142 168.729
149.363 24.7438 134.679
174.974 176.504 174.498
116.858 125.643 177.308
186.265 118.485 45.8171
149.413 171.785 154.378
143.147 133.126 99.4818
136.012 65.85 222.116
147.477 176.183 179.752
187.072 150.804 121.345
154.121 159.437 147.635
126.728 115.692 245.382
176.428 180.914 141.616
145.535 149.643 157.462
132.432 158.717 230.157
166.147 219.823 118.628
137.186 149.042 240.399
143.479 100.51 206.727
112.545 80.4943 233.168
159.951 179.917 109.977
134.719 127.916 166.511
105.486 87.83 232.32
177.72 182.722 148.854
187.939 122.119 180.177
154.771 66.3625 122.193
138.507 43.2972 199.216
183.373 118.58 229.77
184.889 174.064 123.773
188.277 111.102 120.936
166.156 171.91 157.947
188.279 112.291 201.394
124.543 50.2406 157.746
175.511 151.976 196.958
164.663 204.322 69.5557
170.233 285.902 94.7325
181.287 207.093 141.597
183.578 149.986 155.15
147.476 132.998 63.6481
127.245 50.4007 188.432
175.303 176.017 105.667
166.923 184.354 133.918
103.374 190.254 201.138
96.7773 56.0972 116.925
171.078 167.625 189.859
139.929 156.378 193.671
186.447 216.186 127.485
101.289 61.1374 89.5831
185.888 140.224 40.5956
150.317 171.703 169.134
187.585 205.026 99.1164
123.077 29.5399 136.04
189.157 146.013 95.3472
170.642 139.421 229.865
113.048 197.196 200.454
163.727 241.908 113.702
184.944 77.196 196.137
131.742 186.86 183.861
165.798 183.73 101.871
180.372 156.501 177.932
117.687 224.038 133.233
157.75 142.209 96.1489
168.254 39.9659 180.761
177.371 85.917 122.763
166.257 209.466 72.4088
182.764 208.762 73.8437
146.716 164.602 56.1794
166.321 51.4351 186.83
141.462 219.766 179.576
121.874 37.2397 188.145
118.745 181.19 210.676
164.707 84.4104 194.037
172.951 143.433 107.173
185.624 181.045 139.47
153.64 127.438 113.536
156.068 31.3867 189.015
166.325 311.531 30.0092
175.207 148.617 104.7
126.232 81.5839 185.176
145.987 232.486 154.558
152.869 112.68 222.453
170.495 131.228 231.569
160.419 183.338 119.671
167.47 214.705 95.988
167.85 224.272 138.666
129.364 89.1515 89.2923
168.89 213.231 78.0085
183.027 170.509 47.2372
188.255 177.237 101.287
163.967 269.256 102.943
166.206 44.9387 135.189
151.859 168.214 57.0778
149.298 133.058 94.5478
128.211 57.6401 208.286
123.878 208.394 193.131
149.674 177.241 196.97
172.453 302.574 79.4014
187.484 149.046 142.873
152.37 77.2023 210.071
109.582 138.042 208.451
150.038 41.3696 197.833
95.0268 63.9327 93.678
107.481 56.7719 90.5852
96.8697 80.989 219.34
124.88 85.2325 85.3731
168.969 170.125 129.768
175.799 217.117 144.931
159.355 118.09 146.594
153.004 93.5128 90.2678
138.234 159.836 220.398
161.151 168.071 108.225
127.677 58.9595 158.674
157.905 182.529 147.729
161.248 137.216 92.7968
177.722 202.307 153.939
159.709 122.766 230.751
171.921 140.311 54.2835
183.119 103.486 160.561
187.376 204.273 73.672
161.617 217.246 108.934
109.123 190.926 205.826
182.718 137.339 181.759
118.564 82.1627 236.073
135.758 161.92 83.9848
154.857 57.7594 192.648
181.329 146.342 102.459
167.345 198.204 100.235
143.916 21.0069 180.903
159.169 71.1289 185.89
149.16 168.31 182.302
98.2227 100.632 237.057
142.94 128.061 241.101
152.572 21.1483 177.959
142.472 16.4484 156.94
145.331 121.624 130.083
158.4 175.325 163.39
111.687 51.5735 92.6433
170.498 89.889 223.876
160.488 207.821 79.3143
188.041 222.244 102.978
137.685 22.0281 141.409
163.43 147.416 201.981
153.413 169.572 90.605
188.868 297.892 27.8732
121.785 208.705 96.6846
163.719 115.852 160.91
177.035 76.4361 130.727
162.165 115.688 137.689
111.13 65.5218 83.848
127.211 96.8211 180.786
125.175 106.587 247.754
151.359 80.2607 239.532
162.328 128.484 151.279
133.893 104.468 231.63
164.389 202.421 171.072
111.256 182.243 209.411
166.601 269.917 115.287
159.168 83.8287 230.195
136.577 210.941 159.871
129.752 182.869 69.4758
188.562 128.459 145.297
115.111 149.761 211.274
94.6216 39.2126 161.232
155.098 139.286 66.873
140.545 188.817 64.12
161.694 104.007 110.62
127.236 24.9626 164.911
146.438 92.3359 92.3065
186.043 193.701 145.41
116.193 160.077 170.373
118.386 43.9252 115.959
129.281 31.1149 188.281
186.435 206.614 113.812
164.118 141.429 99.7807
154.488 216.916 169.534
179.541 71.8811 183.449
186.538 223.959 117.057
151.119 123.862 211.721
187.419 100.692 132.121
171.848 85.3686 122.056
188.534 114.673 175.854
187.255 136.83 156.282
163.538 166.78 100.729
119.115 50.9499 93.6849
167.709 295.549 107.358
173.325 78.1576 173.485
116.225 158.86 204.129
162.552 87.498 131.052
160.545 294.875 76.7045
124.165 215.893 189.556
183.99 185.852 58.8462
148.849 213.515 105.523
175.721 127.225 44.8883
180.942 218.773 88.3337
179.38 318.987 13.2227
170.992 186.179 127.629
94.6311 100.223 81.3169
127.621 177.057 196.423
187.84 93.9229 177.46
141.56 142.193 60.3658
156.162 143.548 235.83
175.434 142.741 216.903
187.426 175.88 56.4323
146.542 37.2109 126.72
108.117 153.15 198.016
160.157 113.096 112.43
180.409 72.8177 192.556
133.632 33.0627 193.883
182.599 140.485 136.518
188.394 121.644 115.946
178.138 72.5307 160.575
184.351 227.963 112.36
186.26 119.896 80.3605
159.263 127.429 53.4019
178.869 139.366 57.4579
144.502 163.513 156.52
161.094 113.674 75.7582
168.111 176.221 90.8989
130.993 207.631 195.863
172.88 175.257 186.259
163.938 66.1325 188.062
154.166 113.062 159.98
160.099 39.5037 185.978
151.95 165.285 108.396
161.961 135.981 50.0035
164.567 161.588 89.668
175.3 219.92 95.2031
155.771 172.229 181.91
178.921 296.51 27.1656
140.543 225.054 122.525
159.605 62.3774 143.842
153.328 107.184 104.734
153.422 137.658 221.347
188.149 128.563 192.01
153.488 166.776 168.368
146.339 85.1205 128.77
188.604 163.33 79.7481
181.098 77.6831 141.914
169.379 192.438 93.7756
168.422 116.402 60.2647
150.502 93.5048 127.005
185.668 216.915 110.746
183.223 152.979 107.948
129.464 113.978 54.1276
169.919 131.148 135.622
161.273 109.649 157.044
179.19 206.4 128.798
163.883 113.836 106.38
162.504 95.2185 112.064
162.032 171.618 191.697
187.973 118.107 190.252
154.824 179.513 54.3751
165.044 192.069 169.371
186.642 219.812 95.1606
147.802 157.787 148.078
154.999 49.5408 196.133
142.477 165.633 97.1778
130.573 176.312 125.041
188.061 140.753 54.3745
157.991 79.0341 188.076
182.721 139.186 124.584
153.63 120.392 190.907
141.959 207.612 164.908
175.81 70.708 193.645
187.912 134.503 110.92
186.576 127.279 79.1596
163.39 131.992 87.3753
167.321 211.791 162.248
146.242 161.177 82.2093
155.372 215.1 103.778
139.294 90.5014 146.007
164.779 157.195 81.0126
133.237 168.091 165.559
149.999 98.4003 208.222
163.642 213.838 115.169
174.996 143.417 94.5281
174.569 298.303 92.6654
133.579 67.9926 181.335
160.634 180.49 198.836
188.947 144.267 63.0081
158.034 202.196 74.2573
186.859 171.754 133.463
178.461 97.8083 200.686
125.976 195.25 144.661
146.36 47.7901 200.689
161.448 174.351 78.6401
130.459 23.5282 181.697
165.306 121.081 55.0113
132.351 168.23 208.473
166.989 277.019 103.858
177.281 114.855 224.304
162.631 84.6613 121.626
151.472 74.9532 233.191
171.144 120.603 47.6405
168.596 142.607 124.318
127.596 90.0121 70.3352
177.097 110.799 142.307
165.318 204.198 123.274
153.941 136.753 237.264
148.941 196.417 178.793
123.677 77.1497 144.763
175.488 163.38 153.146
167.01 306.066 100.369
188.078 205.99 81.7335
154.407 84.0235 191.907
166.131 220.604 161.507
159.118 290.978 102.177
188.629 112.332 84.7474
165.54 177.965 185.526
148.917 113.914 104.897
160.945 78.8245 223.636
169.52 175.496 52.202
168.793 318.142 18.3201
150.621 48.7697 125.887
161.907 133.799 230.881
187.326 156.007 64.1159
142.355 169.263 196.66
124.603 72.1109 89.1579
126.968 24.1531 145.804
137.362 192.306 74.5
119.285 113.257 249.386
176.415 101.992 219.635
176.647 180.654 57.8847
168.002 213.653 149.734
184.538 97.5255 200.407
160.953 230.344 103.218
168.874 39.3717 157.789
141.305 159.794 203.448
165.948 142.463 57.8612
163.996 152.009 154.314
156.799 40.9373 191.691
174.951 145.508 122.451
141.048 185.534 140.278
157.168 26.2566 183.152
168.72 148.435 123.685
181.273 170.139 105.797
131.659 186.731 158.238
125.448 83.8513 237.515
124.821 119.211 101.194
134.96 95.8595 70.0211
142.3 69.6586 226.752
166.686 109.984 153.592
112.002 117.05 249.215
138.153 146.493 176.067
162.986 226.594 145.163
188.625 155.561 85.292
153.027 128.449 101.473
170.766 305.247 34.1749
143.118 201.797 83.3553
157.721 44.2366 132.11
188.275 315.106 35.1063
173.333 157.864 141.062
188.16 89.6644 203.086
188.042 110.451 191.017
189.217 138.297 70.4925
187.06 212.18 90.688
123.208 194.949 171.957
183.667 200.476 150.407
148.814 209.03 170.595
181.354 276.077 108.239
177.299 186.868 130.626
175.748 288.161 77.6519
151.923 104.429 204.521
156.483 133.428 143.068
145.626 116.175 58.0488
106.539 76.4915 146.346
147.915 93.8921 120.605
147.205 176.675 56.2332
165.066 32.2149 148.355
111.46 157.136 217.34
158.017 113.668 198.199
187.095 140.031 142.421
167.755 155.442 126.262
120.718 66.7013 122.647
188.049 105.402 113.92
137.744 85.9004 165.421
170.911 200.695 67.2505
162.183 178.741 175.273
178.198 146.351 115.012
152.26 104.01 76.3898
187.41 92.1885 143.207
122.315 218.133 180.605
135.175 164.143 93.6659
150.591 151.657 78.8843
153.263 137.207 161.113
146.203 117.559 73.6225
145.447 139.924 169.321
171.843 175.818 125.922
132.008 197.868 159.825
171.935 168.816 166.989
95.7223 112.907 235.459
187.449 133.734 137.796
123.82 59.8733 166.332
187.318 125.952 184.606
145.15 105.972 205.058
182.693 130.305 117.183
172.944 220.846 123.488
146.425 232.169 147.492
188.522 160.799 89.6983
167.654 33.9593 175.803
169.071 127.865 46.6468
151.019 126.449 236.513
154.553 164.837 186.447
139.532 66.3309 162.878
146.306 156.709 200.323
101.352 82.1078 225.757
144.692 156.04 154.303
180.461 307.895 89.3676
130.357 152.491 237.216
180.193 221.336 106.751
116.493 57.2744 88.0251
102.743 140.912 237.561
127.334 156.009 78.0565
162.348 185.312 88.343
162.845 283.064 106.301
161.991 126.408 160.754
122.359 215.829 101.54
138.98 203.633 100.685
172.335 74.9755 126.031
126.77 127.728 194.477
181.671 91.4994 191.716
143.648 131.578 138.223
161.172 194.175 96.726
126.999 225.146 168.83
156.556 165.401 102.761
159.908 179.85 92.1824
97.1469 189.221 193.038
182.348 90.2446 128.275
176.723 165.355 179.42
136.891 170.718 65.0603
124.54 186.625 110.759
155.774 101.106 233.252
164.472 43.6775 186.005
157.398 135.946 54.1305
186.469 136.035 197.215
126.403 194.052 200.084
127.249 96.8252 63.6364
172.035 222.467 117.342
181.349 80.6226 128.407
180.107 198.764 89.9624
189.485 296.703 40.1122
188.772 158.082 126.086
137.168 19.7422 176.206
144.466 82.1585 118.308
169.852 73.8291 196.384
177.873 165.21 45.4953
117.289 214.285 185.863
133.728 69.9558 151.819
188 111.208 73.3587
154.565 105.304 223.852
140.397 170.49 59.0061
127.513 77.0156 94.9738
142.975 129.101 154.862
153.528 218.648 109.816
127.709 183.829 194.183
187.349 123.528 61.6081
134.29 203.938 155.724
129.904 31.643 131.514
169.047 62.7257 136.874
178.355 196.849 76.0697
187.808 161.681 104.858
142.336 58.6574 189.164
166.966 280.467 83.5335
115.361 120.065 196.848
163.675 99.4999 93.0963
114.221 151.675 195.197
148.975 139.436 111.675
188.394 131.126 131.65
135.371 196.703 108.956
150.793 120.785 157.317
162.26 111.87 231.014
169.42 135.152 87.9079
130.824 98.0351 110.491
164.149 270.496 95.685
152.269 100.119 129.104
179.02 212.483 136.723
178.994 159.509 146.103
187.926 130.488 91.7529
152.883 87.1833 130.145
186.981 148.2 42.2689
185.901 148.639 174.678
188.269 138.449 91.9198
153.421 176.759 108.09
110.454 45.1162 105.941
176.987 160.336 53.1882
147.169 208.325 186.248
132.538 66.3539 134.506
162.987 212.224 80.0761
188.029 160.757 71.9216
135.175 130.69 240.566
157.457 86.3141 133.923
125.41 129.8 53.8169
150.677 160.634 87.5748
121.467 150.751 61.3553
153.435 124.801 218.19
163.19 173.081 118.03
178.745 169.951 164.56
185.807 214.383 83.0801
117.512 178.985 172.908
123.116 141.341 139.924
136.71 137.023 244.89
144.025 123.06 187.407
187.809 123.751 91.7629
175.379 144.921 47.9604
158.295 96.0293 127.033
156.617 148.07 70.7899
155.195 223.668 162.805
109.938 62.4882 203.099
142.387 75.756 128.626
147.4 104.975 213
188.545 192.827 81.2654
118.402 84.3981 153.888
151.167 119.121 204.466
168.091 274.065 77.4115
141.621 101.087 144.359
188.739 115.816 62.2118
158.265 228.453 145.411
186.92 182.337 119.694
169.465 192.92 60.7393
174.631 305.935 102.213
186.756 148.345 164.382
187.346 114.956 221.592
188.078 186.138 101.176
156.237 149.914 155.627
185.42 128.858 157.28
120.905 210.486 155.477
187.714 169.179 50.2748
128.233 132.796 73.2874
103.923 48.2119 104.634
163.033 126.485 135.509
172.729 88.6386 210.576
132.657 202.428 168.583
121.473 64.1252 155.406
178.467 175.488 120.455
180.763 142.829 203.42
171.636 166.721 85.527
160.596 156.572 73.499
162.912 201.916 103.414
178.435 189.372 61.1976
186.956 121.468 125.147
156.311 76.7953 229.716
170.978 78.7276 155.764
172.341 144.721 60.7212
175.063 60.0211 139.395
129.198 91.102 169.477
161.807 106.745 123.498
131.356 74.8131 146.951
127.05 187.837 74.0836
171.172 65.5637 189.055
172.442 118.601 162
164.364 177.545 122.645
171.675 160.764 204.681
168.944 118.548 116.472
124.777 76.8952 232.218
137.318 63.8303 105.249
153.957 118.831 199.032
142.756 229.196 160.79
152.803 137.19 146.946
159.697 200.187 127.729
183.816 162.502 55.7641
185.009 191.367 151.434
118.347 192.216 204.883
143.557 205.567 191.154
107.063 93.8954 240.161
121.663 81.1748 79.2508
187.155 209.119 106.03
163.569 234.489 119.501
168.172 212.899 109.592
127.661 153.97 178.163
171.205 213.084 100.207
124.56 98.3969 138.274
155.238 175.028 79.3858
179.933 139.15 45.2657
158.573 79.0738 214.425
130.677 119.852 99.7695
188.35 201.604 117.301
168.952 307.585 87.2125
176.867 196.316 158.128
123.026 189.298 78.2581
179.129 90.1492 210.606
141.656 65.8496 141.075
183.413 115.761 58.5799
173.781 302.89 23.2867
118.14 70.9071 222.153
159.948 86.0607 192.026
130.169 119.775 237.593
148.762 162.32 207.205
147.586 87.4046 118.092
134.194 106.549 203.15
173.153 150.915 60.0139
150.904 148.771 235.582
125.713 151.451 231.272
167.631 113.22 177.7
158.613 103.832 79.1592
180.321 149.907 177.656
158.352 155.468 151.817
149.155 102.519 240.21
104.148 184.127 205.434
185.772 133.543 150.826
171.072 71.3678 136.628
150.558 61.7698 190.195
186.808 112.818 131.069
173.564 168.414 103.556
159.739 106.187 185.213
155.807 293.089 94.7621
116.125 187.938 208.2
179.15 211.356 82.8784
144.535 159.809 209.882
141.067 136.823 181.086
156.189 203.316 97.0624
177.579 172.262 132.716
141.09 65.0256 132.443
155.077 131.766 57.5312
177.586 111.591 130.855
162.667 165.342 50.4824
163.554 126.592 99.2227
164.287 38.7453 135.527
120.64 44.2855 144.711
101.776 107.229 241.375
113.119 54.3911 188.86
158.628 160.577 197.009
135.09 70.4017 124.723
165.334 94.7807 189.992
108.32 123.196 246.015
139.827 109.142 243.697
127.465 184.138 121.709
175.626 118.956 138.307
155.204 95.2147 209.375
164.142 194.726 112.564
170.654 194.558 130.196
141.186 123.826 135.874
129.237 134.084 246.516
184.735 127.715 219.091
175.172 106.73 91.806
163.607 160.343 55.1932
173.547 59.2384 183.321
186.648 144.073 157.598
186.534 318.841 12.5178
180.753 107.538 61.454
140.726 161.373 89.6468
156.124 72.8957 221.069
117.262 146.65 238.4
163.269 56.5869 125.744
185.862 77.8117 174.391
132.754 86.4152 136.501
185.083 143.717 76.7879
158.071 122.762 59.494
177.517 171.505 98.7725
121.36 26.7686 159.156
183.677 160.366 128.811
126.242 217.724 139.658
129.245 141.999 243.106
115.968 171.489 215.097
136.058 185.721 90.9428
186.416 131.532 205.563
132.056 124.397 53.6002
110.908 77.3132 83.6915
131.734 191.103 177.123
150.711 139.937 101.503
169.876 62.2372 165.87
186.709 204.583 145.085
186.27 140.934 163.143
144.576 18.0097 171.75
155.209 98.4369 189.644
181.324 145.53 195.353
187.98 149.355 69.6483
175.726 141.12 224.835
170.506 114.873 219.971
179.987 118.906 218.467
144.549 221.394 170.398
164.158 183.073 73.5494
180.547 78.1485 171.586
168.004 103.137 88.5571
137.26 132.913 73.615
164.412 115.775 69.0066
165.194 99.9345 230.12
161.939 30.0832 179.063
150.324 114.958 126.626
145.097 172.588 91.394
186.106 129.343 101.7
167.957 155.808 72.5717
132.423 83.194 173.102
173.719 136.433 202.701
176.499 272.749 103.616
175.993 47.2335 156.744
129.89 39.4823 190.471
140.948 27.057 190.309
145.808 16.4609 164.357
186.21 113.263 94.7073
159.781 193.873 170.741
180.951 176.789 50.4636
161.087 222.033 160.153
164.15 278.187 95.1327
185.594 84.3085 186.008
144.761 88.2312 103.07
144.531 85.1215 196.671
135.555 98.8218 207.454
114.383 98.9994 243.507
141.023 64.8907 113.245
135.35 118.11 73.5934
181.141 175.879 108.545
141.394 140.492 175.3
156.237 115.859 165.962
155.995 163.9 86.529
188.605 128.073 50.0068
137.07 100.71 154.447
187.628 83.8544 209.88
184.973 134.633 74.5511
148.836 165.642 121.116
143.953 194.318 165.558
150.502 206.83 89.994
126.394 135.908 236.838
160.685 50.1891 189.026
136.655 107.768 56.0541
156.995 94.5693 92.7818
136.035 79.5815 104.44
188.197 125.155 200.549
150.128 200.882 185.77
139.039 232.79 133.072
186.675 198.937 107.313
188.141 191.143 130.421
173.628 95.3028 197.92
105.205 100.937 238.194
139.884 153.703 227.098
167.757 102.669 195.263
128.48 105.983 152.853
167.1 173.508 208.866
161.126 152.61 213.917
135.384 222.583 117.81
161.948 151.777 124.455
146.62 100.266 123.517
175.159 166.187 136.079
119.79 131.221 73.2228
169.75 94.7126 127.285
136.246 186.679 118.561
120.237 29.0105 142.765
122.241 140.273 230.745
126.708 82.9059 102.913
160.722 93.1845 232.398
135.507 70.9657 230.798
158.51 112.024 122.604
142.837 178.869 108.905
113.589 34.3307 144.525
154.025 150.09 163.185
184.047 82.7245 134.31
152.415 144.129 160.283
142.656 75.8416 164.291
145.269 122.575 237.637
111.801 152.638 228.758
184.977 167.43 157.056
155.334 188.321 59.3688
145.618 139.601 162.033
149.957 145.051 167.656
122.215 200.347 195.717
138.953 122.506 118.607
158.336 149.484 231.145
170.184 35.7732 165.868
160.3 101.025 207.229
126.333 104.871 239.522
142.113 69.1241 214.86
185.734 78.5036 203.543
175.932 107.595 86.0074
147.561 146.16 59.4827
141.764 33.1126 196.517
135.085 116.792 245.55
184.974 173.221 67.8962
113.18 106.314 89.0332
165.271 143.372 229.136
113.814 147.981 98
142.917 160.429 223.394
165.493 214.003 127.535
157.795 248.429 99.2577
144.633 214.648 164.284
128.437 41.9689 121.775
137.18 123.133 247.611
156.071 173.817 171.923
168.404 264.648 86.3761
117.864 128.509 244.113
163.327 62.0615 131.157
166.883 295.516 75.636
112.649 88.9988 74.3414
134.438 17.353 165.836
128.786 21.3667 172.773
118.707 39.1734 134.44
127.263 171.332 162.107
181.902 93.4831 119.12
153.405 160.032 78.1978
170.996 161.137 49.6693
104.776 121.857 234.951
148.037 146.233 70.1272
147.46 75.8353 159.881
181.288 107.003 88.4553
147.655 165.325 114.482
123.867 208.016 170.444
166.788 109.747 229.328
187.609 135.505 61.6525
156.784 91.9541 190.17
124.392 111.145 73.6647
156.882 105.712 213.426
173.831 218.106 138.303
172.631 177.064 181.081
124.666 185.6 180.788
158.837 190.755 131.239
188.385 158.528 137.696
168.232 182.459 92.8201
165.236 33.0984 140.638
155.498 192.59 75.9291
120.591 106.427 202.077
167.642 152.446 197.035
170.504 179.865 116.387
186.621 198.939 125.595
133.548 208.384 165.25
188.138 120.473 207.534
167.481 91.4973 207.377
164.229 304.682 93.8863
130.324 91.8298 241.547
147.372 85.6846 154.936
155.394 131.264 231.786
146.158 107.122 191.58
96.766 53.0214 104.494
133.071 56.0545 183.519
155.638 185.017 182.889
170.505 56.3634 146.123
132.646 178.575 88.3581
148.127 128.986 123.738
187.8 153.402 76.2102
183.141 161.201 44.1377
93.3265 44.5593 157.365
186.921 127.879 111.396
139.632 202.25 170.055
156.219 113.248 152.351
130.871 74.0518 140.319
150.386 139.954 68.4291
146.808 95.1953 195.725
113.723 118.032 74.4462
171.274 179.772 98.4926
152.667 110.496 184.059
151.126 47.1791 132.05
168.902 117.594 67.2378
128.112 138.381 185.452
137.801 97.3708 231.906
156.95 72.2812 120.309
100.805 133.219 241.637
143.864 122.651 178.68
182.876 302.759 91.5701
132.038 90.1492 190.25
182.019 136.47 65.6035
157.298 170.212 53.1579
142.006 210.036 106.428
135.464 189.073 148.585
125.971 129.716 170.064
186.245 140.46 111.575
144.899 157.812 230.852
137.178 161.913 197.593
179.261 124.305 224.571
145.498 231.292 138.616
139.315 175.824 194.119
186.669 168.463 86.2426
143.038 84.7677 160.785
174.395 84.8102 204.164
130.073 118.799 133.333
183.74 79.1668 213.234
145.788 222.973 137.057
127.468 95.4413 243.557
151.288 68.3042 161.664
142.736 53.7685 200.707
121.95 136.953 59.1887
144.531 130.699 179.563
184.592 110.192 83.1927
113.9 35.2722 153.589
161.211 117.652 122.395
173.724 293.99 109.245
148.514 129.767 117.686
187.677 95.7065 136.566
113.692 85.6918 162.551
115.233 116.326 177.433
166.569 159.156 193.911
165.565 73.0048 190.689
151.12 132.437 58.4727
155.023 109.821 76.112
142.06 95.8013 80.1637
128.32 167.371 217.741
173.937 142.814 199.579
172.198 52.247 136.046
168.579 79.2031 121.393
147.21 120.43 194.686
164.856 213.121 87.3212
130.263 73.4663 223.566
130.565 87.6634 179.33
146.893 162.309 92.2208
185.772 158.949 118.06
187.279 158.083 39.8902
126.055 185.711 97.9531
136.818 165.906 182.951
139.731 197.383 77.251
152.759 183.139 122.298
178.22 189.296 156.441
146.667 201.038 126.382
173.049 110.969 81.8824
170.375 162.631 89.8753
150.275 74.3457 149.021
138.801 173.559 123.152
137.192 236.319 149.054
124.451 220.493 148.199
138.968 83.2398 107.568
124.888 87.583 77.0596
164.258 95.2574 130.594
186.054 136.391 165.736
147.62 212.929 178.781
187.239 84.0442 177.565
186.523 146.565 183.937
155.536 90.9499 232.275
176.314 134.053 116.973
110.247 49.379 98.7068
156.133 119.513 170.991
125.302 179.653 87.6283
125.893 58.9156 142.654
144.615 77.737 227.105
124.448 92.3939 145.322
142.705 213.741 186.534
118.458 35.497 142.85
162.062 156.543 126.653
178.378 134.023 202.348
127.068 54.6968 180.689
175.761 109.467 150.956
164.583 121.832 171.949
185.682 78.6797 164.65
148.302 223.712 165.588
172.758 185.633 61.7472
138.104 123.019 77.8663
177.277 74.3362 149.625
171.884 307.594 20.0136
145.499 202.316 175.423
155.317 121.466 182.138
173.59 160.48 191.569
115.758 159.307 76.2811
156.364 167.642 111.037
157.852 140.542 103.5
134.963 199.479 84.9391
100.608 50.2863 114.598
171.417 217.182 131.343
136.031 92.6775 165.484
123.649 189.119 148.868
158.328 139.245 156.456
161.349 165.683 221.092
119.232 35.3411 180.459
154.8 206.204 79.5066
125.525 94.3034 199.422
144.472 227.233 130.558
104.809 129.424 135.501
148.002 107.5 72.7256
114.539 68.2584 212.39
177.561 266.027 98.6135
143.687 169.839 113.932
98.365 191.261 97.0053
150.338 226.846 159.571
109.244 41.2344 178.142
106.452 112.4 246.393
116.877 55.6165 129.064
129.17 91.9597 185.27
143.11 108.377 102.209
187.342 188.707 110.205
150.355 188.763 68.4086
149.785 127.391 74.8498
178.757 195.139 65.0366
144.542 66.5337 179.942
132.99 75.9251 117.044
163.35 85.8715 223.796
186.021 157.572 55.8841
104.034 48.1165 121.034
140.564 92.6141 195.869
177.852 154 169.63
149.585 118.72 175.804
157.483 211.957 116.284
145.175 170.36 146.985
160.156 95.7119 211.82
140.214 136.497 143.535
164.326 62.2889 166.051
146.945 199.573 77.3311
175.428 264.198 104.904
177.199 79.2864 202.046
166.698 185.054 117.545
153.262 63.3245 155.565
170.573 209.132 155.742
135.116 85.3175 99.3548
172.891 157.457 177.563
152.137 119.959 107.369
178.047 106.307 230.559
186.982 100.749 220.951
121.361 90.122 166.875
181.484 137.464 190.278
173.103 114.595 64.4705
163.309 77.1159 130.398
171.284 63.7749 150.816
126.928 77.5729 161.471
143.301 149.397 57.5583
186.84 149.503 101.517
157.501 174.988 123.799
171.862 219.769 104.424
103.147 213.58 153.836
161.705 48.225 129.014
163.951 113.691 129.822
131.565 57.3467 112.296
166.45 153.188 190.252
170.431 158.739 63.2381
129.745 182.869 203.13
129.096 150.039 63.202
133.368 73.4119 135.473
154.564 177.292 117.651
140.917 171.517 156.594
181.323 145.123 166.177
144.46 129.422 69.1858
160.914 57.3524 136.574
154.865 128.515 166.857
168.753 94.3634 112.873
181.818 76.1186 163.514
159.357 143.152 57.1157
135.846 93.8462 198.89
160.587 169.229 96.2583
120.635 183.432 163.205
153.681 165.145 157.147
172.912 175.61 77.6923
164.144 171.042 51.7253
185.309 95.8013 209.61
182.035 197.581 155.748
184.48 101.385 190.822
182.209 315.292 44.2941
144.672 183.028 171.012
129.688 87.4707 124.195
153.961 63.5432 175.352
168.156 61.0806 186.004
135.759 194.461 120.297
108.26 149.824 216.982
178.558 287.332 88.9139
109.921 204.159 192.936
117.564 121.807 248.707
139.925 211.76 172.441
184.867 111.885 181.571
154.101 164.281 73.905
173.309 294.082 70.303
134.135 66.0156 156.49
171.799 180.745 161.122
105.16 148.546 205.818
129.219 88.527 114.051
161.104 175.395 53.7306
167.514 140.611 91.219
184.488 95.0766 127.649
124.009 171.853 82.6245
160.811 61.5188 179.905
187.396 117.016 111.282
173.647 315.754 17.8013
137.382 201.483 92.6633
174.651 167.989 77.3336
183.34 114.227 224.741
146.675 168.787 160.789
173.562 273.717 82.5161
185.148 93.1858 185.16
98.2383 47.5047 145.532
152.732 120.509 79.5825
158.883 199.054 68.6752
174.988 305.808 85.8378
145.629 101.564 229.656
98.8547 69.9287 90.5363
157.065 292.146 87.0143
127.907 123.612 185.341
92.1598 52.6801 139.543
156.992 158.713 123.975
178.423 64.2494 180.539
129.474 84.5743 165.586
142.723 128.435 126.784
109.319 40.1196 168.857
163.159 120.868 218.87
177.221 97.5018 226.27
129.216 203.955 120.17
120.896 52.4561 150.931
168.713 150.163 66.0023
184.533 169.132 76.536
123.161 46.3854 182.016
138.623 100.006 195.476
104.546 46.3642 179.676
187.442 104.89 122.739
135.33 191.817 114.552
149.28 119.301 163.954
114.337 212.27 177.596
149.289 70.432 121.813
175.317 308.092 42.8091
121.21 140.269 192.374
124.531 120.28 177.254
153.974 146.721 133.171
172.422 160.236 132.145
185.772 100.047 124.156
89.3581 58.2936 119.908
188.506 148.77 84.5166
136.323 129.917 67.6716
129.982 224.141 120.05
175.552 162.98 185.294
165.909 107.013 200.809
186.172 132.924 43.2176
123.248 221.703 127.18
129.052 100.357 130.772
134.132 67.1021 144.093
184.792 117.223 138.021
186.983 166.582 121.962
177.067 184.506 77.9646
134.068 128.051 132.976
186.258 125.141 152.934
129.974 171.274 84.9168
105.4 182.013 182.226
179.168 126.59 208.344
176.787 129.239 226.111
136.326 56.1423 198.722
186.857 162.126 113.343
184.983 194.869 73.0022
189.088 97.1223 163.999
149.96 131.16 230.422
181.492 218.358 131.138
171.523 132.847 140.962
142.901 116.087 240.91
141.537 104.869 231.312
135.318 59.1727 203.701
169.843 111.295 168.754
155.976 86.8781 210.181
140.415 154.798 161.904
184.917 114.625 208.643
147.748 68.6086 144.574
187.222 146.512 134.944
170.126 117.335 103.487
102.393 68.6654 85.2206
112.791 99.83 157.281
126.479 62.0673 120.703
172.706 97.763 191.534
158.115 173.219 213.983
152.474 99.1199 100.496
122.464 104.014 183.266
111.288 112.525 63.254
124.724 100.563 207.316
184.534 161.959 160.764
164.285 162.308 129.42
127.98 89.3745 134.575
129.106 217.693 186.92
181.479 133.067 89.1604
140.026 195.221 170.772
163.26 282.155 78.6966
173.204 169.234 178.186
106.645 133.625 235.258
164.39 99.2362 204.903
159.017 135.251 153.575
153.354 118.568 123.901
145.133 175.783 189.765
139.161 35.8231 129.821
151.728 131.341 70.0642
180.491 293.558 39.2516
154.918 123.497 73.8112
130.094 106.638 57.7669
149.037 153.797 168.43
172.815 106.495 104.025
135.063 109.455 126.369
155.441 191.839 92.4471
161.157 149.805 131.315
157.266 119.773 214.088
155.926 109.611 114.693
170.613 111.954 146.736
146.732 101.8 76.9217
117.732 94.1508 162.461
179.592 271.55 94.4134
125.462 198.847 85.5601
148.922 117.42 62.6902
150.337 183.324 179.151
157.372 212.875 126.893
115.161 98.1451 63.1375
169.547 127.051 150.022
174.059 114.987 56.7088
170.619 270.986 90.3751
164.266 116.681 224.96
151.858 68.7046 168.398
165.087 152.157 72.9294
166.751 120.816 163.952
132.82 234.783 140.745
147.402 114.843 80.8461
168.704 117.312 52.7513
117.059 122.997 101.892
176.159 55.8899 161.451
116.733 43.6821 109.183
165.627 134.694 137.066
183.384 136.761 131.587
118.705 102.377 157.016
140.267 227.087 165.992
181.397 288.131 100.557
137.935 152.915 56.9466
166.524 94.0134 200.574
151.205 208.847 122.565
161.275 183.258 100.074
115.043 53.9299 121.185
170.462 70.9434 154.291
170.287 283.296 103.07
123.549 189.003 88.3765
154.832 68.3246 176.712
163.627 169.653 124.988
162.112 64.0236 157.655
123.822 104.408 156.542
132.719 196.622 129.751
89.4501 76.2364 120.492
156.794 139.987 230.027
146.717 78.1223 132.367
156.646 61.4326 125.193
161.838 297.884 82.9229
170.556 208.85 124.993
130.074 62.406 200.136
171.124 55.555 156.849
164.644 130.184 144.869
131.674 170.746 149.323
161.526 160.586 139.216
142.478 85.5187 149.529
145.452 191.36 175.283
119.67 149.408 164.421
139.817 116.749 54.2049
130.281 185.826 90.3106
117.195 67.5137 131.245
175.473 101.948 148.973
181.17 143.58 186.275
143.274 124.3 226.497
180.823 135.592 117.55
168.767 180.284 142.654
155.837 199.25 87.289
181.383 112.076 95.509
163.146 297.031 89.7064
183.293 133.175 221.509
163.316 119.908 177.759
143.907 169.277 121.439
138.247 105.248 80.1431
123.147 62.8651 195.864
128.049 174.753 68.2889
170.75 82.3059 195.707
114.218 202.402 170.604
137.752 138.587 70.6836
187.457 122.689 135.559
149.284 199.851 86.8344
115.289 70.2307 168.846
148.162 165.883 198.579
173.034 90.2609 218.433
171.382 170.994 196.504
117.129 86.2454 144.504
147.498 116.015 204.336
133.577 162.31 185.823
182.448 77.5171 148.842
169.855 267.408 108.594
152.013 188.401 127.174
152.101 100.076 80.5874
136.382 159.228 204.908
167.231 300.983 103.198
118.819 133.999 245.201
164.039 107.839 191.397
137.571 168.664 84.975
174.317 205.307 160.582
133.571 36.1799 126.035
173.958 135.372 209.693
143.996 171.798 136.152
180.147 208.949 148.329
152.611 119.645 135.477
176.406 283.339 111.133
123.085 111.237 186.602
119.618 99.0506 163.622
170.54 121.45 218.547
147.148 225.874 144.816
116.501 204.153 145.135
165.555 62.7162 148.633
136.552 193.307 101.363
184.728 141.438 193.708
116.724 136.767 197.899
111.596 43.6761 184.115
183.857 95.0348 156.119
147.837 59.7677 132.789
134.098 122.94 102.459
133.068 96.7134 159.93
183.899 306.831 25.2133
148.41 126.331 223.347
155.925 133.635 111.469
167.987 176.477 202.753
187.821 125.505 69.6601
122.092 112.607 147.535
122.124 95.4031 92.9949
119.923 128.422 127.649
131.18 153.157 189.932
103.573 43.5126 172.901
181.909 78.1636 181.423
142.161 163.545 127.836
120.232 202.158 148.664
142.5 182.628 102.6
121.139 155.98 67.0773
188.176 136.373 99.2911
151.284 171.346 211.527
126.048 171.056 213.445
104.556 46.5855 112.657
146.738 122.961 106.393
148.717 152.442 128.711
148.785 199.619 169.355
171.532 182.743 122.433
187.391 303.475 16.1565
163.299 113.064 169.49
179.346 221.168 99.6331
138.811 181.016 60.0802
179.468 71.5343 167.121
160.233 182.002 181.933
156.951 112.298 105.567
155.589 142.381 142.331
131.615 68.5312 117.648
144.972 180.961 122.709
182.774 134.061 171.542
144.904 194.169 93.7671
150.301 160.247 166.628
140.928 76.1241 120.95
149.821 226.102 152.994
122.268 153.253 185.106
183.177 280.381 85.6176
143.881 118.04 103.116
176.58 61.7243 174.669
112.353 47.1304 116.126
129.185 174.33 97.5122
134.123 220.826 182.584
174.676 150.442 189.432
155.504 164.867 133.245
149.45 153.507 136.346
90.0598 139.825 228.287
130.759 61.9454 213.987
124.198 72.5356 220.312
140.465 92.4729 160.059
183.737 145.187 86.1802
187.512 86.1884 195.141
134.796 70.7986 107.779
151.79 213.681 116.223
154.208 215.135 121.083
136.691 71.0071 199.986
148.743 186.033 133.782
139.507 193.191 130.28
168.898 151.257 215.476
181.307 296.51 84.0078
123.039 144.862 179.765
120.024 202.063 92.3036
140.289 120.344 99.8986
148.039 19.6516 140.166
145.903 81.0794 207.363
158.772 144.823 63.8272
129 167.764 202.046
182.32 221.53 121.529
138.398 89.9664 154.124
177.214 140.18 118.137
139.053 224.283 171.39
140.244 233.742 143.183
130.766 121.182 178.072
133.698 113.539 103.34
119.695 162.699 191.516
168.021 169.577 149.587
139.03 178.993 81.4091
169.339 115.925 82.7211
151.202 121.644 116.951
163.536 295.939 96.6256
160.151 183.234 132.593
181.376 151.232 187.616
185.178 174.229 81.8119
171.763 143.863 192.475
129.829 63.6928 148.804
142.328 94.3476 107.724
181.653 111.611 186.723
98.9149 93.0056 156.102
166.841 287.329 108.915
183.042 111.68 135.808
166.905 153.439 142.276
150.955 154.534 67.9793
168.381 209.49 91.4916
164.355 165.445 75.9779
144.277 148.994 169.362
174.677 156.433 187.136
95.5978 122.891 205.24
133.61 138.464 184.002
153.358 193.337 130.241
133.079 165.927 218.915
124.862 72.8456 139.643
187.451 319.879 22.8464
133.866 145.422 57.2908
118.83 82.7555 98.2027
125.576 72.0076 188.363
157.072 178.177 98.4088
182.005 159.277 166.268
124.148 111.448 136.472
119.632 167.187 181.884
151.15 143.305 144.373
142.089 114.659 213.544
160.124 163.597 90.927
130.697 125.073 75.0174
171.62 132.182 91.3822
182.009 84.3345 154.728
143.787 134.683 108.829
181.26 137.349 197.812
131.151 152.582 75.4248
137.376 185.715 130.187
172.173 116.983 173.022
129.741 129.351 123.618
133.076 158.583 61.2123
117.885 127.906 57.0549
184.625 85.7492 147.352
141.392 160.134 78.8605
154.964 136.508 95.0645
124.461 89.298 209.827
144.238 115.52 229.713
126.346 78.4858 113.954
135.536 137.389 102.352
162.928 117.866 59.43
178.933 303.127 24.8118
124.105 114.35 155.146
143.192 205.141 93.202
151.665 247.867 107.313
116.719 203.028 165.556
167.706 166.526 99.8408
185.532 86.1977 160.302
181.505 158.375 140.54
174.319 151.935 180.37
121.541 97.8954 239.508
122.4 174.246 69.5547
107.114 147.926 225.737
174.702 105.274 72.7144
108.023 80.3898 173.36
114.177 208.348 160.008
176.355 133.737 218.438
172.132 46.904 152.13
163.039 122.71 76.5855
134.504 180.455 65.0245
165.884 128.216 156.45
129.624 106.907 198.901
154.801 119.551 130.486
183.317 187.884 80.028
143.95 185.025 150.558
184.051 192.666 103.517
175.954 274.725 87.2222
112.443 202.833 88.5585
142.808 147.895 149.919
146.955 195.472 187.34
181.027 136.854 210.512
111.202 173.99 211.511
137.587 168.928 129.105
152.179 85.3625 206.422
179.21 177.41 83.72
153.303 174.836 85.3315
169.619 161.792 74.9958
187.603 105.299 162.775
127.778 124.036 248.045
126.782 118.991 73.5906
129.087 85.9865 147.859
160.746 133.236 160.201
153.812 122.219 148.588
153.747 193.744 81.4702
132.675 89.3321 208.87
120.94 62.121 210.864
176.492 92.1635 115.909
130.101 183.809 106.512
166.567 222.543 151.751
109.422 52.0645 125.92
134.401 212.359 112.942
146.412 80.6494 193.833
172.345 180.3 107.193
110.928 103.577 143.849
176.197 91.3411 151.403
154.484 123.898 122.048
151.644 174.966 206.242
142.957 136.818 66.9444
184.36 191.678 133.13
148.041 175.816 115.691
111.208 212.307 145.644
108.642 34.9142 157.054
128.195 230.2 160.895
178.546 70.9319 140.396
119.665 189.618 172.945
162.261 149.842 223.39
109.56 126.283 196.934
135.592 161.778 69.2342
100.014 63.9461 196.416
187.44 131.495 124.483
132.845 97.8083 135.098
125.445 64.1832 137.602
98.4746 177.823 203.948
177.217 140.878 132.36
125.469 189.799 202.866
132.583 173.829 193.201
136.673 139.008 58.8699
183.016 187.375 70.3606
143.931 115.994 194.122
183.397 124.253 208.786
164.34 111.938 194.432
154.218 169.298 195.674
166.347 88.5071 218.36
141.205 111.716 76.6182
150.972 72.3628 155.587
122.637 161.794 159.137
111.322 129.681 244.018
138.301 203.987 120.049
136.444 165.761 193.489
140.779 140.116 112.363
128.288 146.268 114.141
112.336 106.194 197.044
170.649 119.272 73.0815
121.669 41.4255 126.417
170.517 120.594 78.7238
103.562 172.044 210.965
157.823 129.358 94.7877
185.037 204.202 138.227
135.042 160.344 164.299
95.9303 92.7983 82.0843
180.181 155.196 151.978
116.766 89.2315 89.4735
187.39 297.448 47.3011
145.593 160.102 61.2312
126.188 126.156 234.798
147.77 101.248 113.462
141.31 89.7802 205.64
165.026 149 213.45
134.96 151.459 223.193
144.565 67.854 161.778
114.72 40.7361 168.012
170.209 101.216 203.663
133.06 172.081 142.726
117.877 93.7909 67.5822
126.404 99.7828 97.979
125.147 66.6576 131.762
149.29 79.6943 151.956
133.708 111.469 136.813
172.343 198.801 161.871
129.425 200.822 193.597
174.246 210.409 146.489
117.843 127.339 235.968
157.838 156.632 219.808
130.415 197.427 198.123
131.169 138.253 58.9931
122.464 53.2159 136.334
119.628 93.3973 207.47
118.214 95.1078 143.26
185.134 276.63 95.8493
151.775 177.363 151.717
160.29 131.572 166.276
174.711 144.169 136.636
136.765 77.7553 171.001
89.7171 101.19 232.008
104.62 36.8385 151.089
180.222 125.836 215.123
163.739 166.735 119.796
116.674 148.163 233.174
151.112 62.7314 137.444
108.671 163.145 206.928
157.613 114.199 176.969
130.62 80.891 191.429
127.988 190.575 136.616
115.235 146.516 61.3794
179.664 82.5659 159.929
108.27 171.311 203.96
137.12 169.168 187.189
114.01 137.546 191.055
120.547 50.4022 129.541
139.455 125.019 170.078
159.634 271.084 87.1153
175.966 109.16 172.905
123.372 124.539 113.221
180.449 121.534 58.2775
164.373 144.523 143.326
152.734 159.154 198.207
179.41 113.029 113.381
149.817 191.205 75.5533
166.465 199.877 164.761
161.367 96.2929 225.464
116.895 80.143 217.344
125.294 46.6674 114.22
160.02 114.906 186.137
107.066 36.334 145.689
123.657 198.372 184.362
182.115 127.568 92.557
163.789 183.36 164.835
158.68 118.995 106.915
140.22 167.307 107.961
170.078 82.8889 160.866
124.09 116.176 141.273
157.149 117.858 65.6955
171.067 105.415 90.5686
168.085 188.024 62.4205
100.984 197.64 195.548
127.655 217.109 107.48
141.46 120.03 166.935
97.3993 45.8699 174.917
174.736 178.454 151.692
160.975 120.217 66.1239
159.993 146.093 150.603
133.931 82.8973 124.156
170.411 55.2308 181.735
135.939 99.81 63.7166
156.733 234.179 121.152
117.291 100.346 207.813
174.103 107.62 66.7761
124.793 159.947 195.451
128.005 111.193 147.735
139.839 166.872 139.283
119.701 104.884 240.302
121.502 100.647 64.8791
187.226 133.184 79.3679
137.103 148.638 150.482
187.483 168.698 62.0499
131.813 214.872 150.256
172.583 71.9999 183.282
132.121 196.231 80.7337
143.922 177.238 131.736
131.072 167.105 155.95
185.395 153.526 161.479
130.194 200.242 93.409
142.25 140.766 242.768
145.894 137.613 145.193
151.971 171.216 126.614
161.479 144.118 130.036
184.508 209.799 120.162
165.297 185.509 160.662
140.327 173.912 85.7691
126.213 109.255 100.479
177.363 121.362 154.93
167.856 97.0454 107.357
183.879 120.969 100.75
138.472 76.9141 165.861
133.603 18.0443 159.267
126.69 114.925 64.4355
145.156 160.624 216.97
127.269 109.65 123.768
127.506 206.939 96.8796
110.493 140.52 164.487
145.096 112.549 115.146
136.155 175.932 71.1524
168.556 119.904 137.717
146.176 193.519 129.319
126.255 99.0134 168.128
150.134 163.157 224.216
117.602 69.9821 85.0061
188.045 90.8961 160.283
133.292 155.026 185.147
132.124 152.555 171.242
160.061 144.007 159.325
182.315 110.18 169.832
123.464 155.701 159.888
171.85 146.398 212.374
183.578 124.462 160.527
179.437 136.61 221.814
104.368 127.76 243.693
140.07 128.677 182.916
120.844 107.151 63.598
114.756 81.6107 108.842
160.014 151.629 204.224
158.185 138.664 108.176
122.519 111.285 127.048
137.755 61.7484 179.535
134.483 115.143 225.706
138.912 154.787 211.678
177.073 80.408 164.004
162.162 111.209 203.424
127.121 207.894 141.249
105.588 94.6745 74.1743
143.004 189.189 168.95
113.862 151.205 120.411
144.907 93.2127 154.874
132.128 148.016 176.47
159.325 137.353 147.261
133.288 93.8956 141.535
186.087 126.724 212.767
126.524 95.1211 173.32
103.529 90.3875 79.6273
187.141 201.284 91.3149
110.024 152.167 163.301
109.876 146.883 235.516
107.052 76.3482 164.803
149.934 165.596 95.6698
161.414 205.406 89.2532
169.602 124.184 138.45
160.219 190.237 65.7139
173.355 182.221 88.7093
119.506 39.5035 173.898
126.14 164.001 84.5647
170.378 207.439 165.304
142.635 108.758 226.248
161.907 137.831 136.821
137.579 164.719 64.2703
121.968 92.1674 175.854
177.976 87.69 217.025
101.519 119.468 244.185
178.162 122.233 144.966
123.606 113.503 192.079
173.89 169.15 153.532
166.246 150.789 60.8136
129.219 127.694 98.3633
131.466 41.9235 196.935
148.416 118.268 210.926
121.741 76.9355 126.845
184.703 156.966 49.094
107.156 78.8283 92.5585
144.155 187.463 124.76
132.352 165.229 198.116
113.211 208.454 188.169
99.1396 113.649 242.99
166.544 320.597 27.4457
122.937 121.343 192.416
136.094 184.377 152.043
106.583 40.4093 160.741
136.652 168.501 73.5744
174.41 113.618 180.688
145.44 113.968 201.3
138.745 110.008 232.675
133.13 85.6926 236.514
142.629 153.371 144.999
163.528 178.692 168.047
117.707 149.279 201.509
131.034 89.2345 162.056
124.558 192.441 96.4663
146.53 164.772 107.707
147.343 66.9875 190.214
155.155 165.044 97.2294
170.445 195.25 65.8485
122.567 76.5775 155.483
138.895 165.423 102.983
147.262 70.7962 196.463
151.558 103.029 191.573
101.723 42.5759 150.857
179.065 156.248 157.68
130.553 103.325 240.101
163.102 99.1191 119.47
134.123 135.154 121.904
182.584 149.949 117.721
182.606 109.102 125.189
167.305 188.34 88.5989
133.577 128.852 235.096
139.79 215.515 114.205
184.458 101.148 181.868
147.208 126.434 101.207
143.942 66.9583 198.802
160.86 170.96 199.538
183.703 113.633 160.618
173.247 291.442 99.1161
140.116 102.25 88.6774
135.917 157.146 79.7833
134.187 144.935 181.304
158.991 282.43 101.066
143.958 208.81 114.832
159.183 127.292 89.6265
185.208 99.5466 149.756
158.593 113.928 82.3571
131.338 189.954 193.406
180.947 307.743 47.8627
172.701 101.762 182.93
110.688 81.9153 80.0843
137.811 98.6029 112.088
145.936 114.019 123.119
181.784 132.239 204.707
160.392 161.176 153.138
113.511 91.4829 155.075
91.2579 147.669 200.047
145.136 62.3678 196.715
104.201 202.66 174.967
147.576 165.197 101.733
166.046 164.049 112.262
122.506 174.466 189.894
171.07 131.247 101.543
93.0415 133.692 213.886
92.5102 48.5035 172.776
157.439 165.447 57.4721
126.969 197.607 102.04
117.893 211.631 172.442
114.757 105.529 182.78
106.565 51.0806 131.783
99.2126 147.522 196.041
145.763 214.717 117.049
148.506 160.069 127.871
155.822 126.343 106.702
158.652 289.05 80.3186
183.864 137.967 105.387
141.286 90.589 90.3917
187.949 85.0667 138.031
129.369 207.282 111.13
108.128 200.726 186.145
136.001 221.706 134.077
163.02 148.367 62.7965
99.8257 184.056 197.994
186.353 199.834 134.946
178.049 294.972 75.85
159.193 124.038 123.578
175.968 161.02 171.608
142.442 96.1566 150.553
167.599 279.448 113.286
175.751 190.585 91.2099
126.136 78.4731 105.15
132.149 169.286 97.195
117.896 103.758 97.6752
108.824 68.1157 207.917
130.882 223.649 153.018
125.244 140.938 129.783
148.924 68.0332 151.035
136.265 43.1142 116.849
117.016 143.197 203.75
148.232 147.024 139.183
126.334 39.7549 131.935
109.6 201.295 156.517
121.767 67.0152 184.808
124.196 136.19 98.1949
134.02 55.3427 115.704
175.248 164.572 165.793
175.258 167.008 173.111
116.415 185.831 181.064
121.654 69.8839 213.95
122.792 131.182 176.17
187.223 130.704 57.7224
143.099 108.849 85.205
157.855 174.02 93.2133
104.35 49.4856 139.432
123.605 184.404 205.961
183.003 281.791 105.317
131.375 63.6105 176.132
136.598 114.204 112.177
168.794 123.712 99.1055
110.72 73.3638 218.762
130.218 113.251 142.336
144.764 110.195 68.1743
143.378 174.856 169.402
142.148 103.711 112.095
132.902 110.561 237.583
133.444 99.6213 240.173
117.172 111.463 140.003
129.754 102.458 65.5981
128.149 196.65 122.156
150.598 135.753 114.692
128.104 227.795 147.971
138.665 133.908 181.903
120.346 155.971 191.024
136.535 84.5955 142.796
125.01 174.644 103.162
176.612 110.029 163.904
135.784 144.921 168.519
133.386 144.722 115.617
115.842 169.705 175.263
133.194 142.449 164.288
119.505 146.627 116.486
164.853 187.079 110.658
117.865 55.7003 144.101
134.693 172.798 135.688
138.681 116.44 129.064
174.499 136.371 93.6815
97.4342 48.0995 151.637
139.499 220.312 149.237
120.138 120.125 73.1716
107.566 122.869 139.674
177.223 139.039 213.387
140.581 76.2098 209.526
125.37 133.645 130.123
111.671 98.9028 149.973
126.859 126.024 128.856
119.776 47.9444 167.323
112.777 134.014 235.399
124.205 49.9597 170.502
135.093 131.421 102.395
127.689 169.972 142.678
129.751 221.63 177.603
153.686 161.566 216.454
108.234 96.1938 68.9407
137.883 95.5487 117.73
131.892 172.611 91.5944
148.306 125.821 140.693
119.92 187.292 103.512
165.666 114.421 81.0863
176.663 113.806 174.464
128.791 137.789 106.875
113.717 77.5311 148.409
163.67 175.677 146.852
133.263 108.756 143.038
158.37 208.245 120.79
145.207 127.091 60.8618
169.397 163.386 82.1769
110.499 221.262 132.988
172.756 111.313 157.993
131.816 186.694 140.061
169.719 285.141 76.8617
122.129 173.719 200.925
140.91 115.562 202.674
137.868 134.108 157.925
99.0113 88.5131 230.549
117.188 210.272 137.445
117.337 149.271 151.412
123.079 160.025 228.729
104.486 192.856 192.879
107.409 207.024 166.979
111.983 206.605 179.248
171.479 101.665 125.327
97.964 144.557 232.523
116.688 152.401 220.85
133.582 188.585 109.345
113.739 112.464 147.901
160.666 87.868 211.455
145.988 165.887 141.229
97.9582 148.339 217.415
124.174 181.021 158.09
111.141 194.406 162.263
126.552 161.583 168.877
139.269 110.267 202.304
130.446 210.184 146.621
119.468 146.653 156.509
144.301 191.648 119.742
112.953 108.353 203.031
134.163 124.694 230.851
127.016 147.38 166.361
173.848 213.526 88.8819
146.238 182.905 76.942
137.825 183.281 107.314
166.132 103.293 102.997
172.803 172.714 160.422
134.281 194.606 187.701
129.319 100.907 162.658
150.186 177.944 99.7147
98.0291 84.0508 103.643
130.561 113.717 231.912
139.883 139.211 161.796
139.222 98.7424 139.429
116.071 101.666 137.624
166.877 155.468 207.079
140.596 87.9427 95.76
112.689 128.973 67.2429
141.611 127.291 99.5674
137.862 124.458 178.157
109.333 83.2135 128.65
118.272 150.746 173.08
179.815 100.066 193.01
133.267 47.1777 113.919
124.749 143.528 162.143
139.56 77.9999 194.98
150.928 86.2265 230.457
134.782 127.188 180.808
123.968 76.3314 133.219
124.88 105.967 163.583
185.323 145.409 169.357
112.482 145.221 197.736
121.559 112.673 180.691
142.234 184.812 162.454
101.46 42.219 158.453
122.477 189.108 157.717
186.027 120.937 216.605
137.238 69.8396 208.992
115.358 179.601 184.781
120.082 197.792 85.1276
88.2352 108.427 231.039
117.916 142.014 172.092
114.118 136.492 243.789
141.749 177.773 153.289
129.888 181.484 112.34
149.661 126.269 182.614
109.626 122.619 100.116
129.74 76.4629 178.854
118.762 119.959 147.153
119.124 105.137 110.322
135.336 123.497 113.338
149.677 92.7946 206.963
112.253 148.035 112.832
123.255 50.5455 141.655
179.75 116.865 157.315
132.191 102.404 152.612
164.8 247.7 102.263
178.412 110.142 181.632
116.472 195.167 162.098
108.72 61.5777 191.535
165.585 151.638 149.462
129.493 105.449 107.225
177.655 280.85 104.392
117.728 210.889 164.498
105.963 75.0474 215.769
104.241 86.2612 148.344
150.759 229.189 147.418
105.229 147.575 197.572
131.813 61.7949 124.014
171.97 171.147 88.834
113.846 61.8883 196.397
140.463 106.983 196.888
118.16 63.6617 164.047
119.164 149.194 122.469
113.371 221.53 138.877
126.423 210.787 160.655
146.343 146.366 144.137
102.609 42.6658 144.753
172.069 156.623 152.291
132.074 137.665 161.822
116.129 195.36 134.575
183.68 196.946 94.7985
136.841 120.537 174.14
106.753 175.611 188.199
154.27 146.941 139.121
145.202 110.472 213.517
119.961 133.257 189.997
168.144 146.423 58.9362
98.4577 175.192 92.7162
108.794 98.5015 138.451
160.036 97.4681 96.25
168.472 52.7268 132.519
163.619 82.597 214.207
175.381 94.0155 124.028
144.599 200.275 115.154
179.721 293.314 103.329
94.5419 147.179 225.902
104.24 135.978 207.855
115.374 135.227 146.875
130.458 196.284 171.635
151.297 181.68 128.884
109.752 49.7258 141.071
98.9249 145.115 210.463
119.052 171.32 146.719
184.696 283.425 96.4419
180.417 105.226 155.491
113.345 183.759 80.64
121.847 150.222 133.608
133.505 168 103.475
130.154 231.045 135.077
127.691 189.247 189.768
124.227 221.761 173.042
161.23 189.434 71.8959
110.934 114.893 173.548
122.526 223.092 134.869
127.682 155.256 164.428
123.387 105.13 133.182
108.12 92.4101 89.4823
124.197 139.372 168.883
86.9825 80.9319 97.9826
103.989 219.619 135.783
