ply
format ascii 1.0
comment Created by Open3D
element vertex 438
property double x
property double y
property double z
end_header
70.77 101.885 74.0981
71.1378 125.443 74.6929
45.4413 165.155 90.9184
59.5565 137.936 129.426
39.4205 134.496 79.84
57.2718 141.031 112.206
48.3078 128.814 166.457
55.2527 99.2043 144.583
55.6055 146.432 128.871
70.9816 86.4411 170.764
40.6176 72.3634 105.976
59.6134 90.1297 57.6983
47.3088 85.1613 107.034
65.8749 95.7136 65.6662
31.5954 75.9472 85.1329
44.7961 113.487 183.639
71.6379 98.4755 84.8858
69.3451 96.7872 178.813
72.0559 142.028 101.095
70.5433 129.165 115.34
73.0544 94.2438 94.0702
72.6653 93.3744 118.818
71.3328 76.979 100.32
52.7076 181.398 117.405
55.5959 155.668 146.073
50.2998 161.16 112.184
73.2869 81.0536 123.167
67.5322 171.143 80.9481
55.5919 124.896 150.449
58.2925 186.409 128.168
73.3601 156.064 119.697
72.4451 161.909 87.1362
58.6208 102.509 130.02
45.8426 133.987 87.9446
55.3452 165.854 154.445
54.1997 152.346 117.617
71.4062 133.423 137.33
62.7268 57.1214 102.326
72.2176 89.9133 79.794
72.5007 135.016 172.661
54.252 106.01 149.323
36.3256 58.3096 98.8133
70.7858 118.891 135.898
71.5291 79.4389 90.9304
69.1742 59.7115 153.685
63.681 97.6523 190.345
30.2209 78.5206 68.6051
35.9645 53.7157 119.228
70.2986 119.298 69.0905
72.6562 116.004 149.152
45.4571 120.171 178.37
61.3371 99.1777 55.7316
49.0813 45.2993 111.098
73.1994 93.4196 145.956
60.1122 109.715 115.978
71.2339 168.953 159.077
68.9564 60.163 109.74
39.9129 52.2271 106.795
72.2667 168.935 94.5368
40.8544 78.3103 101.253
72.9513 135.309 149.954
47.8286 124.358 88.7113
48.1214 117.111 90.2349
61.8142 107.202 53.1732
70.3254 108.475 68.4079
54.4641 155.248 156.901
44.8855 106.599 187.32
55.3646 138.265 103.081
56.0789 111.911 103.947
57.6207 50.8025 108.532
73.3018 69.514 122.127
71.7553 111.399 109.166
51.2217 159.013 63.5815
73.7911 84.6069 146.648
49.8344 148.132 95.8575
51.4762 128.721 157.775
70.9943 142.722 128.617
42.3116 141.548 83.8112
57.9649 161.765 63.0503
72.4295 118.217 95.1321
71.4283 177.081 106.491
35.6184 71.8684 136.86
72.383 117.853 104.693
70.3129 108.1 172.689
45.2415 95.2965 159.641
65.4318 185.204 95.2515
71.8898 68.113 162.936
72.1616 150.206 127.697
71.1291 107.977 93.5348
52.9071 119.719 155.761
53.7988 160.156 166.88
71.4834 69.3566 110.451
59.3459 69.2738 179.332
60.7217 110.487 134.296
60.6558 53.8627 143.912
72.6494 112.455 126.534
50.1223 81.4426 58.1543
47.6658 121.204 167.096
72.5498 64.1726 126.947
47.7101 138.239 171.954
56.6345 146.715 147.663
56.8219 187.809 92.1277
71.115 155.546 109.87
72.7122 73.7621 158.153
71.5354 144.952 142.295
69.8741 175.91 152.557
71.7621 108.226 142.183
33.0819 91.1497 85.8217
32.1927 93.9267 64.6295
57.5371 131.375 140.568
50.5937 172.835 113.142
71.7326 121.184 118.907
73.2886 76.184 168.34
41.0924 100.178 174.703
54.8612 69.5374 67.4795
71.8964 69.6973 172.051
50.6891 89.8965 138.69
65.4999 77.9 180.998
71.5504 124.146 176.192
51.9952 149.219 180.204
56.3098 154.403 181.209
50.9777 90.3921 54.5573
57.2932 139.234 138.827
71.0066 160.092 169.551
71.7357 160.276 161.006
73.8229 166.817 108.109
43.1552 159.064 73.5295
56.6536 176.867 152.279
47.6488 176.771 95.1551
43.3541 81.7 58.7361
71.408 101.877 151.253
72.3714 127.896 85.4719
72.6819 87.1309 101.818
37.2209 61.4129 156.782
35.0419 108.641 77.3989
51.4116 183.431 101.849
35.2489 64.3162 143.991
38.539 125.486 54.8113
66.5905 102.591 61.6941
71.0822 111.525 179.761
71.6991 146.154 182.634
71.6112 132.421 128.242
52.6616 157.115 102.169
70.8479 136.314 113.089
71.5545 116.398 158.014
66.5212 60.0264 160.503
66.3652 87.1477 183.084
74.0664 77.5217 150.372
71.0254 185.258 145.865
43.3143 101.587 163.227
57.9653 112.853 48.5175
72.9349 184.807 116.337
71.3614 125.211 128.388
73.6944 149.491 173.057
51.6913 50.7126 100.127
43.2414 75.0584 180.575
71.8351 128.49 98.4041
45.6412 151.28 82.7413
65.7246 119.061 54.4491
51.1125 48.8101 130.134
51.9803 168.629 146.118
39.8055 55.7573 143.624
62.0821 83.6754 68.2619
71.1025 116.705 166.944
67.8372 104.875 185.958
63.5771 68.1422 74.7069
73.953 71.906 142.345
74.2094 168.01 136.481
71.5938 119.129 84.0733
56.9663 113.637 146.308
73.2182 99.4893 97.8553
71.7755 107.195 160.871
72.1343 160.052 94.768
60.6686 54.4867 92.1723
72.7276 124.251 144.446
66.9364 65.3853 84.4589
60.2045 125.617 136.948
39.262 92.3663 91.084
52.4408 169.367 121.604
71.5562 163.973 151.156
73.6348 164.382 115.071
75.0649 186.418 136.566
48.6036 53.6568 154.918
53.5136 115.725 97.4755
72.8844 67.7431 149.597
66.7553 113.486 60.1685
70.6047 133.907 72.3028
60.9978 55.0065 153.984
73.1991 143.138 93.0339
72.5324 77.5554 109.889
55.5758 76.7199 63.6988
74.7343 176.583 118.364
70.0462 151.317 103.807
71.8819 136.339 88.5755
72.19 79.9722 137.494
40.2356 87.2939 178.867
52.5005 143.381 161.58
32.6528 62.8135 88.4293
72.7301 127.253 162.104
37.665 141.122 71.7967
69.0874 57.4653 133.308
52.4359 88.8419 111.928
43.1221 85.2819 185.124
37.1228 71.9582 124.482
38.245 74.6714 170.535
29.0295 88.1773 71.4506
55.5095 146.893 135.974
60.6403 51.5899 131.806
54.1063 120.363 192.538
46.5494 131.434 178.645
66.414 164.067 73.9078
71.7277 111.744 78.543
68.4309 64.8171 101.347
48.3791 89.4172 189.682
61.571 131.06 123.059
63.4447 141.198 59.8207
41.9702 149.092 77.0076
42.7511 98.5269 184.412
46.0634 50.4678 142.227
39.4784 107.633 84.746
73.8262 169.974 143.033
52.7398 155.83 134.144
66.627 61.322 95.4017
53.5456 173.767 131.843
36.9703 128.628 66.613
72.6808 88.3729 109.881
56.9519 182.542 139.378
71.5041 147.837 118.756
67.9564 188.183 106.197
38.9608 148.046 70.4925
72.1383 138.677 78.8181
60.0763 168.481 67.4813
50.1738 108.907 97.0371
50.4358 91.804 105.873
63.6209 154.676 63.5692
39.4835 66.6219 164.32
71.576 62.4747 144.732
49.5714 53.0469 86.162
54.8712 56.0649 158.276
71.7319 109.555 119.295
48.3159 157.772 94.5574
53.9402 50.8238 140.083
70.2141 118.255 185.842
47.0052 153.467 61.088
36.1638 56.1881 88.3844
72.0325 129.039 184.234
72.4968 150.421 156.321
41.9126 113.588 58.2385
55.5683 95.7337 120.5
49.1946 166.389 66.458
71.6782 81.9577 130.844
63.9495 115.238 193.035
39.8767 79.7212 126.077
54.6664 187.038 108.655
72.2879 136.647 162.887
59.1185 105.938 110.352
69.6624 69.18 93.3277
66.4096 58.4571 145.655
35.8228 69.9967 98.5247
42.5348 102.711 92.2977
47.4948 76.8552 112.797
30.9051 101.284 69.5118
39.9583 62.4091 75.9537
67.8452 57.5857 116.975
43.6481 167.363 77.2252
67.2211 56.4324 124.41
50.7001 108.45 50.9108
61.0223 174.795 73.846
59.6134 63.8595 172.677
37.805 61.6498 109.136
74.2795 159.719 129.735
72.3208 138.185 121.665
72.2341 153.997 150.761
67.0096 87.8669 72.3475
41.6396 121.935 75.4517
58.5329 144.63 189.628
63.8578 192.318 114.751
47.734 120.631 188.676
72.4252 152.417 96.686
49.319 113.473 163.915
72.4061 93.5104 161.249
35.6185 71.0974 160.317
67.6213 124.457 61.2691
73.0826 142.598 168.205
55.2952 146.242 55.1304
41.3382 114.02 79.7843
48.2294 179.042 87.5589
52.9248 161.505 141.035
42.0476 136.686 50.7503
71.3113 98.4632 171.119
50.294 47.3266 123.24
48.6397 169 104.047
44.6566 107.963 172.366
50.9386 147.808 173.508
73.5429 81.0083 161.727
72.9557 155.639 134.41
59.5692 58.0383 78.5306
75.0001 176.1 127.343
38.8621 121.957 66.1796
47.4393 102.258 51.8345
73.2951 148.239 84.7416
53.4359 97.0066 137.831
41.5191 107.903 54.4465
46.8238 174.172 80.0614
54.0982 100.169 52.5546
54.1191 156.872 124.614
56.9297 97.3492 113.517
52.8609 164.833 128.872
60.4856 106.286 193.752
71.756 110.325 197.299
56.0247 138.555 148.333
35.2725 136.173 58.906
66.4203 126.751 192.33
65.5366 63.47 167.167
42.0275 54.4978 85.13
72.1405 72.3709 135.513
60.3903 118.413 134.81
32.5926 93.887 77.3187
43.1103 84.4195 97.7944
49.3612 70.8588 181.484
42.2984 147.522 59.9753
71.4805 93.5513 134.678
54.4218 100.972 108.095
73.4168 86.3843 154.501
35.1108 67.6504 152.063
50.4522 110.874 155.826
44.2153 85.7769 152.766
31.9366 82.9112 83.6491
67.2109 134.47 64.8708
71.4809 146.196 161.306
69.5425 137.861 189.254
33.1807 84.5943 63.1403
46.4642 111.082 88.043
71.825 77.8873 174.515
64.0511 53.4981 114.879
51.1449 139.69 187.645
58.0716 140.99 120.528
49.0847 139.527 91.0722
51.0416 90.8199 129.635
33.6285 100.958 60.7868
43.1839 125.795 80.7198
52.3004 132.085 46.3121
50.6108 95.7923 152.59
72.3276 134.723 101.254
64.6749 54.7723 137.85
57.0564 127.354 193.384
51.659 64.3411 174.587
70.1535 149.586 135.634
69.8522 145.227 72.4832
71.2835 157.377 80.2528
35.7992 135.834 68.849
38.0957 61.0647 116.846
60.8357 110.375 124.148
50.1403 102.868 101.015
71.3388 142.555 109.697
72.1138 152.874 76.5881
38.1402 82.0589 172.539
72.8375 132.969 156.576
66.5448 159.404 70.6904
40.9114 55.7499 152.529
54.4838 150.572 109.223
67.4728 78.7357 77.504
40.8086 45.7845 114.29
41.2923 77.505 136.031
72.8789 142.126 147.623
70.9725 158.079 141.824
38.2687 81.3598 159.667
55.9448 180.047 78.9767
46.7017 106.386 159.579
46.8064 68.3257 67.3107
43.2525 97.9578 53.6055
45.467 84.863 121.743
60.2145 50.2246 126.025
39.175 114.286 72.7389
31.3605 108.624 67.9906
41.9036 53.5248 127.929
32.3848 68.82 77.4295
59.292 151.625 59.533
40.2916 68.8157 118.288
56.4053 92.4855 192.637
72.8059 84.2079 84.0352
60.5385 165.814 170.908
52.1431 171.653 68.6603
66.5238 71.5084 87.5349
44.7106 116.473 48.6995
39.9509 92.9394 170.85
23.9692 63.484 95.1449
39.3051 56.8829 134.303
49.0532 140.932 51.9505
67.3977 180.118 84.2589
54.1523 75.8232 185.532
56.2857 121.528 46.8321
45.1718 82.6275 136.013
60.7185 184.173 146.724
49.215 132.221 184.34
71.0836 192.501 125.375
49.425 56.2537 76.8658
61.5649 135.54 55.7859
43.1078 51.6214 96.4659
35.714 91.0239 58.819
53.8969 174.176 137.788
66.9999 169.845 167.059
48.9952 100.988 192.463
54.1618 133.818 152.84
53.1656 112.535 194.644
43.6605 82.351 147.962
72.0885 70.8268 130.214
62.0408 160.325 178.666
62.2607 190.021 139.308
44.9391 95.7798 96.3952
54.4429 57.9606 166.984
60.9544 185.111 85.1356
33.4306 100.298 79.234
60.7068 130.286 51.2272
41.7065 66.424 171.045
54.3625 127.456 96.4798
38.832 72.2978 66.8589
43.5205 46.6726 122.202
65.4419 174.591 160.242
36.0541 65.6759 132.552
40.737 92.0607 55.5899
59.8335 83.8024 188.267
70.1241 62.5892 138.958
66.0637 151.202 185.994
38.8746 83.6465 166.085
48.3277 86.5377 126.08
67.3675 69.6342 176.6
51.8491 86.0684 117.246
42.3544 77.913 120.278
68.07 193.302 133.765
38.4013 112.114 64.7998
37.8827 63.3931 124.75
62.785 134.509 194.55
33.6252 72.5091 90.0635
35.2923 106.732 62.3287
74.2468 38.1934 129.636
68.2963 148.727 66.8856
62.5573 111.591 99.2684
