ply
format ascii 1.0
comment Created by Open3D
element vertex 260
property double x
property double y
property double z
end_header
77.2959 73.6357 115.347
66.9653 28.7332 68.6394
85.0857 100.626 68.8325
45.1705 63.0721 109.255
45.0504 37.6801 35.9776
74.407 73.5572 123.185
66.6175 48.4597 125.668
63.7199 92.228 103.92
23.2821 49.485 64.2971
76.6601 76.8999 40.4508
85.8941 66.9259 102.404
80.5946 38.0547 62.4619
83.6941 44.8065 123.686
88.3809 40.6305 113.267
35.6077 65.6765 110.628
64.365 98.9936 63.5817
69.5913 57.4299 34.0695
60.9133 29.5425 105.687
58.8578 43.1664 33.7682
87.6675 82.3826 55.0263
72.6227 30.7673 93.2635
88.1913 95.2646 78.5023
89.1304 68.4935 67.0428
69.5524 97.4375 94.2676
49.9996 92.8649 109.186
44.9853 26.4329 89.1843
75.0381 68.1945 36.7368
42.7535 96.3157 88.1078
54.8346 75.0135 116.022
65.4557 69.9936 30.6536
26.9682 60.8769 95.0264
28.1943 72.8062 78.3137
83.449 88.4974 51.538
31.8133 74.8786 106.925
83.2665 60.7386 127.265
37.4215 77.0234 38.2397
22.9627 58.9404 51.9636
80.8614 44.7988 95.6806
82.4906 78.2983 46.5027
54.7252 73.4356 28.5798
64.8538 30.5904 59.4476
29.2274 37.0344 45.154
78.1819 92.7152 94.7675
37.0771 81.8251 54.2895
88.2677 73.1717 95.5813
23.4837 57.3772 86.1961
83.3108 70.4602 122.831
46.2375 77.7638 35.2007
48.5179 34.521 104.498
71.3217 39.4794 119.452
50.9416 42.6784 35.6706
25.747 44.1182 73.5711
49.1434 25.923 80.937
31.2447 45.0682 36.2144
76.501 34.6044 85.3698
79.6278 78.5594 108.603
87.8962 40.6913 100.416
56.0293 95.0057 102.707
88.017 70.3338 110.32
28.5631 44.9468 88.6575
19.7158 57.8237 73.6115
58.742 99.9799 72.4046
30.0393 60.3451 35.2915
69.1366 33.1684 113.528
58.3522 31.8729 59.433
75.9745 57.2448 39.4209
80.7697 65.0106 42.8017
31.3927 73.0425 55.4616
47.8104 44.1074 120.842
63.2115 86.0098 38.4237
87.9094 48.3848 89.0383
35.2589 37.0193 92.3594
88.3219 80.2397 92.8615
38.3693 87.6015 41.7008
24.6464 42.7304 59.3807
77.6693 52.2808 45.7919
37.6776 45.914 104.709
44.4414 24.6876 71.6871
69.5134 32.7693 79.4893
76.0026 54.6014 119.285
86.057 65.3529 118.619
41.0456 52.7336 108.352
48.4311 54.7291 121.473
54.6526 84.7792 37.2072
85.6064 95.0059 95.1702
57.2753 89.4019 44.5214
78.2867 99.6131 84.983
74.1267 91.4561 101.915
54.9513 42.3463 123.465
88.7784 59.2435 71.4624
88.3719 79.5413 65.5603
26.6817 64.6949 46.6772
23.3333 42.8357 51.1327
41.6271 37.4652 102.598
68.4728 37.6627 108.637
63.6493 100.926 83.0889
88.0456 89.9807 72.3111
28.6675 76.9789 40.9768
27.0081 49.123 82.0646
72.7152 91.4404 48.1892
36.1796 28.7905 56.2218
73.3089 98.876 66.3995
29.0421 40.0536 27.3959
28.7278 33.578 62.116
26.8289 83.4898 60.9453
73.6756 85.112 42.3615
77.0243 60.8915 116.015
88.2252 48.6961 71.3565
88.2623 58.0962 104.42
57.3325 97.0629 59.1479
82.0335 58.9312 49.0188
79.7957 96.2618 58.15
86.4665 89.1314 62.8153
69.2012 63.4796 122.171
31.3532 32.5626 75.0615
49.7623 62.8605 26.3495
45.864 86.5748 40.285
69.3837 55.054 116.613
65.5766 92.3728 46.0791
67.7104 40.7926 45.5188
30.1956 83.208 53.8003
52.2022 100.214 66.4789
82.1611 31.5539 95.6216
74.2984 37.4098 110.026
66.9208 96.5509 55.4014
21.4727 61.9505 61.6609
49.6523 26.4736 65.2912
54.0083 96.5254 94.4955
53.003 53.8483 126.643
32.7192 83.1083 72.9201
66.9909 77.4447 33.8099
46.2311 59.2421 116.65
22.4239 52.808 55.354
67.5026 48.5833 34.1502
61.4317 38.9506 41.9021
21.8567 66.6365 57.7797
59.3832 62.3063 121.11
32.942 87.1459 64.0661
24.0786 45.4511 35.8104
88.589 55.4807 121.591
65.9752 36.1074 54.7371
27.9176 61.3445 87.5187
29.1565 84.4741 83.3729
56.4715 26.8979 89.1014
75.8466 29.7813 107.996
87.4673 99.1322 85.5749
52.0458 29.8099 51.9662
22.4823 53.4735 45.3433
25.9001 71.2084 68.7178
52.0587 28.0664 96.9602
55.8373 102.138 81.3619
32.6444 90.5115 57.0522
57.3638 25.9776 82.5931
87.635 59.1922 60.0975
87.1809 42.8828 66.5408
43.7603 99.4494 79.3284
45.4609 49.4141 111.592
29.7702 68.1329 95.8518
29.2639 34.8078 52.849
46.4586 94.0377 100.225
49.8933 100.357 77.0549
81.2415 82.138 102.878
51.5472 97.0993 55.4383
21.541 68.7655 69.0107
23.7449 73.036 47.5664
78.0628 100.153 74.319
31.0995 52.9404 31.3918
57.1838 32.0746 111.39
27.6589 37.5289 69.3165
46.6169 51.5041 27.435
68.7481 45.8485 41.2132
38.2024 70.4907 116.111
36.723 91.8549 80.9681
52.2553 39.093 112.368
76.4564 85.7258 110.975
27.843 69.8538 39.2347
52.3908 64.9498 113.538
87.2262 47.6737 82.5796
55.4617 87.5672 115.435
80.0964 66.0748 109.097
83.5746 49.853 51.5895
48.412 74.4379 110.813
35.582 36.8152 36.0936
82.9643 94.1029 86.7898
66.1415 63.7413 27.5604
37.1297 29.7307 73.1055
41.7177 58.807 27.4848
78.2901 36.0759 76.5831
39.3304 44.3991 31.1284
55.1158 35.1544 47.6028
71.1149 99.8431 78.9561
41.9678 29.5954 63.5743
26.0475 58.5612 40.6679
54.5245 55.8396 27.5185
87.174 50.3503 77.5004
74.0868 39.2402 55.5459
44.9192 66.78 29.2758
48.7441 93.1491 94.0536
53.7348 100.282 88.6745
39.9975 87.6128 89.5934
45.4289 92.0282 53.3648
20.7166 58.0224 65.7686
84.0175 54.3892 125.348
27.129 79.2177 46.4144
66.101 91.0022 112.645
37.7793 74.0046 95.8005
28.8691 69.4419 85.5415
25.7219 77.4869 71.791
41.789 93.5989 107.398
87.661 54.4319 55.2984
44.4478 31.0164 95.2386
30.4886 79.6845 79.2762
26.2679 64.4846 80.9928
42.9854 30.9245 51.8358
30.894 67.1645 102.112
67.7651 64.1188 114.416
37.4862 61.7653 102.512
50.1473 84.6289 99.544
48.081 80.4033 105.005
33.2184 57.5129 98.2564
37.5904 95.6749 74.9196
28.45 84.9507 75.0197
80.6029 34.0746 104.814
57.9057 35.1003 118.484
38.4698 63.6178 32.3153
80.2203 50.2612 131.154
45.618 31.8394 44.198
62.3163 96.8166 92.7782
84.9615 43.4416 59.5071
39.816 91.3385 94.8179
66.2797 28.0127 87.4492
39.5159 93.6763 57.184
34.0016 86.2023 87.8637
50.228 91.494 49.0478
54.205 88.2899 100.597
85.0866 69.6552 55.9446
31.1283 46.2396 94.8539
26.4675 76.4935 65.1558
49.5071 28.0646 58.82
34.786 89.2953 74.021
34.8916 68.8646 37.7907
78.3722 36.6502 120.87
51.6913 75.1833 33.1943
83.5969 50.3454 59.1186
52.3851 55.0455 115.712
46.9906 97.543 60.1335
72.0399 42.5286 50.6149
70.3031 70.7158 112.302
43.926 95.1242 67.2757
60.5317 68.0201 114.412
30.2792 83.1828 98.468
57.4251 25.4911 77.1634
48.0263 37.4277 115.435
32.1666 51.6638 100.779
39.7188 88.33 50.7013
59.2683 75.9064 122.175
29.2603 77.8553 93.6616
28.5012 86.8363 67.4976
37.5662 94.1013 69.7695
66.4223 41.1277 52.1563
