ply
format ascii 1.0
comment Created by Open3D
element vertex 1127
property double x
property double y
property double z
end_header
99.8286 201.783 245.513
89.1734 204.368 195.435
112.737 202.152 239.79
84.1174 76.0478 172.041
97.0551 63.4866 212.703
97.3865 239.616 166.385
83.9976 99.5214 187.487
115.236 237.469 102.925
107.77 235.628 96.7503
115.696 245.397 235.627
98.6391 263.812 212.555
96.1688 69.4627 223.906
100.961 51.8972 229.675
91.7054 57.9099 219.759
118.386 260.339 207.417
115.636 209.985 242.935
91.1646 218.058 176.026
103.822 120.002 215.481
95.4965 253.78 229.076
93.4052 207.598 181
108.784 176.215 90.1421
105.385 106.073 182.009
112.184 267.534 218.414
100.963 183.65 111.585
119.19 82.1422 216.795
88.7088 190.314 204.132
117.999 253.131 210.855
120.582 225.428 227.269
103.349 199.99 206.034
100.523 60.9953 244.284
98.5271 260.727 236.917
111.068 282.682 206.151
97.2101 226.139 250.468
104.28 267.687 230.239
86.9432 165.42 89.6661
102.02 78.6197 219.817
102.481 70.8555 209.269
92.0987 108.478 204.066
100.001 267.887 222.627
101.124 237.009 248.662
111.503 262.577 112.032
108.9 190.536 102.819
97.3942 254.094 239.01
83.4249 202.572 226.523
107.283 251.293 177.989
92.6135 60.5042 188.656
101.216 100.365 217.24
108.038 289.545 185.904
84.5177 214.669 228.177
104.565 112.674 229.057
117.914 233.018 241.705
100.443 241.639 222.944
104.106 199.665 185.523
87.6506 341.536 136.606
95.9149 260.324 181.888
90.3251 58.8595 242.696
111.322 226.271 126.849
114.625 75.7812 225.292
84.6674 214.668 234.514
100.964 231.961 167.394
100.688 54.5704 205.96
89.4066 276.979 135.869
96.7247 215.014 204.226
118.786 216.832 222.377
94.9609 175.88 78.8089
113.987 254.389 234.964
99.8436 74.7091 194.591
72.1034 278.1 131.673
111.706 94.8393 182.165
106.652 267.519 135.612
105.521 255.539 136.523
83.6326 198.002 217.81
115.185 257.248 224.235
94.5702 73.7183 168.284
100.437 55.2546 218.569
80.4058 169.843 90.1032
96.816 45.458 212.263
114.861 300.307 120.817
106.796 217.891 115.077
89.6164 269.386 140.106
113.599 312.342 100.937
106.704 69.2065 240.253
94.6251 345.51 120.043
88.2001 170.005 82.6881
93.348 165.958 85.7031
93.4106 98.5344 236.502
106.711 169.023 91.8246
102.654 188.73 88.7411
77.9706 179.187 90.5626
93.9615 164.577 92.7612
86.5011 231.671 101.621
80.9989 227.078 127.312
120.971 248.861 205.648
106.824 240.37 101.341
103.889 64.0716 231.002
112.469 301.536 104.404
117.783 84.078 226.718
97.4948 262.351 203.222
101.622 217.303 214.579
92.5984 200.693 186.571
103.685 78.7934 208.069
93.9714 275.002 189.236
95.7736 170.871 81.305
100.488 262.051 127.653
104.153 84.4171 248.96
86.7041 45.9664 229.955
86.625 52.1088 235.459
97.2295 245.17 200.626
105.5 100.495 244.777
83.7586 83.7576 180.426
107.759 318.433 120.283
105.985 113.769 221.009
107.656 194.21 198.31
77.3098 218.074 209.564
88.7263 222.064 185.462
92.0586 245.131 242.606
77.7035 283.129 132.62
93.971 224.53 168.461
98.5997 258.353 217.491
107.52 237.905 205.184
110.728 248.3 241.447
99.6796 340.316 112.262
101.718 217.048 183.764
102.75 280.425 199.761
113.99 221.68 111.004
118.629 227.188 210.472
112.648 267.804 130.101
99.0816 168.068 85.9067
109.257 248.095 199.413
94.4105 216.229 247.714
86.8183 78.6999 242.607
104.466 170.93 86.1129
65.1844 316.373 151.966
98.2409 117.095 195.877
119.233 215.264 238.062
83.3875 59.0765 232.299
85.6728 293.643 194.72
101.771 112.342 186.587
86.5736 216.7 107.084
90.1725 66.5449 228.003
104.616 112.778 207.372
88.3135 244.175 172.499
87.4907 297.75 94.9996
112.511 239.501 245.695
95.0741 245.431 106.714
99.9619 91.6197 203.007
67.7957 310.097 153.853
103.771 177.726 108.754
84.052 176.257 86.0599
111.561 203.22 231.195
100.174 83.4167 198.799
93.3478 244.951 232.085
59.163 308.158 146.505
107.018 104.617 234.987
101.862 248.21 215.061
106.784 177.061 83.5955
105.271 221.679 124.953
120.422 227.769 218.77
90.794 177.413 118.422
90.2818 201.312 232.365
104.513 183.578 85.7313
99.8705 221.393 168.365
99.7931 190.923 108.432
104.078 332.586 133.541
117.394 231.176 124.553
104.079 194.534 106.91
104.217 239.647 198.974
104.752 323.018 115.573
111.428 317.155 103.986
111.052 70.8649 222.304
104.968 259.704 240.109
100.987 205.435 176.892
96.9819 286.978 97.7857
82.4392 267.152 101.269
100.614 269.614 142.512
84.4478 196.235 94.6314
88.8075 177.348 81.6793
105.497 230.638 172.614
109.25 244.37 124.161
88.6862 213.71 193.236
94.6561 186.804 230.954
109.889 257.322 184.061
117.316 237.687 232.572
95.8403 242.783 249.369
84.5615 176.01 107.865
100.338 93.8687 224.714
111.125 264.007 230.642
68.6355 337.32 111.424
88.5996 297.329 110.15
87.079 259.983 133.604
91.0589 228.214 93.8453
83.0604 268.476 139.577
108.367 188.63 207.45
108.36 302.308 141.673
121.111 99.0132 204.67
89.5519 192.461 226.744
96.3829 191.892 238.499
121.822 90.4538 214.531
110.306 278.351 136.815
108.657 192.022 227.721
106.802 315.846 108.858
85.9237 229.757 243.078
114.484 221.941 244.757
92.2151 101.589 245.534
98.7513 253.659 202.966
108.726 191.74 237.498
107.568 186.982 224.029
120.264 94.8884 223.317
85.5968 252.912 181.003
87.8291 108.14 194.092
117.888 279.162 126.597
94.9873 234.263 96.0396
108.803 225.376 119.352
108.781 78.6245 244.587
98.634 248.292 245.301
85.2388 44.7238 214.897
112.115 236.725 125.162
99.4539 54.6935 196.199
76.4093 269.761 99.4141
120.196 217.929 231.385
93.7514 294.582 176.188
84.5294 91.9355 188.802
95.8064 247.607 140.814
119.508 92.0073 200.493
106.829 238.994 248.574
112.793 213.703 249.363
112.084 102.853 182.58
95.9058 107.573 222.557
75.6628 245.111 118.481
119.908 98.4456 215.533
107.229 80.0747 182.525
80.7606 311.925 96.6405
99.7093 85.0269 230.186
116.946 271.684 122.55
71.3094 319.31 153.222
85.7162 234.277 175.921
102.484 237.883 216.139
81.0333 303.001 93.821
94.3804 215.193 110.64
93.508 120.305 216.752
104.265 295.196 206.61
117.85 224.835 239.272
113.108 262.694 121.294
101.896 96.5439 171.764
92.4039 332.015 96.3661
115.232 321.234 115.934
111.428 260.224 129.285
72.0716 324.884 149.89
105.859 289.758 142.041
90.4699 344.964 126.69
76.6342 275.436 114.509
106.226 250.109 246.755
99.6897 166.305 102.366
83.8622 217 219.119
80.43 287.524 127.881
98.9767 292.703 179.01
107.031 248.089 186.256
93.8313 266.923 102.587
103.549 236.46 181.098
115.875 233.518 109.227
90.7365 166.645 100.988
95.9998 265.896 142.005
90.0788 76.0662 249.394
88.8481 87.0317 187.923
91.7433 84.5319 248.777
100.952 228.278 183.888
105.364 183.976 106.384
99.7117 262.486 101.668
101.021 64.7485 174.878
107.59 187.787 92.0414
106.235 243.654 172.713
111.885 86.2321 185.889
83.9401 99.8904 177.797
101.996 295.05 134.975
118.437 285.912 115.684
80.2859 336.939 138.081
96.8721 105.243 209.091
112.637 98.5737 226.968
100.288 183.412 223.29
88.7861 226.874 178.375
96.941 327.507 144.136
102.532 228.9 129.843
112.447 224.553 115.136
109.879 254.46 192.309
95.0538 304.09 135.108
78.352 211.211 216.432
89.6485 78.445 184.396
96.4966 47.8821 195.823
110.231 86.7688 244.134
89.2309 267.04 98.0303
106.607 237.532 123.618
95.0595 299.114 148.05
87.7034 205.745 238.042
102.819 304.488 144.404
89.8811 240.926 234.169
101.744 272.07 135.173
98.8596 287.057 181.968
112.692 271.065 200.174
106.498 230.228 207.696
113.633 317.19 110.987
89.4422 174.418 112.528
82.9989 182.264 93.7754
79.1812 176.013 96.7099
93.0596 343.696 109.452
86.4504 190.818 97.2566
85.1527 340.381 100.306
90.6388 294.114 201.076
93.888 278.221 147.165
91.5031 115.394 204.047
101.775 178.385 81.2354
92.9479 303.83 93.3298
80.3231 208.162 222.286
110.437 197.867 227.434
96.4436 281.398 96.2756
90.7022 336.887 144.104
86.0911 236.113 94.6532
83.6488 240.938 129.09
112.521 305.698 125.13
99.2888 207.078 199.114
108.822 74.337 192.587
109.279 203.719 248.283
96.6122 336.871 100.128
98.1621 78.2495 250.539
104.801 307.58 93.8026
107.804 264.137 179.396
106.236 288.525 115.669
107.803 224.32 211.274
75.2658 181.113 101.817
86.2253 341.449 111.23
92.8889 184.781 215.658
106.171 76.5888 175.169
97.101 245.244 97.991
96.3462 186.277 115.891
106.741 84.078 175.236
86.4524 165.603 97.0948
86.7511 62.3062 175.432
108.862 212.693 220.684
97.2154 189.153 89.7794
88.717 51.983 211.433
106.177 285.804 98.3999
102.393 258.4 98.7431
61.7631 316.297 144.723
79.4045 225.796 205.236
95.5452 238.426 228.062
94.2395 221.813 125.635
109.329 234.869 132.576
96.5259 185.258 205.07
91.3601 246.385 92.7166
96.4508 236.603 203.703
85.0033 293.51 138.803
107.648 317.012 98.0732
88.9478 278.355 184.382
83.0828 247.851 127.286
100.859 302.751 191.071
92.7683 323.354 97.1329
95.0537 166.886 104.723
87.6769 346.648 115.507
88.0777 235.117 236.144
100.746 227.892 136.809
88.6858 299.963 190.275
109.542 255.2 242.487
107.382 230.501 249.367
101.304 110.598 240.016
108.672 257.172 100.388
96.0664 174.191 112.997
103.651 242.159 188.056
86.8776 253.176 132.23
101.251 73.1552 170.261
115.273 70.3032 213.209
108.781 127.911 157.814
82.7536 278.79 146.498
119.04 284.603 204.567
90.9335 95.331 170.556
97.6871 292.259 207.566
101.493 167.087 96.8708
105.505 63.9618 220.734
112.6 225.149 249.984
73.5427 311.659 154.598
106.258 224.128 252.722
112.743 230.746 115.093
73.316 340.993 114.211
100.257 235.328 96.3463
103.524 206.113 220.825
80.0154 326.087 149.966
81.3876 276.165 138.494
86.841 309.338 153.713
107.304 168.268 97.7362
89.9317 245.085 189.739
109.769 179.476 97.4461
103.983 193.246 192.1
95.6182 181.924 81.0847
104.17 210.885 251.267
102.753 265.374 119.876
96.1752 117.887 232.357
77.6528 280.003 98.3318
94.4705 321.356 90.839
100.59 166.52 91.1586
93.1405 305.517 143.149
105.08 227.537 124.592
93.2702 41.149 227.345
93.6195 234.822 130.269
80.761 305.919 153.379
117.132 267.804 204.983
94.8594 113.181 182.973
113.32 249.818 120.405
102.054 301.986 184.235
108.587 107.922 203.685
115.583 294.516 120.352
99.4108 266.599 97.4197
89.859 90.4454 243.092
93.1259 226.986 227.447
81.4663 341.457 114.829
108.263 182.769 92.4088
107.925 327.134 125.41
72.0832 244.579 110.095
94.9964 343.049 128.505
86.5838 328.688 139.338
97.3296 338.254 107.054
99.6742 56.5241 187.813
74.6977 272.027 108.588
83.7032 87.4569 172.377
93.3161 262.349 128.071
81.0384 299.541 140.412
85.8112 226.001 121.794
69.483 330.019 145.052
88.9607 323.904 92.4285
94.8139 111.77 240.776
97.5998 339.609 129.991
105.772 61.7825 204.172
107.264 294.851 97.8867
88.1043 306.958 92.2244
75.257 265.177 107.066
81.3457 169.198 98.0507
80.7126 242.89 135.469
94.8318 221.428 111.904
97.3818 253.312 222.029
92.511 69.036 248.758
78.2497 235.498 132.319
112.978 244.276 113.924
118.525 163.998 158.414
97.9651 298.118 92.8568
83.4333 231.839 134.232
110.912 323.157 114.499
101.013 293.363 96.9735
114.937 296.38 191.875
96.099 276.525 140.205
109.722 243.071 132.234
102.357 238.192 134.773
114.482 257.27 115.816
85.8023 180.284 117.003
84.8006 192.175 213.702
113.592 285.685 191.445
90.7556 241.633 168.305
83.6844 281.816 114.137
110.316 174.126 97.8832
93.6048 250.316 171.992
80.8862 233.905 126.376
74.9322 330.545 149.825
102.273 70.2265 249.19
96.4357 264.233 232.319
67.7444 319.264 107.733
105.033 191.089 96.9935
91.1387 221.063 103.279
83.359 243.642 180.092
86.7356 187.065 86.486
65.5927 306.34 150.028
89.8093 182.521 86.0406
112.599 296.344 129.358
88.1104 248.071 134.009
92.5477 273.095 145.461
109.484 325.106 109.821
102.018 245.166 135.998
91.2785 195.362 234.775
100.001 338.833 120.857
113.397 88.6622 236.306
107.176 304.573 118.361
104.42 251.12 101.256
103.43 336.34 125.546
84.9452 51.8631 225.802
85.6358 308.137 143.019
93.7245 322.028 147.413
84.0569 304.064 125.672
117.937 247.056 225.308
92.607 40.3267 207.242
98.5857 233.944 130.796
93.9587 259.334 195.074
95.3736 61.6393 204.237
93.8544 337.889 122.475
98.5794 287.265 147.218
91.569 327.913 143.569
82.7713 271.412 148.184
96.593 179.828 114.738
105.823 332.723 103.558
72.2996 293.658 136.973
107.53 247.806 98.1573
105.352 66.8984 182.046
75.8946 339.106 108.753
91.6699 114.841 231.611
93.3721 260.188 98.3678
76.001 323.8 149.596
96.2855 50.2702 237.516
98.8462 195.354 102.539
93.5444 236.619 247.869
115.122 103.519 216.152
94.405 227.276 130.234
113.088 252.294 112.594
99.6419 121.013 223.167
118.683 285.82 194.114
120.606 239.451 205.159
82.2064 341.741 134.225
86.5171 171.495 102.19
95.9093 310.696 131.231
108.637 292.463 111.274
94.1985 303.778 195.309
111.06 300.847 194.905
99.5459 251.973 97.6645
90.7145 54.8319 194.597
112.949 307.586 111.378
106.763 178.897 102.959
91.5881 232.236 168.598
78.2086 320.435 95.4453
109.954 269.127 206.925
82.2976 290.373 98.4049
104.957 207.615 183.25
69.5057 304.786 114.676
107.381 184.79 99.6075
110.825 239.839 109.213
77.52 185.46 94.8086
90.3835 256.796 141.321
104.999 301.107 94.7791
91.774 337.99 105.146
98.8748 306.605 91.8896
70.3592 275.565 117.867
88.6239 282.21 99.0392
109.863 265.105 124.702
88.9462 232.038 134.198
113.778 247.118 107.446
99.1718 192.125 95.8185
116.479 228.15 106.697
109.877 234.447 118.419
82.9549 185.097 88.3252
80.0879 314.461 122.586
89.0277 288.346 196.712
92.1697 55.9146 207.051
104.472 259.66 118.79
86.2859 321.322 144.518
80.121 343.543 108.702
79.8424 317.306 154.146
99.8123 291.545 140.469
95.9151 54.1617 180.336
76.9512 299.092 149.522
66.2389 335.716 117.205
121.466 86.6583 207.422
105.724 218.714 175.222
84.7996 315.14 114.777
106.47 275.71 103.682
84.2469 319.72 152.908
88.7612 305.243 130.441
95.0777 284.15 201.612
88.3529 318.335 151.575
105.07 287.375 134.267
84.0977 287.375 143.893
95.4175 284.554 143.788
110.88 289.782 100.941
83.8863 300.674 150.501
114.652 312.235 129.174
91.3182 188.022 91.7762
105.624 261.524 133.819
90.4887 195.162 196.046
89.0607 239.421 241.449
105.171 283.766 106.001
100.753 327.842 136.807
87.4121 69.4197 178.947
79.8533 177.156 109.937
88.0334 299.602 184.708
102.213 331.601 99.7566
83.1337 313.119 151.928
101.361 212.703 171.701
94.349 340.813 135.722
88.1967 290.652 177.798
103.373 277.783 139.653
69.2891 295.637 146.975
110.965 89.7432 177.007
61.2835 327.856 120.35
116.042 259.522 196.099
91.4514 309.403 148.368
95.7744 332.31 114.382
106.678 325.848 99.3685
83.901 107.425 184.49
99.8518 248.882 170.699
109.224 311.343 114.008
91.2874 227.293 120.327
98.6848 276.073 97.604
95.2444 299.298 197.955
102.26 242.819 129.175
92.4657 272.379 96.0016
88.1674 225.873 211.921
103.606 194.948 244.114
106.312 277.724 129.855
76.2727 341.671 133.594
100.309 238.096 101.259
82.3164 265.786 131.631
89.4028 303.867 151.099
99.429 323.342 125.305
98.0224 299.312 203.649
90.2197 228.167 129.393
77.5872 248.703 122.785
75.9986 275.819 125.217
100.875 300.584 139.67
56.4694 317.969 124.812
95.9965 164.877 97.8226
86.9895 236.802 134.309
113.98 252.554 131.569
74.2366 256.547 124.007
115.563 294.138 204.964
91.3256 67.0782 167.059
112.907 291.166 105.211
103.093 311.229 146.504
101.262 260.263 137.687
95.6643 261.234 226.566
96.062 243.998 132.698
89.7122 246.087 100.152
67.3491 269.488 113.302
103.433 331.467 119.874
100.028 225.785 201.155
82.5829 201.757 208.08
114.415 102.931 192.441
88.0283 309.82 120.076
81.9465 293.517 148.967
90.7941 316.801 95.4172
87.1012 328.73 96.4114
95.9708 279.308 106.336
70.7118 342.003 127.169
79.2651 308.342 118.561
76.329 314.72 97.336
86.8848 312.727 148.053
81.1336 261.869 106.13
97.819 218.518 192.81
111.761 139.344 166.194
96.7281 260.542 136.59
106.138 312.213 121.675
76.7578 332.345 108.157
114.794 310.391 118.124
114.619 316.239 119.992
89.3784 257.169 101.179
67.5903 282.692 123.431
109.079 310.741 100.198
92.282 294.846 149.572
99.6458 104.677 180.46
101.384 271.679 213.308
116.167 290.446 117.392
96.1244 330.391 123.299
83.9245 220.699 212.425
88.3099 47.7837 185.652
84.5078 227.102 106.501
82.987 175.919 102.248
91.7777 310.994 91.9054
85.3507 319.203 97.5244
85.5008 334.645 138.736
113.017 298.026 110.294
91.2345 310.273 102.602
87.7096 275.369 144.002
97.9915 325.727 94.9783
119.334 225.994 232.862
89.6636 241.914 138.756
83.686 258.732 99.6423
73.9832 304.312 153.836
92.4135 210.749 245.021
99.3963 88.8381 167.979
108.592 313.205 133.393
69.1506 278.096 104.927
86.6408 296.203 147.859
70.0935 256.125 107.59
59.905 321.986 134.777
116.64 210.474 232.108
85.6415 276.353 115.644
88.466 328.531 147.836
85.8231 295.019 101.232
84.5072 230.807 185.425
112.022 237.052 113.123
79.9017 253.32 120.34
86.0985 251.338 97.0547
96.2306 197.224 183.896
94.8794 296.042 97.4968
85.7511 310.706 100.499
90.2984 175.091 104.588
97.6564 228.605 125.461
81.8799 247.04 98.5411
82.115 330.479 100.961
104.785 309.79 100.976
105.581 327.189 105.271
80.4395 336.003 99.5559
85.2415 270.522 95.0743
102.974 220.367 252.988
101.025 249.019 129.664
96.7095 324.499 118.425
95.5711 334.318 138.564
93.856 311.952 123.535
84.9085 274.396 179.661
102.784 317.908 93.6321
86.1365 314.345 123.156
80.1252 330.718 147.406
104.153 267.792 102.615
81.2516 243.115 111.436
109.523 251.401 103.46
95.5263 339.578 116.694
90.9775 212.98 182.305
96.709 238.327 135.458
90.5179 291.318 134.842
101.463 278.164 108.465
113.354 307.659 105.38
99.798 285.492 106.4
74.0903 250.626 130.737
106.257 262.452 107.511
91.9637 319.926 139.296
104.366 308.166 140.247
92.7064 243.798 135.845
88.3677 229.396 233.075
85.135 216.38 199.241
79.4424 234.294 119.509
105.156 253.742 129.052
88.3445 113.006 185.474
84.6115 294.998 130.922
83.3953 303.708 130.794
97.1428 185.261 85.6558
55.7984 322.586 138.167
104.42 170.512 102.232
106.6 256.91 175.162
111.463 71.6498 199.958
111.539 67.0388 208.662
82.0698 327.594 141.092
112.421 265.541 187.208
80.2498 336.749 106.449
104.653 335.37 108.056
88.3264 50.2366 199.252
68.0127 254.09 118.002
98.3901 225.089 117.775
95.6481 189.378 196.176
81.11 240.703 101.08
86.4489 226.035 237.525
110.403 284.1 139.157
103.414 313.145 96.2846
80.3985 179.198 83.1598
110.86 303.337 130.343
91.5041 295.561 181.199
58.6857 312.527 141.787
93.7137 249.922 98.2088
80.3577 248.386 105.125
74.7005 332.911 113.258
79.3409 270.743 131.091
103.702 293.104 180.449
85.6472 309.227 111.669
106.594 320.955 103.745
117.513 81.2786 199.902
96.3728 292.126 144.939
96.6652 256.347 99.7246
100.701 254.592 104.938
73.928 341.152 138.816
75.6339 281.576 144.101
90.8269 285.876 95.5247
93.1775 224.339 214.068
77.0067 251.97 100.743
90.2306 341.182 115.801
86.4266 42.3628 205.79
78.3741 345.086 117.923
92.4762 91.4232 197.275
82.0273 230.29 114.326
96.6342 315.663 144.985
97.4308 291.793 104.826
75.2591 250.223 116.141
104.405 303.308 129.354
84.8869 342.853 129.139
72.5628 329.416 101.905
76.7419 307.761 150.631
106.087 266.705 127.561
100.483 319.97 135.945
91.3884 289.63 109.364
98.4769 254.896 134.967
94.579 254.98 138.374
111.922 245.331 102.792
90.9663 325.399 132.067
77.1697 267.961 119.505
78.7299 242.447 106.177
68.0195 275.443 137.976
64.6709 315.111 131.136
83.9299 345.874 119.525
83.1733 312.69 134.026
92.1816 277.049 97.9832
87.6628 252.944 140.303
99.0046 328.279 112.841
104.022 126.269 152.764
110.708 279.803 105.621
107.519 297.984 124.104
81.2376 255.084 134.356
103.634 234.406 128.74
80.423 292.573 139.763
78.2951 278.164 107.292
87.0316 101.137 196.663
86.3635 286.861 98.7635
98.8718 303.024 148.973
83.573 65.8146 234.675
109.79 253.879 123.669
100.401 245.687 101.931
86.0755 275.506 100.023
107.895 295.692 104.69
108.949 302.176 111.635
90.0898 316.706 147.619
86.9468 230.294 125.833
109.545 256.63 110.756
82.8461 326.02 93.9391
73.0834 250.034 110.345
97.5275 315.14 136.307
69.6333 330.501 111.959
83.2539 236.499 112.292
75.9471 332.41 99.5575
112.434 140.098 155.16
96.1589 225.723 218.257
78.7038 285.997 142.988
89.5109 83.5245 166.362
107.128 202.285 224.79
80.48 346.256 123.863
86.5009 334.233 98.6931
112.465 270.13 112.711
86.5686 287.299 135.586
101.21 318.345 141.86
99.4534 283.436 142.882
68.4037 342.087 116.39
102.074 277.424 101.843
81.3434 228.187 121.288
63.3386 329.48 145.877
96.5932 99.6792 249.189
79.0749 230.978 192.213
91.8963 116.016 194.48
116.101 300.449 114.18
82.9074 230.641 201.126
100.231 300.519 100.25
100.699 285.835 137.695
97.0852 313.531 97.4582
81.177 183.01 104.346
98.7061 191.922 187.332
114.756 282.714 119.331
91.9799 313.054 134.982
90.3678 294.923 141
75.9213 258.983 106.051
116.913 161.366 169.161
106.575 254.121 118.156
108.143 166.455 168.687
88.2052 332.136 133.706
71.3589 298.82 138.517
92.1819 290.615 96.573
81.9292 292.305 108.776
112.765 312.055 107.346
110.966 249.495 128.353
120.635 284.22 198.981
113.189 270.793 104.969
102.15 323.346 132.735
74.0203 300.787 126.831
113.733 280.021 130.494
105.595 257.397 107.997
88.5579 284.779 109.665
76.3188 300.505 109.337
92.161 253.359 99.9251
96.2922 326.709 101.195
78.364 344.392 128.417
78.7183 294.717 99.3273
89.824 223.734 115.034
101.884 174.44 104.514
95.0342 270.384 134.743
86.5551 343.795 123.069
117.118 153.373 148.635
105.634 297.117 129.128
79.857 308.132 102.174
96.1107 296.271 135.441
92.9527 272.917 105.635
74.4297 298.514 99.2037
101.818 263.138 142.956
92.0896 252.017 133.405
107.69 296.229 135.231
110.653 292.533 133.28
106.26 288.433 203.993
82.81 322.739 148.551
81.1673 272.997 106.962
66.174 297.511 119.446
106.592 266.894 110.033
75.5632 264.641 132.886
86.2429 275.279 107.796
60.7522 327.909 137.047
107.522 286.57 108.233
75.8857 316.656 155.03
111.276 276.975 124.777
112.806 282.777 112.192
70.1988 335.75 140.045
106.871 246.878 133.825
73.8348 328.113 109.769
82.9773 260.606 142.044
91.2889 193.905 89.8823
108.669 284.529 123.28
109.012 272.256 122.478
90.83 105.008 175.249
75.2312 318.231 104.074
74.7487 238.115 109.377
105.141 294.174 146.606
106.647 220.792 224.113
109.94 321.348 127.382
87.2746 240.687 101.741
66.142 287.396 140.13
87.3352 314.447 94.6709
82.256 256.196 106.188
65.6505 330.586 114.635
85.0333 314.423 140.239
89.4318 288.802 144.454
83.0564 253.785 100.274
111.31 299.369 200.228
97.6471 92.8896 250.616
111.663 284.509 133.103
97.0182 309.732 143.588
71.9869 301.257 149.709
75.4209 295.719 106.551
103.104 302.222 134.461
91.6876 236.302 99.9797
77.2234 291.049 138.099
81.1683 324.532 102.76
72.5655 302.395 119.596
107.804 321.051 133.251
70.0616 341.148 134.508
97.79 275.102 179.892
75.2655 264.486 126.036
67.7668 307.385 131.167
110.202 309.648 121.683
63.7963 320.265 119.594
70.3475 259.53 123.099
80.5231 287.274 116.283
72.059 285.184 133.32
65.4557 301.858 146.223
75.9492 233.751 111.092
88.775 311.21 139.01
58.6937 304.094 142.549
65.7547 288.184 111.524
92.1968 113.27 219.442
100.01 308.72 127.767
93.6057 294.172 106.473
106.922 248.566 114.989
86.4828 280.035 178.368
105.544 248.465 109.907
73.3689 344.798 119.874
96.906 175.983 106.969
96.0499 317.278 128.205
75.8788 315.654 127.978
77.573 254.139 110.782
112.745 272.629 132.154
92.3261 261.63 142.754
68.8806 279.556 110.919
60.763 326.647 130.54
60.1569 310.787 127.868
74.597 281.931 118.574
103.81 326.647 111.198
70.9693 304.569 105.271
107.73 294.833 119.023
89.128 283.333 138.898
109.556 164.868 152.751
76.246 294.562 143.912
97.3435 65.1147 197.209
117.624 290.654 128.871
85.7778 235.831 193.477
66.4707 263.667 123.437
79.5959 228.362 111.419
96.2288 249.934 133.635
89.1661 279.95 106.79
101.52 291.724 105.321
61.6818 295.205 140.14
66.9341 335.184 122.377
112.522 230.356 208.242
99.7548 249.864 136.943
97.8212 169.391 167.911
94.4817 323.892 125.696
76.2932 266.209 140.734
76.0207 303.142 104.608
101.046 317.071 122
73.7671 322.193 98.9592
73.9113 310.307 110.41
96.753 321.74 141.824
75.0154 276.978 139.207
109.262 307.193 136.843
72.7081 287.606 139.9
94.3358 171.305 108.405
85.5892 72.3236 235.426
75.0903 331.947 143.788
109.298 150.39 175.219
89.3231 264.944 134.676
97.816 216.587 119.958
69.4572 291.061 103.896
98.2623 329.983 119.016
90.3076 41.6284 196.865
113.441 167.409 162.856
77.2375 321.668 117.547
76.2096 238.31 116.312
66.4788 327.642 120.958
116.172 149.76 173.628
77.3824 242.833 126.573
91.9612 96.9728 195.298
94.3372 329.096 135.935
80.6297 283.797 103.171
66.71 325.633 107.402
90.2427 338.844 130.492
79.3483 304.212 147.213
64.1063 320.49 131.164
101.435 323.587 99.0061
88.4571 262.011 103.529
75.556 315.57 109.467
92.5615 190.526 222.638
103.629 225.417 230.171
79.1584 220.176 199.188
103.799 272.078 111.819
105.363 330.03 115.336
74.5162 299.552 142.895
66.7538 325.793 148.08
67.6182 320.966 125.512
91.2967 315.323 103.88
104.576 274.919 115.059
69.5006 265.138 108.854
71.7709 313.661 104.36
77.2869 270.946 141.135
109.929 292.246 125.499
66.4214 321.114 148.921
57.209 317.633 133.817
64.3293 284.021 115.3
69.867 334.607 134.059
72.1046 312.948 131.531
103.137 295.902 117.823
66.5362 298.928 108.469
60.1135 299.093 124.133
71.0392 321.118 103.365
101.824 308.64 123.508
80.2477 333.485 143.197
58.0965 314.996 137.502
73.8682 297.364 114.672
63.9734 326.84 126.53
96.9975 198.853 96.2407
102.625 319.571 101.019
99.0211 319.961 95.3175
105.218 273.104 129.588
61.4284 332.332 134.469
61.7981 332.884 129.779
88.7035 301.844 142.091
83.8104 283.53 142.73
93.1189 282.064 103.235
76.0385 340.868 124.891
104.749 145.033 173.102
75.9056 288.601 108.727
86.3903 303.174 100.083
86.1537 226.801 115.11
73.4898 239.702 121.5
80.5842 259.777 136.421
88.1479 314.506 133.112
78.1815 259.769 126.502
118.701 77.2326 208.261
74.212 310.861 99.0585
66.123 299.739 114.153
66.0422 302.683 133.512
85.2106 340.933 106.181
72.1194 324.538 118.793
75.2162 291.46 117.189
81.6899 313.048 107.301
75.8288 267.052 112.741
66.7166 340.769 129.356
65.1384 309.93 104.05
96.638 334.383 131.491
64.1063 293.061 135.409
70.9445 338.699 122.458
63.3732 298.805 142.997
69.4038 328.208 139.358
99.4268 269.991 103.21
99.1787 263.447 110.69
58.2808 307.499 138.875
102.639 130.152 163.08
97.8756 328.425 130.654
115.155 275.586 211.173
104.81 335.091 112.225
85.5095 208.983 203.94
72.5048 294.107 109.95
67.269 291.575 121.324
72.6568 271.719 127.65
102.53 315.748 130.944
65.0673 303.284 124.922
74.0818 263.121 118.041
79.543 305.572 111.803
79.3972 238.613 124.269
88.685 218.204 241.748
92.754 81.4795 233.652
109.207 301.765 99.7205
62.9828 310.301 135.204
112 288.091 122.584
72.9869 310.208 126.22
97.392 309.317 99.6235
64.6074 288.156 133.94
88.5523 242.678 130.065
64.9031 333.802 127.24
97.4122 222.123 203.081
110.72 160.67 174.772
101.114 227.617 206.966
115.587 278.011 120.08
75.5982 317.777 113.265
99.2339 324.49 139.011
67.9027 295.801 125.485
72.0759 271.548 135.938
58.4856 304.538 129.139
112.137 293.962 116.104
106.31 295.782 113.517
69.7915 286.619 110.207
76.9499 258.447 132.458
92.8263 223.578 240.028
68.4935 268.343 126.414
68.32 307.351 124.022
103.693 156.745 172.425
103.693 319.903 129.703
70.2482 292.87 117.812
114.957 286.769 130.262
84.5931 287.085 107.828
86.6146 255.277 108.507
107.182 319.104 113.75
63.1028 325.721 141.34
107.587 154.08 148.949
79.0859 235.946 105.211
67.7322 298.702 133.891
61.4055 296.306 130.144
102.826 262.273 111.399
96.7704 225.382 192.977
