ply
format ascii 1.0
comment Created by Open3D
element vertex 405
property double x
property double y
property double z
end_header
62.5782 37.9097 124.578
71.2287 79.7037 77.9214
37.2426 102.517 75.2309
55.2866 58.6118 133.597
70.0601 99.6913 83.7855
77.5509 58.0891 48.4066
73.6702 70.834 101.83
75.4162 93.2891 100.148
81.0763 86.5093 28.9603
54.1129 55.2148 38.7641
68.3105 75.2778 135.719
69.3391 97.2355 120.398
80.6239 137.022 50.4196
67.2574 143.003 53.3357
65.2284 135.356 68.5546
66.7527 70.2807 95.7575
42.802 61.3085 81.0015
44.4762 35.9012 93.895
75.5889 69.0656 55.5924
54.2122 23.5665 117.291
56.7681 51.1995 76.7605
84.9509 88.4511 130.847
67.0088 129.899 73.7147
66.128 41.8544 114.898
74.4945 135.954 44.6391
73.2043 115.767 34.0041
86.2681 128.838 53.7466
89.7433 68.7431 72.4105
86.7114 64.1056 106.026
41.3516 89.7035 83.3535
79.8283 76.4751 26.5241
67.2981 48.8774 110.374
51.0145 81.9753 61.9841
82.508 121.794 45.6388
70.108 87.2355 66.4053
89.6069 64.9913 127.156
67.4029 107.425 79.3083
33.5543 59.2872 123.472
79.8659 112.031 67.4251
83.4964 61.9309 78.6429
87.7707 59.7136 118.204
41.6978 117.983 60.8347
65.9615 126.653 34.819
53.5518 83.7431 35.0565
67.7899 119.33 31.7074
85.7838 88.262 107.598
52.6872 58.5419 25.2796
83.9932 106.189 74.1691
88.9175 117.173 53.3462
69.9441 74.8083 68.893
69.8455 91.6206 106.746
68.658 85.3571 130.335
38.2949 27.5758 105.826
73.4851 141.677 50.9152
63.5861 67.0562 128.32
77.312 74.1886 138.072
65.277 99.8022 32.7891
73.6888 93.1959 48.9989
88.5449 79.1496 105.907
73.5007 135.951 67.7289
82.1055 115.906 83.2999
69.6657 107.706 30.3963
61.1444 83.472 85.6485
51.4762 37.907 99.1679
72.801 84.5375 102.091
61.6164 126.744 69.6192
79.2318 65.6616 104.739
35.414 81.1008 120.425
46.004 72.8493 130.986
38.3678 115.698 52.9421
49.734 128.755 42.8529
75.0699 32.8445 105.165
40.8554 39.0767 101.233
37.2455 87.543 68.3729
88.6855 83.046 114.197
62.9098 55.2578 100.471
85.4196 71.272 52.867
85.3292 86.9851 38.8429
77.3491 85.6949 137.738
79.4338 58.7321 111.691
48.9568 92.2044 81.312
52.2131 134.359 56.4188
49.2139 76.9221 69.1952
64.6081 47.8072 120.766
56.7822 80.2905 67.5176
90.4525 76.9328 35.947
90.6641 75.219 122.26
63.4752 88.9516 99.1067
31.8833 94.4184 70.2417
85.8001 95.822 74.9012
52.1257 103.346 84.15
43.2133 69.3784 67.799
60.1744 54.2632 86.3196
81.841 56.2283 125.385
73.6365 61.4311 77.0245
87.0033 79.6937 51.8437
62.8799 82.9068 78.2783
47.2495 25.0688 117.593
70.9653 86.5557 36.0321
74.1705 74.6119 89.9075
61.5606 29.2446 121.436
78.2468 83.3165 84.0982
71.3039 58.3947 53.3292
42.4121 34.3047 123.407
70.2203 70.5873 29.4303
77.6139 106.648 81.9325
65.3215 55.9505 38.1464
56.0678 67.4342 130.384
78.7117 66.0732 87.0878
74.9694 100.32 33.7256
77.5788 55.5064 38.857
39.1882 30.3694 117.266
69.7125 55.7607 104.11
55.8564 130.512 65.0305
77.8152 93.979 77.2349
64.1213 28.7746 103.197
54.427 89.6728 51.8266
80.5714 93.6949 126.567
55.7084 31.8675 126.974
71.0486 63.9064 102.576
54.1654 52.5438 89.5043
82.0083 88.4361 65.3444
49.2415 53.6193 133.216
64.4122 63.9198 68.8048
88.0288 68.5725 40.2329
74.6609 102.203 77.7233
82.5661 72.4471 66.1285
68.2445 76.6109 102.446
63.0777 56.5692 71.2072
28.9355 48.5626 121.749
86.9033 91.0233 123.131
69.7192 60.7944 126.754
57.5693 140.015 48.6655
77.9013 78.7732 57.6688
89.6411 69.6383 113.677
85.1285 92.9487 113.337
73.533 92.7334 125.501
82.9779 107.728 45.252
77.1168 60.4119 128.14
61.6098 69.8931 24.3246
67.9309 62.3267 92.8588
90.0693 83.468 30.4879
72.085 143.937 64.6573
49.5876 45.9002 135.845
80.7144 91.5733 54.7425
55.5377 134.064 44.7427
76.8985 87.5253 70.2528
58.6731 116.519 31.7206
58.9446 123.615 32.8975
60.2782 21.0987 107.58
87.3616 73.5931 90.1928
47.552 102.327 90.1189
77.6971 55.3562 118.862
58.3984 59.9924 30.2006
50.9684 92.3743 45.13
76.6832 86.4255 62.8191
44.7794 97.8302 96.0504
42.6278 80.4627 33.0654
80.3271 84.9257 48.1454
65.2279 35.3597 110.74
66.109 88.8921 124.004
58.4121 103.485 29.5123
84.6124 109.921 53.9314
89.6793 80.8478 79.722
79.3313 121.566 76.9583
68.5831 78.9176 91.365
29.9071 61.5943 115.449
43.8225 86.9318 47.9722
80.7076 133.907 65.7718
63.7756 56.6467 80.1559
57.1681 82.677 99.7901
30.0835 103.559 64.1754
59.3011 79.7075 52.9729
31.4466 114.249 52.4333
83.5475 61.7812 134.879
70.6666 61.0488 68.5585
51.5341 27.6466 92.8339
89.9128 77.6645 132.258
75.3119 96.6229 41.2749
55.1302 76.4979 130.672
72.2449 55.8536 123.991
70.2961 90.5367 75.6008
84.969 97.9619 61.0407
59.1449 117.919 75.8887
66.0662 53.2674 49.5607
58.697 52.102 127.966
84.7274 99.1718 51.2411
57.1631 54.4981 50.083
87.7699 112.122 66.6648
86.8936 119.95 61.2598
87.689 84.9883 100.134
37.1191 58.894 89.2158
70.4621 62.5443 85.7497
39.7973 69.7986 39.0161
74.2018 129.343 39.4375
63.1888 89.0627 54.9226
47.9697 115.955 68.7922
84.1424 70.4808 101.054
31.5685 45.521 128.936
86.4422 118.161 75.7285
79.2679 127.936 72.5034
35.8431 86.153 96.5169
50.867 35.2868 129.186
56.5528 84.585 58.3004
38.933 71.7471 27.9593
90.0095 66.0186 84.8957
72.6559 56.1632 34.0674
52.2385 79.105 124.819
61.2616 26.4405 113.772
39.6036 81.1155 76.1917
31.3043 94.061 44.3984
63.8528 86.513 72.9134
76.3382 93.8748 114.243
34.7327 42.1645 120.994
57.3208 94.6219 40.9665
67.3759 96.92 40.3411
47.9887 53.9757 74.1693
56.2027 81.1324 17.0515
75.5377 117.703 80.3784
82.2105 77.7112 97.4088
70.1407 64.5496 133.193
43.3326 81.3131 124.704
49.5771 89.7778 26.4482
85.286 82.0776 137.277
41.7429 114.894 69.3741
77.9517 140.332 63.8471
57.4507 41.5721 103.496
68.9152 79.1851 28.0312
48.5212 53.1931 97.4937
47.1922 100.593 39.0438
78.3836 63.6634 32.6669
69.6889 95.2415 113.569
65.0413 79.4844 98.2432
39.8694 83.4387 60.3173
40.788 53.867 106.814
81.3098 79.869 67.6909
84.5891 127.468 63.9657
40.8495 89.1174 99.6812
44.3719 39.6277 132.222
60.0317 91.2745 114.686
60.8036 73.5644 71.0817
60.6406 36.0213 103.163
41.8559 92.0422 92.2761
81.8949 70.1406 137.543
52.6204 122.233 38.3505
30.959 51.598 112.599
53.6411 65.1348 55.9761
63.4847 92.302 90.3626
38.6261 62.5001 100.502
36.0439 87.048 87.7159
80.2632 113.471 37.9897
55.1805 56.1459 69.9315
55.2999 88.0833 21.1734
63.978 58.4916 94.259
54.0661 123.675 68.7441
46.427 122.808 61.7052
81.9431 99.4379 67.4782
57.356 92.0945 29.7256
57.3899 54.9993 95.6359
35.807 37.6179 107.901
68.1677 91.732 83.0352
53.2067 74.4753 52.5373
60.1975 92.1611 125.682
66.9168 62.5689 28.5062
48.4656 58.449 49.9363
41.1346 28.902 96.824
60.6573 143.666 65.9041
64.541 61.3815 125.937
80.3885 79.866 91.7907
49.5519 62.7734 132.626
80.7835 64.0442 54.6021
71.7213 87.9795 42.6111
57.81 84.985 123.88
45.9868 46.0047 100.717
38.2422 52.4864 98.4982
62.0871 111.264 32.6033
62.034 48.2931 107.499
43.4399 52.406 85.0935
36.5587 81.4127 106.256
66.8714 83.4446 88.058
72.6801 56.7972 111.411
84.3641 81.7579 81.607
75.7021 107.71 32.6663
26.8839 99.336 58.4291
45.5368 57.399 43.3003
60.6341 75.065 129.366
53.7883 136.74 67.7415
47.0115 50.4353 90.6824
64.2845 83.9946 30.7887
61.0429 142.549 57.0783
42.1197 99.0705 82.4735
63.5759 84.928 60.7245
68.8959 91.8664 52.6506
36.0027 74.5074 101.222
61.9825 91.9459 45.2309
40.8038 86.3183 114.71
67.8367 54.1569 118.324
55.9611 47.1415 103.519
54.686 51.9715 101.326
57.7897 60.5957 52.9364
37.9102 41.4089 114.103
38.3198 53.7216 128.504
40.7837 69.8798 90.8865
76.6276 139.198 58.3748
36.1826 94.0382 78.5511
71.675 82.0173 50.8293
56.7845 110.215 78.5058
49.9895 126.557 55.9707
46.3772 117.261 47.7364
33.9309 113.667 63.713
60.7836 96.2021 83.688
40.9747 68.9404 75.9545
30.7458 107.329 50.2599
32.5396 79.0643 86.8747
69.1595 114.446 81.9175
38.9217 100.935 40.1309
34.2247 75.7856 94.3599
54.3746 99.9461 94.363
47.0942 93.1404 104.587
72.4903 79.2245 138.515
36.1769 67.5102 97.4175
64.664 49.7081 42.4157
44.7824 81.723 61.9259
35.3202 106.167 43.3233
71.4281 128.67 77.6324
59.7828 68.7394 57.8145
62.2836 83.728 126.802
63.1502 73.3645 57.8125
52.6107 114.152 74.3091
49.1328 19.8184 113.83
68.5257 66.436 59.2828
76.6538 64.8196 67.7989
36.8025 46.0774 106.048
34.0513 70.3598 85.3167
48.3005 110.952 85.4499
37.5339 123.471 50.1521
33.964 75.4682 108.126
55.885 90.8916 105.369
28.3789 94.2347 64.8456
61.7557 89.1185 106.56
54.4722 43.3437 127.395
55.524 22.8335 101.245
77.8265 121.639 38.7488
31.6716 73.818 114.563
65.225 88.0716 110.704
57.9934 63.6545 20.2212
43.9266 92.9533 42.5081
32.3223 67.0962 115.32
71.7419 67.9496 137.41
73.5825 122.779 79.1397
35.9194 66.3892 67.8982
51.955 98.8981 37.0297
49.9433 86.0281 117.048
65.1649 131.125 41.177
49.5191 68.1002 69.318
49.5682 91.7769 110.352
33.6154 52.5678 107.636
46.0073 125.926 71.0563
40.3864 108.414 71.3498
32.55 38.5743 127.891
41.3107 105.504 83.9086
63.0571 96.2373 119.465
56.7404 63.6874 70.8629
58.2899 73.8141 15.7102
50.8894 91.3059 100.089
45.6901 62.2935 72.4211
83.6322 69.3028 33.0062
41.3809 66.6459 130.562
50.0235 70.5019 14.329
67.2335 49.0201 127.24
32.3808 69.1023 122.319
50.5805 125.489 72.2689
54.583 140.967 64.7511
49.596 52.1678 80.469
56.0828 91.9487 113.784
54.4993 119.401 72.5093
36.427 79.5801 81.9815
78.5418 111.191 81.903
54.1014 68.3101 69.2338
64.7981 75.6371 129.751
38.0882 74.8835 128.261
38.758 65.8982 108.052
73.1586 108.67 80.103
86.7208 62.7257 88.0707
63.5273 51.9288 126.724
27.2848 99.1977 50.3586
41.2341 59.0151 36.9795
84.7499 116.66 69.9414
56.3554 104.06 89.3283
47.3184 64.0912 16.7628
41.5636 111.551 40.9984
58.1364 139.975 69.4943
39.3544 88.3297 105.464
45.536 110.858 73.7152
52.863 90.5754 115.802
61.2612 84.9264 25.3326
87.816 70.9367 134.298
35.3693 79.7691 112.895
63.2622 86.7008 46.1771
60.2969 60.161 131.359
56.4045 70.8401 67.9341
42.29 48.1871 132.012
37.4774 41.5177 127.533
61.0814 89.1917 92.8069
51.0988 110.159 38.3117
