ply
format ascii 1.0
comment Created by Open3D
element vertex 1276
property double x
property double y
property double z
end_header
86.7675 92.3077 176.348
129.477 141.705 235.13
130.345 140.051 253.313
125.932 106.203 241.086
123.455 121.725 262.147
124.949 240.29 254.14
101.605 106.437 201.486
121.995 126.742 89.0984
111.035 218.101 260.8
128.211 206.631 281.577
129.492 120.402 241.436
113.42 119.435 138.847
130.099 113.137 221.656
129.228 116.437 246.903
131.152 157.51 204.834
116.984 120.091 151.802
118.333 133.7 227.067
115.935 124.788 226.572
129.667 125.906 222.34
120.895 133.545 207.472
87.1776 212.504 290.826
79.7711 194.859 192.739
117.831 128.517 145.24
106.235 212.474 261.511
102.207 85.947 188.06
90.0409 192.95 287.167
108.734 195.812 187.281
78.6254 192.57 208.903
130.689 132.984 215.37
129.444 237.601 262.318
106.335 144.373 270.636
112.817 130.875 86.7034
130.339 140.091 222.978
121.66 137.915 214.525
99.8612 197.285 230.176
100.821 210.371 278.446
129.539 246.318 270.067
107.219 211.865 251.077
109.898 105.691 154.623
93.4274 201.635 275.241
112.179 135.682 269.811
97.6778 204.158 268.619
100.535 80.1066 213.974
111.583 98.5149 350.867
114.948 91.0391 355.094
124.688 249.004 261.343
98.1159 107.33 190.235
121.112 141.467 145.839
130.461 180.58 226.344
80.8469 200.012 201.389
129.536 126.255 231.368
97.1344 104.597 54.8309
85.2332 205.896 296.417
127.146 100.565 377.753
89.3274 82.4046 249.348
95.8998 222.597 289.242
131.532 152.509 183.209
118.253 262.828 285.229
75.9987 151.703 268.217
130.277 165.41 212.722
126.881 76.4834 375.55
93.5248 106.953 174.63
100.519 98.9899 224.718
83.8704 80.1243 200.483
129.563 155.764 233.212
130.128 148.729 227.69
115.532 43.4478 303.063
116.756 137.551 237.219
101.682 207.652 263.65
128.318 105.418 230.926
111.176 148.556 81.4583
126.484 97.0226 383.943
125.778 135.86 88.33
104.302 114.522 185.907
92.1486 91.4752 236.313
104.338 133.742 274.123
119.539 249.163 295.322
88.726 85.9784 228.105
84.7173 132.189 91.567
113.637 144.413 240.211
88.4486 96.558 164.626
116.727 82.6352 341.504
106.606 200.361 300.923
104.41 201.269 201.079
122.089 109.197 67.5935
102.22 155.245 87.9989
98.8085 252.736 290.689
110.792 114.621 224.166
129.545 160.626 222.961
80.0622 71.1377 327.912
86.5575 75.9693 226.515
132.571 165.659 174.796
103.08 173.134 214.059
121.675 200.038 247.033
111.027 211.265 243.285
87.7732 95.4138 186.548
88.5514 94.1721 258.521
109.907 114.632 236.104
130.849 236.89 281.058
130.942 173.308 208.25
128.007 226.565 253.475
98.0669 124.271 106.339
112.166 258.468 278.552
108.903 104.741 172.796
107.162 107.963 238.268
104.283 200.939 191.874
117.171 105.393 390.032
132.566 178.83 187.002
115.581 127.272 236.688
98.6396 91.1727 395.238
84.6918 65.4109 325.891
82.9455 55.3517 284
123.052 94.505 354.236
116.698 160.317 191.304
130.855 153.007 218.999
132.09 171.631 162.324
123.806 71.342 312.485
119.253 95.5863 28.6112
130.29 245.487 282.497
115.803 140.468 168.429
127.3 108.412 212.998
118.644 189.92 186.332
67.4938 83.2425 324.928
121.739 146.577 215.916
111.421 151.813 170.241
99.7129 60.999 374.702
131.685 228.037 281.931
114.829 141.982 80.4487
123.416 94.8942 372.884
105.591 92.5995 170.764
122.733 209.146 290.088
100.812 150.926 269.653
120.964 100.638 69.0468
130.734 131.879 237.776
116.914 72.628 317.809
103.085 126.097 81.6322
86.6023 171.498 156.186
116.532 184.964 165.982
88.9243 238.7 299.677
107.713 59.9888 368.336
122.961 148.611 201.852
121.703 161.47 256.606
106.673 106.509 225.538
96.7108 172.649 262.896
103.018 88.344 206.785
120.317 78.0759 351.932
124.218 197.728 276.688
84.0088 91.5843 333.257
85.3762 198.888 181.737
96.8775 112.284 277.918
131.212 171.022 223.123
131.315 164.277 193.564
123.416 257.756 273.019
103.612 139.586 254.245
92.5593 92.4838 246.558
106.068 125.331 109.579
120.656 84.9906 49.7975
104.362 91.6663 344.179
123.554 94.7517 46.5372
110.227 218.838 247.828
94.9566 94.2208 222.7
118.324 80.3129 325.724
103.471 61.4259 383.895
87.2509 92.1337 202.662
112.786 196.104 247.691
120.933 136.252 193.785
131.627 180.483 200.979
99.7765 50.6676 315.576
112.932 255.267 270.597
96.3557 157.724 87.9147
110.419 155.335 89.071
120.949 132.947 153.566
113.661 155.932 261.305
112.898 59.9556 363.23
131.426 134.167 188.475
131.605 229.131 261.214
83.4412 103.254 373.304
98.4991 82.123 176.119
126.443 150.386 102.749
131.259 178.383 215.755
131.643 171.526 199.569
115.649 239.649 254.504
130.682 217.051 277.066
95.4233 214.564 286.23
105.174 62.569 376.558
105.152 102.89 387.64
117.694 191.113 256.452
125.833 203.163 269.236
124.799 134.939 262.791
77.7685 141.184 268.817
94.7976 193.364 294.385
112.522 127.537 179.07
92.6054 101.696 343.675
96.2541 195.028 262.909
92.8033 42.126 288.987
99.0181 78.9093 194.911
123.482 50.0133 322.214
91.428 53.859 313.99
111.638 187.683 260.789
113.234 118.868 208.488
119.651 66.522 369.591
117.563 124.283 163.421
126.736 154.058 153.497
69.919 177.356 251.041
130.513 226.681 268.977
95.0179 149.928 132.205
102.167 200.856 253.323
112.63 90.6922 57.2141
90.5155 73.2838 204.708
122.661 96.7326 365.005
113.438 72.2698 297.104
125.303 75.5828 343.272
72.681 59.3844 286.114
105.309 129.02 95.9696
130.877 155.3 241.682
121.394 150.474 97.9677
100.311 146.27 115.398
102.178 228.179 284.731
111.745 197.701 295.886
114.668 61.7818 296.432
107.719 113.983 244.338
118.606 232.007 293.416
114.243 227.799 295.376
97.6357 135.433 132.314
127.316 149.51 95.9974
109.75 170.473 206.546
84.412 228.08 302.656
92.734 40.734 296.759
118.296 127.923 105.236
108.564 37.9786 298.33
86.8114 51.825 308.43
117.069 136.696 83.0452
92.9401 198.859 300.488
132.145 153.496 175.303
92.6662 102.828 186.89
120.679 107.875 378.006
87.6661 153.47 255.844
91.2454 243.357 306.003
131.817 152.039 167.434
88.8504 130.174 106.032
109.19 123.326 249.254
130.375 171.309 234.226
121.957 65.7392 348.926
95.5769 130.713 84.4029
117.06 161.806 201.453
94.1568 53.1182 341.115
126.63 256.845 280.703
102.702 103.904 244.803
124.992 192.738 209.238
121.933 197.123 285.928
81.3948 148.857 259.748
86.102 101.681 265.289
113.76 249.248 302.285
99.1269 125.343 93.396
88.1458 177.247 150.552
90.3957 194.528 165.541
98.9442 98.1684 237.456
128.845 89.184 376.18
91.7587 80.054 333.26
91.4803 104.958 157.096
129.839 153.083 253.145
98.1599 204.822 200.782
112.853 102.628 265.002
89.9149 104.362 372.097
130.662 145.515 245.655
113.933 227.689 261.881
101.123 103.563 273.24
95.3075 146.677 112.011
115.022 48.24 341.007
132.561 177.284 174.439
111.504 194.183 202.994
122.846 47.6166 315.165
122.177 70.3147 323.474
105.286 134.373 79.226
109.079 243.272 305.209
100.571 94.6589 35.3844
93.5114 151.345 107.056
89.4283 131.878 84.0046
124.762 155.082 145.899
101.611 161.121 245.639
106.555 193.903 233.047
116.228 152.295 88.5269
84.7555 64.8997 294.593
102.338 210.218 271.347
114.847 124.212 96.5357
107.418 176.86 253.682
100.256 162.548 266.201
99.907 56.8191 358.022
87.3528 143.323 258.449
87.2945 88.0484 214.855
121.573 145.89 188.512
123.999 96.8214 36.049
101.936 197.536 175.053
127.924 205.933 252.58
123.668 106.583 254.637
97.7912 205.311 191.238
105.949 96.7014 202.148
113.873 120.657 199.999
110.067 248.072 267.322
129.857 155.527 161.404
111.574 191.713 179.637
96.9919 245.495 287.591
114.867 225.984 244.688
130.052 148.279 192.465
111.752 125.541 102.379
93.9364 49.6977 287.689
96.6871 64.2857 347.828
121.038 114.983 28.4804
117.704 148.646 263.093
127.305 104.96 36.4874
114.972 139.317 135.254
130.135 213.541 257.094
124.254 196.915 257.11
127.947 189.857 219.279
130.029 165.668 245.213
95.3457 35.6451 316.362
112.262 96.9501 259.433
95.3436 113.449 139.95
90.4714 97.6076 386.762
96.8759 72.7334 222.017
89.0197 80.3289 178.177
106.421 89.9148 37.8139
125.16 146.549 154.411
106.97 97.5064 356.581
92.1149 57.6202 281.987
131.435 144.475 176.062
114.462 232.247 252.776
97.4087 107.984 386.414
123.806 156.553 94.1253
114.893 113.548 159.421
89.7291 74.8501 190.879
100.892 214.111 307.963
107.8 165.135 181.244
73.5611 191.032 230.356
113.966 134.261 115.293
110.401 71.6772 371.926
114.095 79.6765 320.182
112.785 128.672 134.355
83.0917 71.964 304.011
82.7386 84.9368 190.621
130.662 141.349 211.438
124.159 73.4662 332.521
122.022 133.403 162.661
90.5276 61.9173 287.306
126.396 213.374 245.525
113.641 194.119 220.483
118.759 98.6156 219.927
131.237 142.899 185.282
85.3586 48.4584 344.379
105.582 82.8635 346.003
113.568 193.136 195.996
122.302 50.8666 333.066
97.9295 105.511 253.363
120.126 222.189 291.771
98.6483 150.02 149.777
125.543 245.781 289.894
114.468 239.851 260.018
83.6782 184.131 169.167
115.186 83.1532 56.446
70.6502 81.6484 337.597
119.853 143.091 223.073
95.8731 68.2295 363.977
129.125 111.979 205.337
125.413 113.883 257.629
117.583 95.8411 230.703
59.3607 71.1727 322.085
105.757 87.2995 232.616
94.1745 224.035 314.227
109.18 101.46 361.311
113.596 67.4616 340.705
78.8454 46.9819 303.553
96.3409 128.177 278.227
125.927 99.2382 27.6827
105.38 139.456 115.978
122.282 87.4072 345.15
102.325 223.493 309.858
102.357 66.4935 367.803
94.4176 126.844 101.703
103.001 38.4563 296.867
98.8793 76.0624 383.062
129.067 130.383 258.285
124.651 190.769 228.27
123.499 77.0299 380.983
95.5258 159.257 156.852
123.069 92.2679 53.2864
83.9252 78.8839 315.814
98.251 35.2096 309.526
121.7 142.724 264.2
107.08 109.715 215.211
97.0535 39.5997 325.767
125.832 63.9112 317.777
113.616 111.971 144.813
109.421 240.847 268.61
128.701 80.885 382.196
93.4865 135.445 259.185
95.8394 163.581 166.287
93.8214 84.7856 323.531
91.5456 85.3214 168.143
93.6632 236.665 291.485
126.049 85.8815 387.344
109.443 39.0274 318.221
88.837 50.5189 283.928
130.4 184.114 170.669
89.96 174.877 264.032
106.337 119.482 174.55
113.306 105.266 23.1476
106.041 164.958 259.664
73.1756 52.9064 289.555
127.084 144.966 90.505
119.588 138.321 184.912
107.426 115.419 195.379
75.3975 190.678 222.381
87.0361 94.4263 195.073
114.878 163.631 142.128
115.662 84.0599 44.6307
106.321 141.39 80.0497
130.949 116.96 198.302
115.938 194.54 290.454
122.043 232.912 247.959
102.127 158.047 102.648
116.041 240.361 297.081
116.723 39.2146 320.134
72.9459 49.1409 312.105
128.677 166.976 152.924
104.164 39.568 318.955
107.393 216.122 275.718
90.9019 163.815 270.877
118.759 114.488 264.583
106.802 66.1915 389.288
85.7409 65.7664 285.272
115.871 51.4283 326.079
98.117 78.9145 295.524
114.71 248.3 263.107
108.103 68.4118 345.888
116.757 91.2867 34.1473
86.2924 221.06 307.9
88.5437 90.8494 379.585
90.0816 216.38 310.813
98.4673 110.05 378.688
116.956 153.909 183.805
77.9602 38.3323 315.556
119.427 176.822 155.046
78.5471 59.4676 328.931
114.095 121.876 60.9839
109.254 188.086 278.07
97.0177 57.0606 285.185
106.529 197.842 210.882
86.699 40.3691 312.289
94.7951 159.932 251.473
131.664 131.06 195.454
111.559 88.5944 346.782
92.9605 168.315 245.675
103.366 234.986 310.319
121.669 105.718 21.8258
111.78 98.2071 26.6669
108.667 76.2125 365.689
116.742 105.947 71.3828
124.524 224.645 246.864
82.3509 48.8053 286.943
121.147 120.261 59.9457
131.192 134.443 244.973
103.244 35.8745 313.169
123.332 88.7637 373.169
113.402 206.486 294.879
119.274 126.079 267.254
94.3456 201.919 179.382
132.036 158.902 188.529
105.58 83.3567 339.237
105.719 72.1104 382.351
116.271 169.543 253.097
98.3816 94.1597 354.008
101.914 111.843 387.709
64.5348 70.486 309.417
80.6138 92.0452 355.648
112.142 55.6832 349.652
102.809 40.1414 305.952
96.1144 143.234 257.216
87.7255 139.433 110.663
107.785 44.8999 295.546
117.823 156.468 213.105
86.4171 43.8902 291.321
107.942 79.0726 315.45
75.3638 162.498 269.011
104.946 122.825 130.754
98.8371 142.351 143.675
110.275 185.048 161.733
109.011 87.261 43.5927
114.04 127.318 269.568
99.9746 118.328 151.467
109.595 261.366 286.891
115.51 183.429 245.515
79.0489 88.5732 332.515
123.544 187.071 236.536
116.598 84.3717 350.767
109.645 99.3671 34.9228
120.49 186.721 173.997
91.7852 64.548 373.983
106.248 143.299 155.517
105.514 245.304 274.293
109.652 234.385 271.538
131.69 127.613 204.074
98.1625 237 286.364
101.162 97.7911 47.2534
121.586 101.381 375.28
121.344 106.138 384.301
88.2858 71.9238 297.575
104.925 91.8057 337.989
84.3359 46.366 302.317
112.307 149.278 110.438
95.5766 75.5402 312.344
106.37 88.4421 59.1777
121.123 59.234 305.081
79.9856 149.84 275.357
123.916 117.995 36.1688
104.956 258.771 292.363
121.636 100.079 246.393
109.996 224.39 276.401
106.427 165.458 138.856
100.014 178.082 203.982
116.195 117.076 182.223
103.908 83.4209 244.719
100.976 108.831 362.268
104.784 110.785 66.855
79.2202 95.1329 340.608
76.7106 66.6439 357.096
86.5321 196.594 174.473
118.441 123.491 64.1971
100.356 127.669 99.5273
118.124 151.894 138.283
128.416 89.9957 383.087
114.381 80.5843 359.904
100.682 240.468 281.345
87.0869 200.133 283.895
129.521 219.954 248.617
105.201 92.077 351.895
87.2275 87.2319 375.13
113.223 69.8014 335.358
120.409 92.1165 380.86
101.415 58.0949 319.676
127.898 189.506 184.049
93.0758 75.8865 299.034
83.9329 100.804 347.539
93.1899 45.9927 318.024
91.9328 70.8085 287.4
102.313 100.254 356.591
77.4817 45.0243 294.884
90.6809 108.614 376.528
88.9956 84.5537 299.352
123.533 65.0272 329.14
111.006 67.3338 313.208
118.058 53.1714 295.316
110.013 35.763 309.059
86.9556 205.498 208.134
112.85 76.1967 344.884
96.9342 139.594 80.2441
100.22 86.2368 322.351
115.799 115.786 65.8462
92.964 96.6367 208.171
124.901 255.578 288.424
87.2862 188.436 161.844
106.091 128.597 102.039
111.193 86.0358 339.581
88.4111 207.649 285.198
113.149 116.659 26.8773
93.4048 244.896 294.521
89.3354 178.204 217.281
114.397 111.504 386.941
100.156 84.7181 338.796
111.808 60.5741 343.47
79.3279 199.662 220.353
103.763 155.507 108.628
124.954 57.6073 327.383
91.2535 195.753 239.19
89.5161 37.4599 307.933
71.7989 187.052 238.976
125.216 179.862 160.573
131.059 155.822 197.401
92.2483 193.334 273.872
116.134 79.75 332.41
76.3016 47.6306 287.607
117.272 39.3716 309.296
118.366 73.9253 368.194
112.833 127.63 50.0609
87.137 67.7987 362.911
108.828 66.5127 375.703
105.709 128.768 251.729
87.9327 56.1445 337.854
106.173 56.7422 349.637
112.479 225.397 254.461
91.217 206.682 200.584
121.517 62.463 335.86
117.667 97.5527 248.49
131.248 145.867 201.918
111.341 51.6296 293.714
121.785 142.322 109.905
87.833 99.1195 377.953
96.1828 82.0392 391.962
94.0219 126.307 90.3054
108.503 61.078 355.344
108.233 109.822 208.658
106.948 51.1232 329.145
73.0967 86.4075 329.39
112.349 126.184 81.5309
63.0164 64.5118 306.707
98.1702 247.674 308.825
66.6589 56.4798 312.726
76.7017 75.6292 291.28
73.1635 90.7953 359.08
110.639 136.011 82.7242
88.243 148.932 105.493
107.564 216.596 301.66
105.862 187.563 245.28
98.5826 55.4975 352.518
125.951 231.308 289.362
81.9741 202.787 215.251
108.722 58.3858 298.625
112.69 155.129 105.6
95.9049 96.9346 347.674
99.88 91.8202 54.2374
82.3548 45.3846 294.468
122.493 146.167 84.3917
102.538 141.15 108.913
99.84 120.859 54.8347
105.497 255.177 278.296
105.185 115.243 52.0636
110.839 220.696 298.549
95.609 105.781 372.585
91.5016 127.923 97.1152
98.7038 152.036 253.585
110.639 143.136 112.084
74.4178 81.7223 319.777
89.636 83.2397 314.558
119.338 254.774 265.96
103.516 149.499 110.311
130.234 127.667 247.061
117.322 214.258 292.971
105.595 104.133 26.1498
115.889 159.162 87.9882
97.1053 114.11 366.949
111.955 130.37 107.839
96.1372 181.486 255.322
102.739 116.571 375.569
98.6073 94.9988 337.789
83.6391 66.4858 301.41
90.3318 204.581 304.684
103.364 48.2355 286.218
88.1087 234.626 309.467
64.04 46.9628 302.645
81.2433 124.565 270.893
96.8939 111.958 162.438
97.8885 145.572 82.1002
73.4571 175.782 243.375
107.123 157.698 100.842
92.3921 61.1193 321.217
102.019 51.3937 333.407
87.8567 175.948 173.404
118.514 124.513 35.9782
105.402 110.031 373.762
83.4748 132.137 101.155
67.0365 49.9987 308.219
85.2387 186.003 255.096
67.4292 54.4167 290.73
100.873 94.9181 347.058
115.996 124.967 89.6388
108.057 69.7019 319.367
84.5571 41.2137 306.252
115.054 72.395 348.147
111.625 111.578 67.4626
108.285 103.036 68.676
119.85 211.372 240.979
92.3999 63.8452 383.094
103.259 191.822 166.365
110.205 107.957 188.764
101.669 65.1722 287.798
99.6558 40.9642 317.291
116.854 145.563 111.286
81.741 87.3313 314.099
115.199 89.2976 40.1269
103.181 33.8673 325.191
100.783 79.8513 318.822
87.2194 61.7414 342.787
120.854 149.234 90.2758
100.339 102.872 350.267
112.89 108.549 367.586
74.7776 72.6123 300.034
97.9034 173.384 224.256
98.5124 202.928 216.064
92.2343 141.615 105.68
90.1062 81.5342 338.638
104.559 124.379 34.9781
100.303 69.9277 289.544
98.1094 188.509 286.041
103.133 243.234 311.18
116.817 125.187 213.432
77.753 186.304 217.417
108.109 203.929 246.114
116.292 149.584 105.639
73.3058 46.125 298.51
114.534 139.424 114.8
86.5564 141.997 85.0967
100.7 52.5399 284.904
110.427 141.784 81.0625
96.3476 43.5902 306.92
113.438 82.081 326.561
106.419 47.4649 336.071
88.1983 172.662 238.611
99.9585 94.7013 41.9108
98.4794 204.295 208.909
116.848 132.771 109.502
99.0262 152.779 109.353
127.879 141.399 166.205
113.509 157.188 97.5034
70.9067 184.032 245.714
95.8653 86.0323 330.869
125.843 90.6371 367.123
92.0442 36.1513 301.805
78.4155 51.9392 308.405
98.2312 71.5924 298.537
113.359 118.578 228.862
103.503 57.187 288.384
106.783 159.253 93.4587
85.0843 81.8858 306.855
83.1652 191.07 173.314
106.357 145.568 112.413
102.96 53.7554 326.631
94.0966 89.3557 341.944
126.222 170.237 249.287
105.007 50.1596 344.062
120.881 104.29 363.84
114.967 93.8349 365.462
95.8175 55.8054 325.924
96.2883 250.678 301.161
129.833 123.581 186.454
120.534 89.1017 36.9128
79.9176 64.4065 285.148
91.166 205.241 218.001
109.338 161.565 222.67
123.993 80.5282 364.538
97.0144 189.472 245.565
67.389 64.1751 289.107
94.6972 86.6157 385.322
109.172 125.213 96.1554
98.1519 99.7987 50.7426
92.8585 59.0704 352.864
110.339 93.2173 358.935
109.079 191.252 173.369
106.049 126.462 44.8913
106.543 100.797 46.9338
79.9909 59.5012 288.689
103.88 199.551 221.317
104.305 58.726 358.457
116.958 149.299 83.2951
89.1602 60.7037 366.257
102.769 179.916 149.531
73.8259 74.8725 355.069
122.032 89.6833 45.8038
94.4474 234.605 314.502
95.3351 197.764 171.003
73.2617 60.2623 325.447
91.6272 89.1213 315.986
83.4416 66.4586 310.435
111.995 225.82 270.195
100.471 101.979 63.67
83.6468 140.704 92.4897
83.1666 184.751 188.256
73.0759 88.0118 336.433
109.406 235.124 301.879
112.444 91.3452 32.3738
108.055 90.5048 254.026
114.689 49.348 299.777
78.5159 72.2887 303.958
92.7873 156.07 142.233
89.4275 88.0547 327.05
111.016 121.299 240.751
77.435 57.5894 312.583
97.8632 39.5394 297.435
122.241 76.4559 358.434
100.403 103.081 375.492
104.722 112.496 135.953
77.9927 160.995 258.723
126.656 122.019 36.9321
112.686 176.831 152.552
125.041 56.4808 313.709
96.41 55.783 363.924
67.7386 56.3608 325.072
82.9744 55.995 338.061
88.3939 56.4394 331.464
117.717 257.95 296.454
102.172 156.596 96.3423
102.449 139.904 82.5436
129.796 113.935 36.6286
68.9127 72.0715 291.344
102.122 103.033 31.9758
114.993 36.2645 315.036
75.7866 79.5557 303.374
117.967 130.385 217.636
72.272 80.63 306.39
130.337 221.648 257.434
105.302 133.939 109.912
107.339 76.6256 321.662
89.8474 96.2221 343.206
110.353 123.164 56.2208
108.692 104.576 375.725
91.4508 71.9606 381.084
86.344 201.297 231.508
69.1825 49.366 300.16
84.6684 179.085 222.104
86.4008 105.799 274.807
118.629 79.5694 372.528
99.4097 103.614 44.6705
117.059 218.942 240.916
91.7752 149.738 276.222
78.2467 59.1661 319.222
108.229 74.7994 303.811
87.4359 73.0988 216.051
82.8176 39.5199 294.64
91.0389 54.2184 349.816
118.076 52.9301 338.201
100.504 100.009 38.9527
104.206 207.534 304.381
95.835 62.2625 359.411
110.318 71.0911 388.221
84.6916 74.2036 319.459
105.071 72.5869 376.188
97.459 157.146 105.686
102.932 59.6367 352.185
96.1809 187.77 273.26
115.668 192.593 233.32
83.2526 184.322 208.005
97.9471 156.395 94.0816
107.662 66.3779 360.498
100.02 116.395 58.9066
112.868 94.2821 64.338
92.6016 145.075 86.2119
83.9987 140.383 278.111
78.1477 68.082 295.81
92.7579 100.766 198.486
111.439 136.779 109.85
71.8507 171.321 255.059
81.2646 83.7629 382.227
92.8442 61.7168 343.275
88.8211 127.721 279.623
108.854 119.235 272.157
122.995 120.773 51.7547
115.251 80.6526 49.0257
116.074 103.966 360.86
88.0604 136.904 103.353
108.64 59.9059 290.578
101.599 109.279 367.85
107.992 153.036 105.443
101.81 249.032 279.516
115.307 74.502 338.642
88.033 67.5001 356.223
99.7201 131.464 104.966
90.1516 69.3435 303.314
109.117 253.51 305.208
121.457 124.734 180.914
105.012 70.0692 292.96
57.1285 60.677 314.785
100.118 199.499 302.798
112.734 260.657 296.416
106.924 75.2331 332.949
85.421 213.759 305.392
91.7947 74.4379 237.764
89.8791 39.5215 326.49
93.2698 200.745 228.29
88.7464 88.2057 339.459
85.8238 58.5509 358.331
86.3343 146.895 91.0249
70.922 74.3086 304.975
95.6183 139.204 111.268
117.147 56.8827 343.398
95.3464 104.799 47.5969
117.633 55.4211 331.434
80.3619 169.976 245.703
107.631 153.128 84.3077
119.954 57.8604 338.777
118.815 92.9704 61.2321
79.3988 178.951 235.32
103.015 255.473 302.636
104.771 33.3244 305.27
98.54 76.5137 303.519
97.6787 78.5069 336.341
81.9597 185.948 197.251
132.052 149.141 210.45
87.8761 43.2078 299.032
87.2811 49.6965 329
112.711 66.862 383.202
84.979 144.954 99.6774
108.952 56.3476 339.28
104.54 193.269 252.541
104.778 83.191 315.084
113.475 45.5988 328.949
61.9553 78.6802 325.497
98.8059 45.2363 289.343
111.599 169.664 144.694
105.518 85.0377 325.954
81.7726 75.7854 295.391
99.6702 60.2521 289.498
83.3842 90.4448 326.848
81.5132 101.314 357.292
121.644 116.198 190.622
120.293 104.731 204.938
94.644 101.34 354.365
104.346 123.612 50.8011
101.056 98.0332 56.2702
108.687 46.8052 289.84
96.1537 64.3221 287.554
115.428 62.5061 354.391
84.9189 224.048 298.15
105.858 111.488 36.2419
117.851 65.0154 361.993
70.2836 52.7993 316.244
81.8877 201.814 226.411
85.5701 94.3432 373.026
60.9362 58.8441 295.113
109.836 87.0382 354.977
99.0657 170.557 231.726
100.625 117.057 28.6831
103.75 134.86 87.9749
65.2133 74.5081 297.143
98.8905 72.9564 389.782
59.2786 68.8679 302.176
99.9773 167.901 178.326
91.2854 96.9329 350.325
114.798 54.5172 303.481
75.6907 68.8768 341.969
121.093 68.7147 336.809
81.7099 61.8566 343.334
107.725 64.974 298.013
105.987 191.735 294.342
106.027 229.371 305.76
121.526 167.313 147.148
78.4756 78.7649 352.791
71.721 60.2589 317.818
113.886 128.28 43.6868
86.5661 82.3317 371.777
85.4616 70.612 373.103
94.2089 98.8951 392.216
121.586 84.0866 375.199
104.759 99.3089 348.204
117.52 120.979 30.575
98.2535 99.9127 212.072
85.6447 139.684 99.2005
85.6862 157.029 276.244
118.449 64.2158 308.469
109.551 79.1618 339.786
94.0162 47.1512 309.77
78.8789 182.161 227.849
85.4955 71.1523 288.165
84.3596 182.079 180.775
54.6522 74.1059 320.604
119.948 73.3399 375.284
126.481 84.8241 378.165
78.9443 85.7244 319.353
100.294 120.574 48.0532
88.4093 150.781 99.7747
117.434 74.9339 363.183
99.6542 138.043 87.973
124.568 66.1234 322.88
108.109 93.4242 63.7664
99.2468 53.3961 343.92
91.0905 96.4157 355.997
114.121 103.386 375.385
87.7926 173.268 165.605
121.856 52.2047 309.703
115.907 149.721 227.375
109.974 108.216 34.1225
98.3597 90.3748 344.794
106.1 98.4374 64.8876
117.865 66.6027 354.977
104.303 236.403 278.071
114.638 73.3495 388.086
78.6635 79.6143 310.046
127.627 70.58 371.142
94.4257 149.622 88.1405
83.3381 70.9585 356.354
96.4196 157.117 100.892
113.223 74.2403 380.473
109.882 227.476 299.221
92.8737 153.319 96.9782
113.002 65.4709 366.114
102.184 101.385 147.773
90.2536 106.429 261.651
83.4384 48.232 318.431
99.2057 51.4044 338.166
100.874 42.3525 293.654
80.1564 92.8967 367.883
117.176 100.807 30.9192
98.2592 122.944 39.1444
92.4334 76.2236 306.376
103.809 120.685 160.685
106.242 116.916 35.8481
116.513 121.746 53.9296
105.134 113.426 28.7408
64.2339 54.4004 320.532
75.7092 68.2166 285.285
105.801 63.6446 290.68
101.49 149.617 84.3869
110.1 107.047 390.224
120.551 134.004 86.9827
78.9926 76.6086 317.077
72.4759 45.6164 305.098
99.1859 59.78 333.306
74.3258 185.699 255.237
93.6213 55.8722 331.54
104.255 105.094 57.8941
62.8991 58.3886 314.286
100.066 227.94 314.196
82.1506 165.382 253.414
81.5185 75.1379 348.834
87.2316 73.28 306.884
104.36 87.9169 47.563
113.365 112.371 378.391
104.133 219.503 283.607
90.2451 183.147 199.963
112.592 49.7036 335.369
100.9 65.927 304.134
125.023 56.042 332.254
107.875 144.734 249.077
114.111 102.685 368.582
95.1527 113.38 49.4467
90.7147 159.344 98.7044
97.1982 68.8486 375.966
60.4063 58.2333 320.297
91.4934 154.865 89.5815
60.2346 73.1859 330.032
103.461 87.8087 331.653
77.0542 175.019 266.357
116.189 74.6316 331.394
95.0387 95.6503 380.763
108.222 104.576 365.126
95.9852 60.7239 369.921
67.7168 83.2348 308.971
105.075 116.718 249.793
102.015 106.973 35.646
97.1515 203.224 184.298
96.87 48.8015 328.643
95.4506 80.5991 254.666
106.546 85.1516 53.1115
108.41 78.858 310.125
112.403 88.7332 49.3801
98.2115 100.678 382.235
115.439 49.3254 331.62
116.649 60.238 300.302
117.122 74.2466 324.401
80.5312 46.371 312.371
108.438 151.868 110.739
114.786 105.572 65.7106
91.1271 73.0341 373.602
105.463 104.518 371.178
101.947 92.2643 48.8304
97.9092 93.0944 156.432
91.479 104.21 363.094
101.869 109.691 61.0994
113.408 54.3206 361.95
117.984 45.1162 319.299
101.544 62.5422 362.814
118.185 60.3388 311.931
104.36 154.128 132.384
89.137 150.906 91.7733
112.124 70.982 361.108
83.2588 83.2483 211.41
95.725 92.4237 334.084
96.4161 189.17 157.603
100.335 92.1328 266.14
117.872 154.586 93.9428
101.005 111.385 56.0846
97.5874 40.1306 302.41
118.978 77.9535 394.486
119.889 71.0486 357.477
87.827 49.9922 289.125
78.6773 64.0279 332.003
111.417 111.021 39.3145
77.5062 89.3424 326.442
87.7933 60.6447 352.122
66.9354 60.8122 294.756
68.37 59.6784 334.536
73.4089 52.3104 324.862
88.1095 75.0866 311.277
100.581 80.0282 331.289
99.9907 60.1051 344.853
79.6794 84.4863 370.711
89.7292 98.7487 368.867
103.472 92.8192 59.5722
101.716 70.8691 314.562
59.0747 62.1713 324.282
107.388 52.9191 288.115
123.692 84.4538 368.607
105.592 184.023 156.875
106.876 120.453 43.9796
71.4492 174.812 262.549
119.134 87.6398 361.526
125.965 70.7406 388.857
64.0777 69.7142 336.05
85.391 79.2226 366.849
84.6178 179.265 262.391
59.1887 57.8813 305.425
106.363 105.536 41.9015
93.6791 132.908 105.506
116.135 64.5116 347.618
104.728 107.241 381.533
105.182 131.812 105.076
102.019 114.545 45.614
80.3688 52.6704 313.991
64.6034 54.9682 301.828
77.0355 195.355 239.368
86.5389 206.277 273.219
110.172 106.232 61.9152
117.593 76.8946 384.107
108.092 41.1381 329.63
118.705 142.511 84.6982
84.0186 56.441 320.502
98.3077 88.0301 325.431
113.766 111.479 28.0116
71.6369 87.2394 343.519
83.5878 85.5228 344.552
66.1946 78.3812 305.979
60.5649 62.3021 300.09
93.4674 71.8878 292.322
104.267 129.384 88.9431
72.2172 67.6605 352.931
112.752 234.246 265.084
102.726 76.1685 339.063
67.9267 70.5811 342.36
95.9666 134.031 110.336
82.8509 132.491 264.064
121.169 64.2496 341.83
101.974 66.6067 344.353
87.5599 91.8273 320.29
99.3412 101.352 368.448
119.38 67.7059 330.075
101.38 59.7729 337.744
122.286 81.8855 385.959
72.3683 83.9899 313.951
92.1115 78.1427 382.997
68.413 86.1694 317.395
104.701 121.448 57.9703
92.3879 104.216 383.67
86.6862 93.2871 384.732
79.366 61.9578 337.434
108.871 116.921 65.6717
124.941 148.575 89.1746
105.44 56.6559 364.451
80.7332 89.883 372.32
78.5471 52.3293 328.896
81.3079 201.751 210.373
89.0833 230.228 292.964
96.4061 61.3083 306.812
102.265 128.331 145.507
66.8143 81.6482 331.495
81.8888 87.6669 365.476
55.2997 66.9362 315.779
101.093 100.282 363.507
74.5649 70.0963 334.258
83.2254 166.948 272.008
116.387 80.5959 364.427
85.1018 84.6211 320.907
84.1488 55.9746 350.233
99.8779 45.311 325.807
62.3562 75.681 302.155
107.267 79.9689 324.877
120.23 99.6872 370.749
104.068 145.827 82.342
58.2621 63.3699 308.832
63.9488 66.2574 330.611
79.5958 73.1378 370.11
110.919 124.159 40.8684
81.7095 76.5748 374.418
92.6818 63.8254 356.463
119.555 89.7126 366.148
122.65 69.6293 380.12
80.1971 189.743 186.729
107.469 94.0624 52.3326
84.7315 226.223 311.687
65.1144 67.0562 297.624
79.3173 54.0857 344.101
105.132 70.675 298.048
117.048 124.127 41.9984
93.0608 61.2187 335.79
107.266 125.955 157.004
111.189 62.7426 307.036
90.6241 49.2969 323.644
82.0957 83.604 354.1
101.154 109.472 45.9074
90.9099 84.1557 381.148
94.2514 46.1773 333.439
109.792 88.878 33.8106
86.9613 36.085 300.654
72.1933 49.0021 294.238
78.7448 85.9526 347.921
82.6151 88.8209 322.425
82.1199 86.5515 359.271
80.9666 70.5455 347.903
72.2265 67.7767 330.831
91.9208 175.587 177.768
85.5997 93.1867 351.624
96.814 97.2443 360.869
108.569 119.503 61.1839
86.7034 90.5389 342.524
106.503 114.514 61.5704
67.9803 76.1698 332.123
73.0039 87.0764 322.677
95.9332 179.422 146.966
106.01 109.932 50.8858
84.7261 77.3444 354.73
64.4161 58.7637 329.554
85.3622 58.6874 325.043
105.478 94.9955 43.0476
96.5937 169.17 139.188
71.069 68.4804 299.187
70.6923 65.3238 338.241
115.039 100.643 64.6544
122.743 120.93 42.01
96.6533 113.23 38.21
111.747 123.863 32.2805
118.178 71.5382 352.75
117.059 67.6628 375.541
76.5475 73.7181 343.805
85.1658 87.5328 353.517
115.65 72.0066 309.799
121.469 155.282 106.499
82.2505 71.6082 364.734
66.6038 80.0902 315.349
86.2667 75.4489 377.719
69.086 53.2799 296.531
88.975 55.8525 320.394
107.753 115.898 42.7485
88.3775 91.4461 366.281
112.851 115.757 33.0061
90.1037 96.9716 362.902
123.869 131.75 173.543
101.956 108.411 41.2465
60.2056 78.2481 311.729
85.6234 95.6721 357.746
78.2091 50.436 336.964
73.1824 60.9338 342.6
107.532 153.306 244.883
101.122 135.709 108.271
94.8477 84.7662 316.089
74.0655 49.0154 319.982
83.3343 90.2302 348.078
85.9346 204.169 196.007
87.8111 70.2474 367.337
74.6926 77.7195 312.882
118.632 89.0239 42.8119
84.2133 83.5183 364.536
80.8223 60.2161 351.223
122.725 111.458 197.171
86.7945 80.7575 379.076
77.1638 80.4404 364.026
116.529 117.629 43.14
75.1886 83.293 349.761
112.43 121.97 50.4532
92.3248 176.633 184.085
108.213 100.31 58.9891
79.5679 194.304 245.269
94.5311 101.665 368.269
128.634 219.419 288.54
89.2543 90.8613 348.493
108.328 123.271 50.9608
110.86 134.525 245.841
79.2859 65.7476 346.144
121.017 72.7523 389.646
62.898 81.972 319.483
80.7084 55.7008 332.963
99.8814 175.585 143.456
59.0159 72.0701 312.825
69.4724 74.9559 338.1
83.9766 192.598 247.89
80.3793 52.1484 318.904
90.5223 197.918 277.407
67.3928 76.9007 344.149
128.546 133.618 172.661
92.6323 173.48 228.686
103.857 185.882 274.679
