ply
format ascii 1.0
comment Created by Open3D
element vertex 235
property double x
property double y
property double z
end_header
72.0046 76.2123 106.224
21.875 73.6665 63.925
52.2903 27.4704 69.7506
33.5347 102.214 47.8699
70.8481 45.7651 89.429
27.1685 62.2583 98.7469
65.6392 86.7739 32.3867
72.3082 98.5289 80.9115
61.7611 30.7562 86.0626
68.1747 86.479 111.948
73.7058 80.7646 62.1901
69.8971 69.9659 43.8496
29.1255 76.1557 102.932
28.2218 90.0331 100.924
26.914 69.2877 101.745
24.7182 98.236 76.5843
37.6639 98.1287 36.7257
26.79 84.9976 46.152
25.0214 67.4431 50.2906
22.7833 72.58 82.3811
71.0941 78.5375 42.4586
70.937 103.585 88.524
23.2255 79.5191 75.7499
59.194 78.4829 122.951
25.2402 89.834 75.4226
32.049 105.521 57.8736
72.2955 74.0745 80.6522
71.6544 48.2919 80.2434
32.2734 64.6623 38.9894
48.9874 29.7936 62.9209
58.7586 69.7347 121.871
71.7103 87.0441 76.6972
31.9961 81.6515 108.384
29.3506 109.492 78.8191
72.5295 58.3758 50.5382
28.8457 103.152 96.7306
68.5367 44.2598 96.8881
72.5938 85.8277 51.897
28.6623 94.6209 51.7402
57.6156 26.8807 78.5076
64.9377 46.3976 107.672
72.0907 52.339 67.0199
34.1765 96.3728 109.534
68.9335 44.7579 62.226
28.8086 37.9226 85.7612
70.4463 99.2888 94.2489
24.9756 51.9768 68.9788
59.2182 39.9488 108.49
63.0448 101.373 38.1179
72.4168 63.1097 63.4046
71.5058 75.9704 95.5352
22.5081 65.9132 72.8266
57.0464 48.7762 115.729
68.8256 109.945 68.823
24.0893 56.3491 81.9546
69.8736 56.1721 105.601
38.1912 70.8559 120.363
68.7667 96.3952 41.869
70.9179 53.6721 44.7629
28.232 77.5482 41.5304
72.7145 72.0025 71.141
72.1067 57.1027 76.5965
69.0635 82.3259 37.5921
71.1568 101.683 59.6347
63.3735 113.126 56.6122
69.3403 41.5285 82.1124
45.7974 94.0078 29.8571
70.2845 98.8431 50.0017
49.503 24.0812 77.4987
23.5349 89.2993 83.6678
68.3301 108.562 57.7179
25.2327 76.8851 49.9776
68.9426 95.8391 105.279
66.9795 104.77 47.6106
64.9514 61.4679 116.36
43.0749 118.767 86.7596
25.0264 55.9585 89.9756
24.0022 59.8057 60.6218
70.0362 88.3851 98.6103
29.5929 54.6356 105.942
43.8366 61.6246 121.942
67.8227 108.172 98.5209
66.4381 110.638 89.8892
69.4729 54.8159 94.2622
60.9273 30.4746 73.135
50.1167 118.125 66.0867
59.3202 31.0755 65.0958
60.0032 59.8391 121.205
54.9832 39.714 46.4097
60.5325 111.339 102.1
36.5887 87.5931 115.152
66.0379 38.0172 66.1982
66.5943 73.6405 117.731
43.6449 53.4719 119.375
72.9061 94.7484 65.0033
71.2558 63.6334 48.1212
28.8693 99.3151 65.6842
35.174 109.336 99.0572
26.1468 47.5139 88.4688
41.3938 101.255 114.502
70.1737 58.9694 89.0828
71.3948 64.0421 99.7242
31.1557 47.8438 98.1917
25.7611 84.6423 92.1621
53.4067 89.1736 28.2125
27.9291 106.83 84.5084
70.4574 47.9154 54.5685
71.3066 64.4223 110.053
54.7301 27.5052 88.4938
63.0078 114.526 63.757
49.6347 68.3122 124.141
39.5411 112.823 58.989
41.197 26.2899 77.0294
34.9825 36.8135 55.0881
32.986 55.2971 43.3602
51.8656 103.409 36.6358
62.042 63.238 30.9324
40.8083 116.903 94.0943
65.962 74.3377 33.7555
47.946 74.7972 124.547
60.5819 74.9113 25.9644
61.4687 43.3268 44.4438
60.3757 111.058 50.2414
57.5432 107.288 40.3791
70.7896 90.3004 43.4974
55.0116 97.334 30.9434
69.5483 40.7806 74.8442
34.8912 74.6549 32.456
66.6449 47.8434 46.2672
28.8405 51.0752 58.1718
32.3054 33.3722 79.7326
42.2167 112.582 53.1125
32.8552 32.8601 70.8459
66.1575 36.2397 83.263
54.502 33.3385 103.452
33.1178 88.9866 36.2924
47.4268 24.9004 84.1021
33.9384 75.0221 115.864
66.4154 103.815 105.404
36.3906 60.8488 116.043
52.3246 111.969 101.928
59.798 32.7977 95.3175
31.921 94.0199 41.7035
27.2524 54.0272 96.8801
23.4345 64.2835 87.9904
49.8388 49.9805 117.095
30.8171 62.6381 108.138
28.0352 42.4796 58.7429
25.3762 86.4611 62.2183
48.3512 31.5274 98.2287
64.2697 37.1493 99.1577
45.77 81.3452 25.4044
63.0277 90.779 117.32
55.6347 97.8028 117.503
65.3626 37.3826 90.973
39.579 108.035 45.8651
68.6022 61.4211 42.3358
46.1537 55.5292 29.7913
49.0769 118.037 94.5148
29.7375 104.172 68.6171
36.5405 52.4565 114.574
54.6291 44.9881 39.6159
65.914 39.9099 52.963
28.5979 37.4558 71.6767
23.4016 58.0073 72.9591
58.2704 104.161 112.334
44.7723 87.9658 120.928
48.2886 36.0257 48.6808
72.3131 53.6964 59.4956
53.3589 80.0426 24.1604
54.6963 118.913 85.998
36.5299 47.4926 43.9301
62.6001 115.201 79.2409
51.9139 109.51 41.5908
32.1744 68.0729 112.862
43.5598 116.32 63.0795
45.0293 101.374 35.765
54.8956 91.6304 121.455
40.1182 108.199 105.67
32.6001 102.485 106.495
43.3375 36.2298 103.392
28.2458 96.1987 97.6421
36.5855 33.3537 94.2441
40.7116 42.0663 44.3697
33.9081 115.293 84.1126
66.462 54.7518 39.3355
53.7951 114.688 56.8767
26.8442 101.803 87.6679
46.7446 73.2019 24.8521
26.3481 46.0218 72.5491
40.7989 26.7136 87.8886
44.972 109.071 42.8596
32.2551 113.286 89.6363
32.4103 48.4526 49.5582
42.1093 30.5184 62.6927
61.4302 36.1674 56.1993
39.2893 55.6609 37.3707
37.005 85.4543 31.1188
58.4139 86.9201 26.2234
53.9047 83.8934 124.337
39.1462 44.0484 105.569
42.5466 117.775 72.9121
63.1416 80.9472 27.6244
50.7362 68.2253 28.0385
49.9226 113.392 51.5782
39.093 78.8195 119.876
35.4782 113.817 69.0796
42.9893 117.45 79.3643
31.5583 40.7896 94.4512
32.7842 34.3065 88.1997
52.9786 111.235 46.7887
33.6756 41.4163 50.728
45.1618 86.5283 27.6596
25.8881 45.5023 63.5997
39.9966 33.8648 58.8826
37.0695 29.3079 83.4703
32.9921 109.399 67.422
47.2144 105.893 112.36
44.9972 28.4847 93.6809
27.3587 40.5286 76.8224
54.3723 57.8041 29.8878
43.4959 26.7903 68.3116
50.2064 39.336 109.543
31.805 34.6758 64.1765
50.6056 62.8699 27.762
39.2098 62.1308 32.211
61.7794 55.0293 32.949
42.9657 45.2549 113.725
61.1483 98.2347 34.4348
47.4058 31.23 55.1042
44.3051 47.9836 39.0912
53.1931 52.6944 29.7549
49.0618 40.4658 43.8334
38.665 37.5567 49.711
49.8813 50.7095 34.5468
