ply
format ascii 1.0
comment Created by Open3D
element vertex 1577
property double x
property double y
property double z
end_header
131.747 120.143 204.147
125.655 261.402 67.79
131.75 107.917 184.129
127.599 236.266 82.4333
120.515 133.961 249.193
105.149 184.017 206.617
120.988 111.432 205.322
114.34 44.3853 255.217
103.541 264.488 142.811
132.541 36.4744 203.661
127.662 22.1154 246.738
99.4755 154.71 209.956
120.652 224.023 127.778
90.9704 163.918 169.388
100.157 165.167 168.643
97.2267 155.976 165.762
131.637 176.47 272.734
131.889 39.1069 257.712
57.6232 194.437 203.554
132.028 134.261 187.144
131.779 256.54 97.7753
129.727 275.778 74.1456
81.5401 222.076 72.6339
128.79 122.12 162.143
114.555 153.429 162.417
108.858 184.425 216.574
100.81 108.796 293.981
130.773 222.856 158.266
127.528 138.227 167.036
109.939 169.415 282.349
115.448 216.119 131.6
98.8612 252.108 152.238
132.818 57.4475 236.683
130.251 155.47 177.656
110.991 136.213 195.384
86.8051 245.397 66.5363
86.0833 189.413 181.702
133.383 49.6349 205.789
131.805 149.612 206.412
131.361 129.927 284.446
131.436 275.198 100.507
131.392 123.38 276.724
131.732 132.881 292.69
105.971 180.753 271.172
117.706 324.632 100.719
116.866 61.766 273.431
96.7396 151.155 199.664
131.619 249.756 123.166
82.1428 168.873 219.516
66.7184 167.422 145.1
111.791 120.62 175.829
123.377 261.238 128.213
132.518 49.8256 243.136
113.543 30.2974 285.822
131.402 94.5363 291.401
91.0958 209.159 65.193
95.0922 254.986 72.3785
115.416 72.7806 321.799
134.073 35.2882 228.898
131.17 172.805 237.443
96.9906 258.337 147.782
113.678 327.34 117.721
131.434 158.468 195.554
94.7602 160.248 289.353
105.986 58.9238 317.662
61.7772 182.371 293.243
96.851 219.549 84.1052
80.7394 176.172 135.35
131.661 233.026 103.401
100.774 172.738 174.498
131.335 294.226 104.525
118.276 118.107 193.844
131.785 293.31 132.773
129.165 204.001 119.156
131.691 247.573 145.307
131.291 141.804 275.305
131.634 132.042 269.912
131.398 162.813 276.138
89.6743 208.897 86.9309
101.247 184.893 266.362
131.939 216.485 176.618
96.9738 186.641 114.697
98.4429 56.6426 319.103
132.747 89.0986 212.702
107.879 196.799 255.209
109.398 37.7227 266.828
123.159 84.2779 226.438
113.703 123.232 328.974
131.058 40.6015 282.334
55.2954 179.088 122.8
100.983 186.083 138.032
104.819 159.083 165.114
93.9592 218.464 165.365
119.86 193.24 179.633
131.518 80.9303 260.214
124.707 36.4531 287.534
120.917 25.4388 272.693
131.494 272.989 112.453
131.33 119.746 292.715
131.552 154.002 287.909
68.0813 193.936 187.617
118.975 91.8142 280.005
131.036 262.764 75.6332
128.841 317.1 138.778
124.629 239.765 110.668
132.631 59.3476 202.538
123.281 103.164 221.167
89.5101 171.217 173.832
90.0287 182.279 267.721
61.0282 179.929 103.774
113.954 149.281 313.163
105.201 183.581 155.752
110.689 249.999 147.955
101.869 116.186 330.298
132.288 113.958 243.188
104.15 232.299 156.524
116.417 142.518 255.562
107.022 323.482 101.536
101.675 201.324 141.781
99.1255 191.547 260.822
116.592 181.643 277.022
123.806 117.187 224.405
108.855 173.145 175.497
112.161 134.893 273.131
91.862 257.055 65.5686
131.888 265.48 104.164
119.901 70.851 272.15
119.518 227.862 78.9556
72.4434 202.849 257.986
113.028 229.995 147.373
132.227 235.865 163.07
70.9586 170.456 152.506
131.15 234.006 115.27
72.3474 206.595 248.531
79.347 174.014 147.586
118.862 52.2077 207.439
131.836 233.463 177.224
124.594 95.6617 250.94
109.496 258.072 145.115
118.456 35.5667 291.272
131.14 180.464 242.665
102.673 235.757 176.647
131.357 67.539 256.684
132.285 122.935 239.063
130.627 317.39 130.711
106.377 261.407 51.5935
85.1217 186.966 195.685
119.313 67.4164 248.673
130.704 70.5226 180.167
127.154 311.806 93.4536
131.837 41.0951 271.067
131.265 173.309 259.053
131.143 148.351 314.477
65.0287 177.34 229.216
131.165 99.8735 271.928
131.257 94.7803 262.3
86.5773 153.763 283.013
121.804 80.0113 217.127
113.45 56.4392 312.083
131.727 76.9237 288.011
130.957 139.964 265.971
48.6871 191.262 215.135
106.398 277.063 56.4769
124.299 103.1 251.036
130.584 30.6555 266.966
131.16 143.431 290.598
78.0909 214.656 71.4627
131.607 262.222 115.734
80.6966 105.443 304.726
131.946 95.9173 204.623
126.538 30.9538 277.708
116.308 108.683 159.873
131.365 108.981 265.278
129.804 92.434 319.503
113.278 142.933 318.155
130.159 112.239 323.164
121.865 126.329 252.988
133.235 214.056 132.325
131.382 104.219 168.891
89.5279 182.366 127.845
132.083 128.228 204.464
108.293 166.483 169.007
132.293 250.178 102.446
85.3189 181.221 186.111
82.8297 168.095 286.494
131.988 116.463 255.866
113.293 291.243 78.8809
74.5371 85.035 311.699
130.418 306.138 113.724
119.378 281.883 59.7758
121.725 159.072 168.161
115.04 174.255 178.719
130.31 144.833 260.393
114.022 268.902 55.0328
131.965 116.285 185.708
120.394 324.663 132.973
130.707 283.586 80.5546
131.04 108.935 277.113
100.928 321.402 115.859
90.6153 198.796 191.277
107.214 288.35 63.8349
132.373 86.1137 284.011
113.312 166.815 289.335
131.641 67.7008 283.212
91.9155 84.8413 333.356
93.5442 240.173 176.267
46.0337 174.889 298.931
123.265 176.07 187.823
79.5792 172.912 113.173
85.5329 231.897 72.1772
132.466 114.867 233.411
131.85 126.238 219.743
109.463 207.1 134.466
89.7754 166.884 223.232
80.4926 202.328 227.23
89.502 170.7 231.193
97.4235 227.24 56.0787
96.3938 246.541 75.1719
132.068 222.719 104.375
107.824 327.466 109.57
132.428 100.256 219.541
115.115 264.767 84.9498
99.1428 236.341 52.0135
119.937 44.9747 203.513
119.14 51.55 216.493
85.4486 183.945 174.881
131.607 241.876 96.139
86.6599 175.057 240.951
131.871 79.938 246.715
122.054 321.137 139.589
132.645 79.9092 204.494
110.863 214.13 81.2948
88.4168 174.103 251.454
117.865 130.204 263.579
116.481 73.1826 203.759
131.455 52.4884 294.795
113.124 241.405 148.156
82.8777 238.86 59.1275
124.387 95.8176 227.225
131.863 270.599 143.988
122.894 198.867 184.681
105.351 74.745 328.116
111.366 55.588 277.636
101.368 192.871 186.836
132.277 94.6553 229.575
132.077 88.6346 253.722
131.222 267.108 128.613
119.504 184.867 217.063
115.526 64.9049 199.925
130.133 112.543 299.965
115.991 175.848 282.347
103.957 46.2914 281.547
115.897 27.5662 243.737
124.998 286.573 65.4989
123.485 96.865 261.677
131.204 281.712 91.1507
100.808 183.39 174.608
124.536 94.2612 328.631
131.167 224.821 122.692
118.373 187.713 147.506
114.146 220.466 140.477
115.795 60.3395 249.591
91.2956 233.683 183.209
121.613 218.327 87.4511
76.9146 158.279 190
111.704 140.873 202.266
126.844 169.572 183.781
126.616 316.242 102.57
67.6502 167.701 123.064
132.197 60.6483 297.466
119.486 42.5657 213.756
130.873 169.699 276.322
128.271 215.152 94.2441
124.614 94.5946 240.698
131.75 82.157 227.425
106.231 180.912 169.772
121.343 74.2298 235.643
120.707 164.083 303.11
115.771 87.9544 330.771
133.546 38.1715 217.86
120.075 292.812 98.2068
130.977 62.7688 181.967
119.626 59.8275 310.932
120.727 70.4437 219.973
101.842 124.051 325.259
106.233 34.2864 288.411
130.089 146.131 252.342
130.425 136.733 257.988
89.3448 181.419 114.573
131.087 74.2713 252.503
132.228 171.236 215.555
122.955 284.438 103.705
98.7151 298.232 125.17
129.827 183.128 231.474
55.4396 170.519 306.039
98.2412 102.156 297.183
108.294 149.572 303.319
114.098 186.879 175.145
98.0364 167.651 240.942
77.6183 164.154 293.835
101.442 190.629 233.66
115.469 327.871 108.948
92.7965 137.245 289.028
114.088 90.3596 287.937
121.391 111.553 269.36
132.384 154.821 278.675
92.2107 244.403 51.6945
105.104 274.972 137.069
118.217 23.0543 258.838
98.7147 182.418 146.344
101.125 222.587 158.859
106.917 296.064 123.783
87.6125 250.307 57.0711
121.412 73.8285 251.349
113.427 115.252 163.186
108.603 312.622 146.855
68.189 207.21 241.766
115.741 73.0301 282.932
118.911 308.089 153.779
112.692 97.4651 335.108
96.768 161.361 222.032
132.054 214.3 142.207
95.7606 186.671 215.76
114.846 161.58 296.884
91.0837 259.414 56.9305
124.635 115.853 233.584
111.721 235.589 60.8003
112.245 123.546 161.411
131.915 143.163 193.307
111.472 216.154 100.564
103.43 160.063 232.841
92.7138 198.094 150.39
82.319 174.19 120.831
130.945 289.368 93.853
125.181 104.486 240.662
132.406 105.949 203.013
103.56 85.5572 298.2
55.1388 177.646 301.075
93.4043 183.992 176.062
75.1455 206.571 236.663
110.425 65.44 283.885
58.4792 166.029 137.323
93.0966 249.005 155.516
131.469 256.374 143.436
131.481 125.196 304.784
132.949 275.472 162.92
107.823 294.895 151.382
124.439 265.481 104.867
114.634 129.043 187.465
110.594 319.489 87.0437
116.736 219.314 120.002
112.742 303.258 152.941
108.878 157.554 293.777
115.77 42.9547 237.918
77.0118 220.241 64.9493
125.071 22.5243 257.316
71.0804 201.632 210.498
119.041 241.67 137.781
129.836 209.368 183.033
62.0762 128.795 300.293
107.74 186.806 178.094
121.557 146.78 161.39
130.755 55.8118 183.949
73.5964 170.287 140.134
130.549 30.5713 258.929
42.3251 186.455 277.459
116.568 195.654 257.389
128.995 192.969 156.641
89.4844 148.008 303.296
111.218 190.647 239.912
90.8426 128.274 294.398
127.997 104.988 162.462
119.248 264.51 59.2341
124.742 193.287 172.38
132.36 103.952 237.274
108.325 127.856 282.734
130.124 152.37 269.475
117.109 196.487 114.729
122.114 83.1102 273.126
73.3286 203.659 223.911
122.809 250.37 100.608
131.815 265.168 92.8522
132.266 172.502 204.653
118.694 56.7898 233.717
119.079 61.5646 216.634
127.226 271.019 68.5899
131.529 73.0832 229.889
130.31 139.656 301.624
127.667 214.799 187.946
121.861 321.068 94.3113
100.71 316.751 141.229
129.411 194.985 149.471
131.475 291.746 86.2627
73.5973 154.081 307.197
131.22 113.284 195.766
125.656 84.9849 323.659
132.229 69.6546 298.945
130.828 164.49 215.287
131.504 180.703 249.917
131.334 282.719 136.56
122.696 266.372 172.496
131.45 306.365 124.1
131.757 263.317 135.342
129.169 211.973 101.232
79.9069 305.89 135.91
88.7478 58.2304 319.034
123.326 149.124 318.873
132.045 113.193 284.308
132.392 253.068 164.489
121.798 121.05 260.284
132.002 290.714 144.82
110.231 114.12 284.997
132.07 71.9699 242.255
131.529 122.257 311.373
98.4932 163.645 230.833
116.978 227.162 182.549
115.644 98.6506 189.61
123.758 249.953 179.52
123.622 88.3861 234.116
107.257 311.657 89.7453
96.5376 177.187 162.469
132.314 128.185 195.947
131.205 86.0372 298.472
68.5156 168.574 297.956
123.845 237.141 74.9982
131.63 218.867 150.323
79.1712 176.715 245.97
112.451 161.158 166.401
93.9507 315.715 140.452
116.026 97.8188 163.504
113.882 214.647 111.177
122.854 113.752 259.521
132.179 104.481 226.307
116.537 63.5707 181.563
58.5797 164.123 310.137
114.798 118.7 185.393
130.304 156.5 240.819
62.399 122.07 304.713
118.635 188.12 272.574
93.5325 264.613 141.514
128.242 191.252 260.459
129.864 22.8468 232.263
56.0206 108.689 319.732
75.407 160.719 178.135
131.766 76.8756 278.888
75.1131 192.917 269.05
130.516 306.244 97.0623
130.118 233.14 141.357
132.062 267.147 172.073
106.026 134.949 281.235
56.4724 189.066 288.722
119.855 170.676 294.165
128.315 196.319 135.244
116.142 72.4009 178.236
115.879 76.1025 197.278
125.046 260.123 118.501
130.521 163.462 188.207
78.2285 142.592 292.355
131.62 61.849 243.594
117.697 136.927 214.639
63.4919 138.441 295.945
92.327 145.537 172.126
113.899 67.7445 187.036
90.9207 184.035 106.284
123.662 308.252 77.1318
105.376 149.415 208.89
131.684 66.9788 310.009
81.5709 153.934 178.157
85.746 133.216 293.916
114.336 90.2659 170.222
94.2867 69.1044 302.833
132.071 97.2749 171.305
133.049 89.3216 222.698
124.375 76.8379 321.38
132.283 72.7673 210.574
117.66 221.953 110.956
118.07 274.394 163.087
120.535 244.518 64.8972
131.455 222.907 131.515
130.382 230.517 159.455
131.791 133.551 239.203
100.284 204.63 150.338
132.547 300.802 144.104
122.951 238.196 181.108
82.2001 200.913 194.661
82.7935 175.505 254.248
103.635 219.946 67.0353
117.769 58.1148 242.047
132.127 123.934 187.648
87.4696 198.743 157.523
130.225 146.175 173.695
126.342 320.601 124.161
101.004 277.28 60.6792
83.0309 205.233 240.14
131.639 78.5149 297.017
81.2012 163.306 172.72
132.321 146.397 184.368
117.886 236.451 68.399
109.585 82.5823 294.289
118.693 250.683 139.508
82.765 215.137 79.1021
131.409 118.307 318.805
132.019 99.3486 283.068
64.9094 206.987 248.298
122.791 117.667 215.458
95.6776 156.029 273.768
121.703 192.439 130.222
102.284 229.784 182.526
120.033 63.6208 234.618
86.1797 158.78 204.083
89.7625 105.856 300.357
55.9907 133.036 302.086
103.078 154.12 293.816
131.172 248.413 134.196
129.099 199.084 173.958
89.6546 188.841 95.2677
132.589 89.9382 177.538
131.819 251.382 83.5856
124.117 269.866 122.925
121.805 231.497 130.113
131.763 110.619 174.036
132.473 93.5024 244.714
109.35 47.1228 272.539
132.211 128.08 230.999
130.82 130.895 322.086
131.019 109.021 214.527
132.316 101.862 209.239
128.191 123.623 322.474
129.7 139.203 321.717
95.9742 195.611 189.316
65.2866 92.2143 314.182
122.627 126.883 238.856
93.5177 266.862 60.618
59.2796 98.6053 320.43
122.251 90.3248 268.987
111.764 222.256 92.4803
119.822 72.3628 211.975
129.647 162.82 248.054
59.5468 200.869 208.955
75.5867 192.626 109.737
117.813 260.868 139.096
133.041 84.4709 189.044
95.938 197.03 136.962
131.203 81.6729 317.033
131.618 205.344 155.318
103.823 220.463 188.502
99.4659 181.986 188.964
115.711 127.946 194.455
131.337 142.169 206.865
97.9269 140.375 181.237
120.589 101.783 333.935
116.569 36.3978 232.198
117.888 280.987 129.672
85.1424 193.854 127.593
88.1043 86.5062 304.227
118.243 164.962 170.533
115.63 57.0551 192.876
123.735 133.472 158.673
78.7195 81.119 331.744
131.983 184.39 263.007
122.518 278.377 95.2176
113.359 264.472 161.387
64.4244 174.077 298.62
117.863 81.1721 325.241
119.914 190.085 240.03
132.705 47.9272 194.081
114.208 54.7739 268.38
113.444 154.166 304.313
131.651 176.324 286.215
117.653 46.0638 223.854
118.922 64.3919 210.122
108.707 310.847 81.4113
131.794 221.139 111.97
111.735 45.9551 264.927
123.789 46.6295 189.654
89.772 62.3402 305.669
114.815 111.823 280.653
128.609 255.437 71.539
95.8462 89.5554 301.511
131.563 163.141 203.065
91.1057 219.043 56.4676
132.502 261.714 83.0991
121.942 252.968 62.7484
125.031 104.773 230.5
69.3524 278.359 157.041
57.1623 202.748 268.543
94.9265 167.502 231.898
122.311 125.564 224.582
108.996 186.885 232.716
103.522 179.627 162.893
128.177 245.696 74.625
131.991 204.525 132.32
131.906 127.052 317.146
132.103 77.2004 235.72
131.189 155.58 212.231
131.811 265.045 162.214
132.242 131.052 211.687
115.867 302.92 101.05
93.062 282.728 131.684
103.446 136.155 174.867
128.925 288.187 74.6708
74.8888 124.641 329.445
132.384 63.3495 209.056
75.8064 162.568 198.322
122.061 74.4684 226.147
124.776 257.105 107.683
100.165 253.967 163.283
132.454 283.234 156.739
128.608 174.464 197.021
132.057 274.077 87.5906
123.198 38.0017 201.958
132.953 57.1615 228.062
131.769 236.67 152.313
131.956 141.073 283.047
99.8479 70.1575 298.386
132.037 77.91 306.551
81.8512 175.738 233.689
113.169 185.648 166.164
111.661 184.411 223.743
131.933 66.1159 236.437
132.351 125.129 248.109
109.474 227.036 182.519
131.314 158.772 305.827
73.344 169.415 212.48
104.745 232.848 83.3121
125.45 294.792 70.6674
129.096 45.2555 294.004
130.58 168.203 245.009
102.201 162.651 254.19
130.445 141.003 243.868
113.152 75.4925 186.983
131.792 59.0633 250.709
131.174 120.781 269.111
131.988 71.2831 218.446
99.58 139.245 171.32
133.52 44.7924 229.811
119.519 186.625 162.716
99.9183 85.3316 334.265
130.098 128.398 167.934
132.093 246.206 175.173
123.481 88.1776 250.581
48.9193 201.303 268.486
107.594 83.7361 332.753
72.9713 76.5905 320.374
72.6489 175.587 164.663
132.438 224.798 165.85
122.839 263.229 94.9064
104.093 187.297 226.712
107.042 246.98 51.8117
124.663 113.085 244.826
131.563 93.9 304.983
128.565 311.741 147.193
55.0214 205.06 260.894
105.867 182.891 194.051
133.601 64.7077 227.787
112.056 229.432 68.9833
91.4802 247.017 171.442
82.8128 152.545 301.674
88.7148 154.16 193.573
131.122 172.787 228.354
101.28 323.151 135.83
131.013 130.584 252
114.361 35.7651 240.658
120.543 101.846 274.259
132.402 258.956 156.475
118.714 192.714 247.292
132.471 98.6801 181.397
93.8814 114.001 296.035
127.182 162.465 176.936
128.956 92.3487 165.524
117.94 158.17 308.701
127.804 197.384 127.172
131.418 52.7654 285.451
131.04 58.5788 257.96
115.317 50.0547 305.863
119.92 296.805 65.4906
126.325 190.959 246.827
83.1765 195.064 145.788
99.1923 76.726 330.501
80.4241 230.968 65.5449
94.4036 271.183 156.262
97.8058 184.92 199.484
118.443 81.5395 208.455
118.099 304.039 69.1898
92.3923 183.47 188.992
101.929 162.674 240.731
131.176 165.732 288.76
79.4737 147.979 308.717
132.278 80.1922 213.773
120.143 287.567 118.878
117.304 48.9348 235.374
123.767 242.697 128.527
131.926 275.566 149.514
94.6838 175.929 178.874
120.701 102.424 209.351
122.839 82.2957 246.752
112.992 278.501 155.776
131.649 113.947 220.66
105.239 113.871 290.418
117.213 223.794 103.103
102.663 212.478 151.131
90.0852 186.985 202.993
115.335 314.478 149.204
125.528 248.52 120.546
103.065 199.681 112.899
132.386 30.3404 252.794
103.917 150.248 272.267
117.104 292.153 88.3748
123.663 281.123 112.476
79.9259 190.325 199.835
85.258 193.616 108.832
125.198 78.4952 169.528
98.3773 219.786 62.8582
132.582 80.9051 181.755
129.96 157.754 249.61
97.9724 224.661 188.847
117.556 95.58 199.278
110.603 121.423 281.698
91.9159 117.331 331.432
132.438 258.304 174.084
131.516 120.333 214.029
131.375 119.546 174.485
49.32 202.157 233.522
117.595 132.129 204.933
101.767 140.638 188.799
106.93 315.417 97.0878
124.339 153.302 166.084
122.686 251.98 130.558
116.05 50.3892 243.188
131.491 114.788 309.936
82.8268 193.124 116.5
118.301 248.045 172.363
59.2523 207.1 247.721
70.8989 197.901 203.087
126.965 193.626 142.956
101.628 192.627 102.45
110.906 306.093 93.2655
78.3695 182.607 188.363
122.952 85.3811 261.545
113.219 180.017 188.594
115.575 53.7654 252.236
132.52 208.092 172.446
72.0953 170.003 114.529
98.3504 147.43 299.774
88.0317 134.829 315.971
119.6 259.885 170.07
88.1042 129.841 320.12
131.978 47.112 257.647
46.6394 149.132 309.328
122.874 286.371 162.503
131.195 102.586 304.19
132.02 66.5811 275.323
91.9951 271.12 139.023
78.2677 112.734 302.519
92.9808 171.106 243.508
104.574 275.997 71.449
122.704 205.028 188.273
121.124 142.114 323.916
109.376 142.591 158.133
119.087 56.0146 184.556
124.436 270.602 110.707
52.5257 124.578 312.61
95.6903 135.027 312.998
86.9254 313.967 138.628
80.2564 136.297 318.616
112.967 248.801 56.2445
68.8854 191.645 126.229
112.958 222.716 75.3233
85.4432 175.63 277.422
121.903 170.293 179.114
131.417 80.0451 173.86
131.99 131.869 307.583
119.229 319.374 85.3686
130.508 178.052 223.096
131.035 209.656 109.023
111.958 210.418 118.559
118.577 107.707 197.109
97.8874 208.539 75.2663
113.623 256.102 54.643
105.12 303.264 148.278
67.1425 173.658 213.138
60.3098 109.862 311.492
114.812 138.537 324.3
120.741 21.621 240.133
82.2692 172.726 260.806
115.761 145.702 238.88
107.781 152.815 217.606
114.299 42.4684 245.724
131.534 72.5483 264.167
59.5009 172.617 116.899
131.885 129.169 260.618
82.2116 268.094 141.983
130.65 100.441 297.058
131.377 169.131 296.913
70.6165 252.944 161.762
117.268 115.235 274.314
114.278 66.1449 193.086
79.5366 68.7746 324.863
110.643 130.356 325.877
113.089 81.2608 181.179
93.5705 63.2221 325.692
68.4887 133.735 296.575
93.1875 153.308 295.968
130.749 169.311 265.815
88.9368 261.024 144.57
41.1216 192.186 270.134
118.749 66.4823 263.559
66.1572 165.898 132.318
95.3189 199.635 84.7014
99.9122 261.387 74.5691
132.002 106.928 253.764
53.9986 116.342 317.014
113.095 278.483 55.4899
130.49 250.812 180.268
108.084 136.799 159.514
86.9922 159.438 293.124
66.7473 183.829 86.9004
101.849 108.143 334.986
79.9053 176.158 106.938
74.6109 233.842 189.266
97.0783 215.81 193.073
118.576 188.733 232.015
93.6498 160.983 215.914
97.4368 309.482 120.539
131.294 158.83 296.739
72.1106 178.128 243.236
112.89 255.847 164.747
89.0458 189.545 216.814
105.367 142.42 308.393
68.7571 122.983 303.749
112.073 95.4827 175.045
132.326 64.121 216.83
96.8052 166.381 284.38
47.3634 143.207 314.287
132.573 74.095 189.391
49.7893 158.622 290.28
73.7566 187.789 78.0189
96.3031 149.352 280.411
132.042 307.645 134.465
100.616 79.7725 299.558
122.898 323.791 107.43
118.325 50.9475 229.763
118.723 298.394 108.3
130.647 141.599 230.051
107.769 139.095 190.57
75.8162 134.298 294.488
96.8033 199.431 253.809
89.5493 196.265 132.29
133.577 27.8872 234.121
89.6042 318.201 131.674
127.353 85.0841 166.943
96.8287 207.591 157.896
133.818 36.9567 243.489
85.2585 306.41 129.945
96.6723 232.795 162.155
120.199 37.1599 219.349
112.039 36.5807 250.198
91.0408 206.952 195.424
131.723 98.8896 250.906
92.5191 307.851 145.673
92.9747 121.125 295.157
72.9958 201.832 169.064
131.794 65.9115 290.25
117.301 229.63 98.6888
114.442 25.0546 273.837
106.309 100.545 335.943
68.4051 153.166 314.201
126.619 114.211 159.936
102.081 158.8 225.359
112.631 233.03 176.965
71.7156 237.193 173.331
109.779 192.599 262.994
105.075 155.572 263.083
82.2831 83.5116 306.747
133.041 66.8683 190.577
98.2973 179.392 155.227
79.6949 199.601 66.5466
119.553 78.877 278.144
110.64 191.484 182.344
76.0092 187.985 179.508
78.0338 193.386 127.425
89.2941 196.002 140.83
133.549 55.8099 219.448
131.905 288.389 111.438
117.986 122.584 269.638
100.628 283.766 133.262
109.187 250.612 166.376
73.4593 205.889 65.9225
107.086 179.622 184.049
82.1012 251.461 173.72
89.1591 233.722 52.0322
107.956 203.089 125.559
82.8742 230.325 188.239
125.137 190.503 166.869
85.8055 198.178 72.5353
118.845 281.803 85.3704
97.9612 172.053 279.739
128.358 225.007 188.257
111.201 186.978 269.855
129.997 157.564 219.819
105.582 136.306 183.594
110.655 42.2902 303.504
119.299 90.9379 208.437
118.835 64.9947 257.64
108.138 156.166 253.372
80.7214 259.077 171.529
97.1666 275.662 136.432
74.1634 191.659 197.476
105.568 231.773 57.8385
88.8753 201.132 253.101
93.8593 77.9314 303.131
65.4144 169.589 158.293
77.6285 178.158 255.967
116.844 99.5077 282.317
77.4832 284.007 156.551
130.239 148.978 235.799
122.039 230.26 114.736
65.921 236.138 191.275
132.715 75.3854 198.576
90.8089 146.268 285.535
121.024 65.2494 226.467
111.063 183.049 199.503
114.554 80.3464 287.35
81.6084 93.2258 333.969
119.732 58.2754 221.962
110.805 187.36 139.757
131.948 71.3792 270.293
131.823 53.1254 264.219
122.064 78.1335 241.873
106.957 193.28 106.261
118.675 126.067 204.83
64.5008 271.621 153.758
82.8876 214.091 173.021
114.496 38.3773 297.22
97.357 177.221 274.115
78.3809 213.206 58.9548
98.3434 46.4776 289.983
87.9424 276.552 157.266
124.73 182.343 204.267
111.744 192.548 117.65
92.1422 180.989 147.505
97.0169 126.851 322.912
117.173 57.8969 201.977
72.8488 192.278 118.772
131.497 147.786 297.61
111.45 150.394 225.688
78.7091 172.689 225.002
109.461 208.482 107.265
68.6403 205.288 218.092
81.2309 184.548 269.122
93.0434 57.3947 299.8
121.771 178.345 285.441
46.2646 151.174 299.22
91.3277 97.9413 301.571
100.264 198.52 93.634
60.2125 116.31 309.167
98.677 166.861 249.921
111.479 269.197 139.581
110.27 280.916 74.6527
86.4184 205.455 166.466
118.814 234.946 139.902
91.274 172.849 277.324
63.0531 204.162 214.746
70.8158 136.616 325.514
107.162 218.708 73.417
99.0396 142.133 306.221
118.64 49.4242 195.118
89.9013 177.456 166.531
83.5484 63.5341 317.363
132.178 297.218 97.3173
65.6018 244.481 173.429
130.736 235.958 130.425
60.7475 192.936 281.842
119.422 272.31 133.415
133.234 60.4207 192.977
100.5 249.532 50.1285
127.819 121.202 328.764
76.6061 193.414 147.765
55.042 178.859 228.208
90.9583 197.062 231.052
120.197 128.062 155.894
97.2882 242.897 158.603
129.501 137.259 249.133
71.8417 176.626 236.243
105.55 213.715 94.3291
128.781 182.99 218.923
111.695 105.652 285.827
101.503 244.413 169.953
107.587 268.835 78.6255
124.577 115.776 332.188
70.9588 90.7395 330.792
110.359 318.895 142.22
68.9218 190.76 276.58
86.3399 253.076 155.471
132.311 242.889 166.074
119.132 25.0709 231.742
121.08 192.715 264.952
118.599 314.781 78.1648
100.409 67.8726 326.401
52.0483 196.93 210.592
89.7605 167.828 285.006
106.043 176.289 277.225
117.555 88.498 202.203
105.847 70.4512 291.68
81.3917 192.535 76.6383
131.618 289.546 119.773
131.461 127.727 298.948
129.671 313.084 108.192
115.711 108.19 186.736
78.4612 247.316 178.907
101.472 132.159 317.68
84.3819 192.399 207.797
92.1058 196.527 104.576
132.128 273.73 155.993
82.6938 186.118 91.7639
128.703 42.0317 193.365
130.959 106.684 312.481
79.2301 199.577 215.686
110.341 310.907 107.135
109.373 212.567 141.808
94.6989 167.882 260.002
131.328 168.768 194.201
121.799 77.9132 260.073
116.098 274.438 83.3807
89.2146 199.087 94.7978
110.489 195.993 188.087
130.693 146.317 242.767
66.794 206.38 227.509
72.998 292.632 147.845
102.49 328.357 120.267
88.904 257.925 167.049
67.4231 162.378 306.422
125.212 184.023 211.373
79.966 163.985 208.593
107.785 216.36 189.738
73.4607 293.775 138.852
131.37 303.096 103.341
131.795 135.263 312.239
127.95 227.064 88.1652
76.5286 98.5076 305.243
116.527 182.263 195.419
131.459 275.451 122.261
122.102 186.863 226.261
104.309 199.686 191.246
131.393 110.933 291.75
109.028 189.193 128.666
132.909 30.4663 245.394
80.192 129.498 324.275
53.7429 217.744 190.23
133.327 67.8284 198.302
53.6486 195.47 168.121
86.2603 268.374 163.483
106.454 139.013 314.425
85.4852 191.179 263.148
71.0876 259.624 175.609
114.546 52.2564 259.543
125.43 314.744 87.6802
64.908 176.065 221.081
87.7287 78.8961 332.941
107.795 146.234 200.149
86.7197 67.4384 308.706
129.224 26.041 218.069
108.854 325.432 130.959
117.082 189.987 136.991
114.272 81.6478 193.356
83.6991 155.161 197.156
113.979 310.314 74.4664
124.528 271.973 62.5618
102.522 199.239 130.834
84.3102 220.004 193.417
111.903 130.376 159.313
90.7041 69.2564 329.047
66.3122 186.683 283.381
113.93 291.242 123.108
87.4496 211.352 81.5298
79.7047 196.516 208.108
130.594 286.226 162.649
99.4463 207.975 193.975
131.709 110.986 208.043
120.482 123.058 210.672
78.8171 175.974 281.723
109.759 66.7107 320.88
85.2218 140.094 311.412
129.555 203.136 179.542
120.658 91.2948 163.153
91.5505 193.352 258.702
112.214 115.85 169.542
106.794 256.202 79.8063
74.4945 165.068 205.002
70.4018 104.315 306.779
104.036 244.565 153.035
74.4923 197.231 163.046
112.312 284.062 131.394
117.086 240.467 93.6413
68.5862 207.001 235.196
115.178 146.33 248.187
106.53 150.948 161.393
123.085 187.738 157.191
66.3912 85.9211 319.401
101.025 185.68 220.365
110.337 242.91 87.9195
53.973 151.782 318.357
74.6929 287.6 135.212
88.3221 150.386 183.085
83.7421 229.788 54.7418
112.28 324.341 93.5117
86.4914 152.015 173.256
125.407 186.017 276.567
99.4378 160.79 264.559
131.865 223.051 179.842
93.0402 195.054 120.969
51.1492 126.357 321.642
131.932 94.6789 188.923
93.1511 91.4891 335.571
92.2774 297.575 148.518
65.3412 192.074 145.612
107.258 155.167 225.682
122.9 103.777 158.781
109.062 303.292 117.742
60.1159 245.823 183.904
118.361 139.258 156.052
126.209 158.269 312.106
94.269 145.859 186.321
65.1791 178.594 241.605
130.502 203.917 167.365
128.783 316.54 115.705
86.28 111.16 332.932
101.991 217.496 88.579
126.519 203.018 109.757
108.992 186.077 150.929
104.273 207.104 83.1244
117.078 81.1513 169.385
91.2405 225.858 188.962
129.603 166.929 228.082
75.1977 185.055 275.614
82.2611 73.3586 330.868
83.0725 229.487 172.125
109.751 142.908 270.497
115.423 298.107 114.893
86.9065 142.171 289.32
100.08 136.71 284.217
75.2732 132.404 326.442
51.1503 197.942 219.649
87.6072 193.371 84.3902
111.986 98.2026 181.745
92.711 319.955 124.133
102.923 309.944 116.741
121.076 66.7366 175.289
114.667 124.625 276.084
86.6368 112.727 299.88
132.428 94.0689 197.909
125.204 51.642 184.452
103.48 168.965 282.58
131.961 61.0249 267.973
91.3245 183.066 136.014
132.658 48.6495 251.439
111.024 148.698 261.012
87.5012 278.336 134.146
114.758 201.735 189.923
106.66 287.547 129.976
112.503 241.261 172.416
105.504 58.4027 284.11
85.2292 160.251 210.489
101.364 146.185 199.29
67.8359 189.794 195.017
48.153 180.709 159.026
78.8647 142.304 315.259
109.116 301.005 72.4836
80.2246 294.334 150.662
46.1679 192.299 225.916
116.2 255.432 89.2291
55.984 203.752 217.276
64.6716 188.266 91.9722
79.1896 197.607 262.757
98.9983 271.72 55.2246
99.4545 62.1697 292.921
103.741 140.829 278.237
116.688 175.902 186.408
50.7873 136.471 320.867
111.985 213.465 189.644
111.27 116.242 332.123
127.447 163.133 232.324
101.43 45.6954 308.085
69.3378 98.7484 308.377
118.89 118.684 200.448
125.05 30.9525 210.352
114.431 248.309 87.8466
72.4825 174.173 287.684
123.113 46.8367 299.745
93.6644 236.51 77.3214
96.7214 185.116 207.546
120.018 67.2496 240.228
132.871 55.033 195.415
72.9543 201.127 78.9346
125.56 260.005 177.903
69.5038 180.477 287.218
82.2578 288.086 131.287
79.8557 196.341 157.573
130.906 86.9814 273.037
131.089 93.3502 311.345
102.785 91.5965 336.035
82.4027 101.49 334.435
100.306 40.2289 289.912
129.898 197.454 162.7
90.9706 230.063 167.756
132.496 214.33 163.81
56.1455 168.195 156.426
83.9373 204.565 246.863
57.9625 234.622 186.26
95.0895 48.6336 298.396
85.8268 179.204 145.745
96.5767 280.858 151.244
62.3758 101.533 311.827
66.4882 128.752 330.809
102.468 243.271 80.8598
104.393 327.724 126.928
80.3893 194.604 99.337
112.791 184.449 209.173
64.3402 177.731 96.1018
116.936 200.239 101.484
57.8935 155.849 287.825
132.289 87.3035 195.691
122.087 109.623 334.035
70.4991 175.675 227.832
97.2827 55.5754 291.778
100.898 196.261 239.18
128.361 154.848 260.197
79.2385 297.032 132.347
99.3193 145.575 164.346
98.3288 302.124 147.124
83.6853 303.812 145.272
86.7961 159.346 277.22
70.3104 193.852 158.714
92.9048 145.042 179.393
118.314 211.303 190.99
87.2632 195.77 224.908
58.1638 207.226 226.289
124.001 120.827 245.489
62.9931 142.152 324.527
118.538 293.517 157.942
61.0869 226.201 194.402
51.266 203.652 224.353
131.073 231.268 93.5281
64.8817 238.413 178.099
124.051 107.194 262.22
68.3294 146.418 320.567
63.8967 193.501 199.062
87.9645 169.875 263.249
98.0922 124.302 292.836
61.1998 198.625 192.707
122.103 224.767 188.342
120.171 300.503 156.794
106.527 271.368 154.89
110.081 302.539 80.9356
105.782 224.623 88.0572
88.9449 125.609 324.508
113.708 81.8526 175.396
98.031 101.236 336.529
114.034 147.832 230.336
131.938 136.212 202.211
91.8523 74.3484 331.089
111.673 323.341 136.357
130.714 113.728 165.547
102.949 153.917 217.633
72.4407 206.871 173.557
72.1088 139.947 319.696
77.668 125.53 300.531
100.525 94.1526 298.386
76.8835 176.776 182.436
76.498 173.23 130.412
78.2273 207.126 76.5835
132.069 152.858 190.96
129.461 294.579 159.377
73.5001 117.537 332.777
121.215 131.261 222.017
76.2238 215.481 196.964
79.1781 203.601 252.588
48.6773 183.214 294.735
45.2736 161.023 298.181
131.282 136.408 230.174
99.4709 144.872 192.935
96.0565 207.885 92.6524
51.4 173.946 163.196
126.243 55.446 305.66
83.3244 180.201 103.196
62.0016 158.377 314.006
81.1751 127.681 297.018
106.967 193.118 243.079
116.071 86.7327 197.013
54.4234 196.415 279.589
109.139 29.1697 275.091
108.625 285.678 152.513
74.9569 159.831 300.357
94.3253 52.1343 314.414
79.9547 200.919 257.627
102.282 188.085 127.164
83.8991 84.9926 334.364
72.7119 91.382 308.109
99.09 188.316 181.264
131.384 105.207 193.23
116.613 143.034 230.254
126.709 63.8801 312.832
104.456 197.762 247.409
71.0198 198.022 267.204
106.657 218.358 150.886
117.562 107.499 276.606
69.7289 193.244 152.616
118.88 34.2051 225.155
122.715 91.2417 218.085
86.5902 258.172 150.082
129.851 151.779 247.316
68.6326 192.95 77.3372
89.7382 155.012 167.135
120.848 74.1836 171.568
109.418 223.896 148.051
98.0632 269.993 64.107
84.0929 174.523 156.613
58.9605 224.857 183.147
54.5019 171.878 128.548
68.7467 227.984 193.843
88.2538 291.944 130.391
132.089 206.158 146.794
92.7093 149.112 190.544
42.7807 174.128 289.995
71.4932 193.081 140.04
70.3574 245.064 185.516
68.4179 81.8785 325.446
63.1567 195.937 274.668
80.2826 224.732 58.0067
64.6801 120.456 332.076
92.9563 107.712 334.294
128.3 305.951 153.62
62.0044 198.476 167.845
68.8421 167.924 198.63
77.6072 195.993 190.705
60.2646 174.692 199.9
77.4048 171.892 178.184
76.3083 207.858 197.815
83.739 241.117 179.121
131.464 141.949 312.326
91.0478 97.0195 335.604
81.8683 200.983 85.2131
71.8442 203.199 196.679
95.5101 262.747 159.942
67.5782 192.193 134.45
111.734 297.019 65.1137
82.9248 279.611 158.009
73.6285 79.5577 314.526
83.3352 166.851 212.571
59.6467 183.656 110.84
77.36 275.142 163.056
127.279 301.351 75.573
81.2735 221.7 174.583
104.36 205.297 100.804
92.3168 52.0789 307.056
96.1692 200.04 243.003
130.419 132.11 224.097
73.3951 176.802 260.246
110.924 99.0935 289.03
112.043 103.897 170.186
68.6475 171.32 182.494
73.8824 270.952 167.129
126.337 275.126 171.135
59.4809 206.238 236.258
68.9866 180.051 187.124
48.6273 203.743 256.715
87.9514 176.796 179.556
63.2983 266.435 167.16
68.1882 179.736 259.583
108.31 154.499 232.802
84.3217 122.668 328.582
63.4191 177.074 235.633
42.6082 183.875 287.081
99.3684 131.104 288.325
124.266 59.9845 179.631
118.49 193.481 120.925
48.9337 160.864 311.484
104.713 99.582 295.504
108.24 89.2884 293.997
110.724 107.517 335.719
116.84 141.591 222.235
75.9757 182.015 174.471
54.2414 183.131 133.363
54.01 181.949 236.028
59.8948 193.858 162.298
73.8788 145.91 315.699
119.103 117.84 155.741
106.176 34.3657 278.756
124.88 23.5487 225.518
125.257 170.675 300.086
130.298 146.835 229.038
93.0147 163.936 268.291
131.601 211.005 160.013
96.4321 212.851 88.9114
81.3302 93.0028 304.527
49.7921 197.71 275.131
59.9748 167.207 125.745
73.1541 174.891 224.176
85.4664 209.898 196.802
76.0847 193.553 134.856
88.3243 290.938 151.216
74.1875 179.142 91.4749
48.3883 190.819 286.874
102.825 119.42 290.533
124.431 204.019 103.241
100.602 178.605 182.196
75.2163 217.329 177.699
61.3151 189.534 132.428
82.1194 117.57 331.713
131.223 277.281 138.746
130.327 162.788 259.838
91.2784 140.693 308.276
48.8187 184.741 222.394
105.859 282.639 66.7431
63.7307 136.101 328.475
124.425 244.501 69.3456
72.5919 270.874 144.08
63.4799 200.575 264.684
127.243 179.261 287.902
112.85 242.46 58.8311
75.6202 172.72 157.478
95.5633 323.433 131.241
90.2218 242.51 162.457
120.885 137.134 235.823
56.3639 125.628 306.568
99.9022 288.706 149.144
63.153 144.811 293.415
77.248 196.628 91.9281
75.5681 265.577 170.911
121.644 179.147 196.911
44.1215 202.092 243.035
70.2382 113.735 306.844
71.1546 163.282 182.99
44.3077 167.978 290.386
116.785 58.3611 258.28
63.7034 207.489 176.176
49.1438 143.951 300.694
88.7583 178.262 153.713
105.967 40.8336 275.803
56.4203 137.518 326.344
132.096 272.455 79.4363
71.5653 286.479 152.407
44.4883 189.418 234.52
56.3882 129.358 329.139
99.6363 265.805 53.0007
44.298 192.943 280.249
107.713 76.4773 292.199
100.556 272.876 67.6364
112.213 30.5103 259.806
105.346 37.1177 298.147
66.1377 108.792 309.419
113.19 144.036 211.462
69.6667 172.177 102.535
118.267 235.428 96.611
127.893 156.38 229.652
82.5545 75.422 312.636
85.6393 64.6507 326.094
58.9644 218.371 195.698
53.5408 207.685 243.804
95.7367 201.645 97.7777
57.4488 146.949 322.728
75.6339 75.4325 326.661
54.3855 178.755 222.059
119.101 323.788 127.598
118.965 54.5132 225.754
90.0769 238.312 73.6661
96.5775 254.714 52.19
66.0754 190.18 100.639
98.0796 291.111 128.478
49.1202 187.509 163.202
107.944 103.91 291.553
69.2136 187.767 182.057
86.873 77.999 305.744
69.4064 149.136 290.325
130.638 151.034 227.509
75.1766 223.253 195.804
70.3787 178.4 253.169
49.6521 182.048 149.08
44.8605 163.502 305.022
127.701 102.436 326.051
90.8227 304.958 125.883
67.9967 178.385 247.96
64.7719 198.848 270.645
71.1423 199.13 193.137
90.6018 221.877 79.3117
52.4578 187.373 153.284
76.755 157.505 282.199
55.8496 208.661 193.805
60.0128 190.381 150.944
116.713 99.6407 195.184
59.5102 167.215 148.57
79.5388 69.1421 318.29
80.2456 193.034 186.999
76.1758 171.757 265.409
62.9698 253.809 169.467
85.6685 122.152 297.366
59.522 186.055 125.903
75.7407 231.029 175.36
74.6561 110.123 333.331
121.987 129.908 328.481
58.0142 102.932 326.372
57.4287 178.449 210.499
129.863 103.388 320.52
58.9166 191.64 156.692
52.2941 174.232 133.269
89.7743 160.773 212.206
83.2397 236.37 169.261
78.4274 277.551 136.901
131.013 236.512 185.336
52.5411 170.394 143.036
56.2566 183.088 246.681
46.5071 204.659 249.623
124.661 133.41 326.225
118.718 325.36 122.666
78.1186 177.631 169.054
132.25 160.457 230.056
114.519 86.4249 188.606
48.3578 187.128 170.826
56.6378 186.382 197.811
67.2119 111.975 332.912
51.1242 131.213 308.656
62.0233 204.168 256.65
78.5587 118.631 300.076
130.759 49.5126 279.736
106.546 278.785 48.8575
76.4082 150.886 288.741
62.4494 92.0709 325.738
104.834 315.503 110.729
59.761 177.221 216.641
114.408 144.862 219.398
114.628 90.2182 182.303
54.4741 204.99 253.107
54.021 166.43 279.73
70.8364 171.369 268.204
53.1562 199.904 189.546
130.53 139.314 219.286
59.0344 161.096 282.038
48.4887 194.443 175.845
50.6604 162.274 284.241
43.9632 198.375 266.987
63.0755 256.181 177.859
41.5072 194.944 251.192
57.4754 177.952 236.092
68.2838 194.058 88.7675
49.5801 173.328 149.715
78.0517 247.972 163.041
68.7381 213.999 178.216
57.949 179.282 241.915
68.7303 156.95 284.97
50.2616 207.419 186.033
42.8927 183.74 269.055
51.3204 203.104 176.532
59.5402 182.815 253.582
67.592 191.494 111.219
42.0435 188.013 263.806
66.6236 163.607 275.808
93.628 227.834 79.1037
70.604 245.228 168.106
75.2844 161.893 277.32
60.4686 107.662 331.242
64.9494 172.777 205.163
130.747 49.0614 271.032
43.2697 177.174 278.578
106.896 159.698 244.06
42.5952 177.343 283.8
55.7515 150.081 292.73
47.0859 184.032 230.875
107.967 128.651 165.975
63.9064 170.09 270.341
51.1128 176.838 139.846
51.5276 183.754 215.643
62.191 176.69 263.891
59.1162 187.194 117.867
54.9192 215.502 182.477
75.7268 101.733 333.869
108.647 130.661 171.429
44.793 177.03 273.339
