ply
format ascii 1.0
comment Created by Open3D
element vertex 138
property double x
property double y
property double z
end_header
40.2595 32.7911 58.3782
49.1476 39.9725 70.3837
21.8595 45.8839 65.9176
20.0811 116.698 51.2887
41.6698 118.908 41.1672
40.5433 118.947 55.2006
45.2548 52.5315 52.7549
46.8726 47.5227 59.238
36.5272 115.981 35.2308
19.7874 101.296 56.3353
18.8937 90.8435 52.6808
17.2016 93.203 39.4952
31.7588 63.3447 170.738
51.4366 60.4089 153.325
27.6024 49.5527 63.6366
24.4008 105.082 68.0191
51.7265 36.6379 165.567
31.0458 123.04 39.8889
28.4971 33.2128 67.1383
32.2455 69.4246 190.586
51.3636 38.5543 157.017
36.5697 106.21 32.2567
45.0685 85.0505 49.6177
27.717 121.523 47.7951
39.8169 100.816 59.9463
46.9065 56.8134 72.6296
49.1567 49.5002 151.082
46.1514 28.5556 163.22
42.6736 43.8015 49.7292
50.632 99.3535 54.1011
44.2165 85.3027 194.699
28.8635 56.0527 58.6429
33.1939 42.3981 51.0819
36.1377 55.4517 64.0734
35.4766 58.3895 74.7959
35.0778 54.7254 170.829
26.7262 76.4115 190.94
37.1624 64.5385 158.25
42.9657 43.2818 81.3721
50.3223 62.456 164.146
34.1336 36.4313 171.909
43.5752 63.2035 167.906
32.6399 83.9633 58.2623
40.0794 104.297 69.6132
22.5671 72.5618 176.621
29.0504 55.8093 147.143
23.9054 46.3166 157.027
39.2442 81.1738 202.063
18.6426 52.169 153.865
47.1999 95.3941 46.4893
24.6826 36.4666 61.2
34.0465 126.311 47.063
48.0566 68.6171 156.168
46.3706 35.021 74.7618
39.7651 38.3723 53.4657
24.8729 66.0159 157.189
49.276 97.9734 64.1276
51.4429 55.2612 168.796
26.1896 45.8891 57.0528
17.7525 114.316 59.6304
44.6392 33.6787 170.986
43.6311 29.2819 64.4371
20.2315 115.713 42.7119
23.7708 39.2343 69.7378
38.878 44.1187 70.9018
33.9568 88.9699 191.505
39.2711 83.8245 185.491
27.2257 42.2412 151.293
45.4222 38.9361 143.678
42.1116 51.6033 144.172
34.4415 60.7808 143.951
50.9926 49.3166 67.0518
26.4357 112.955 71.1583
45.5982 100.803 38.9077
26.6864 95.3561 64.5625
27.7913 81.0177 199.151
47.9815 106.054 53.2332
34.0305 70.4035 153.616
39.4045 75.7051 183.727
28.3247 43.8811 83.0851
45.8316 108.634 64.9475
37.0178 97.2339 32.7324
42.2241 73.0399 193.528
18.6183 109.022 52.7227
30.3377 35.9186 78.5715
30.495 124.361 55.4435
22.583 67.3186 179.781
40.9508 69.5378 151.312
32.2388 65.5724 162.864
36.8587 57.1445 49.1035
36.3563 50.4654 50.5345
29.0228 32.9909 151.39
35.6583 85.248 35.1407
33.1642 49.4306 145.402
31.9698 52.9152 175.434
47.7587 55.7933 175.279
43.4943 111.009 37.6134
36.7016 33.1691 77.4911
33.7317 49.5136 84.7518
24.3528 51.0371 155.133
36.116 35.6326 66.5397
41.3652 111.994 48.5295
34.4258 93.6855 67.9061
33.8908 30.1885 58.4758
24.8797 49.7091 148.976
29.2338 64.5035 149.713
28.1366 43.0603 166.18
23.399 120.566 66.0138
24.3304 99.9984 33.4677
30.8455 89.2886 34.2542
42.1415 111.614 58.9436
45.727 28.1302 151.616
29.2272 35.6298 162.004
31.7069 78.4732 183.962
50.3393 39.8586 150.41
35.3333 56.9115 161.715
42.5467 69.6999 164.456
32.5715 104.814 70.4098
30.824 55.4437 154.432
26.2904 48.6006 162.829
33.614 40.1904 143.983
36.6173 58.7555 56.2439
47.621 49.5408 180.72
25.0737 52.8092 165.053
26.4045 88.8987 31.5205
49.9569 34.7232 174.843
43.5393 63.9899 175.12
44.7631 32.476 152.648
36.744 45.9567 174.944
34.4353 120.966 65.4858
39.593 95.7447 69.2234
40.7617 87.0128 40.3725
41.9048 59.8484 55.8265
22.1338 96.6712 30.4773
34.67 36.897 151.421
27.2276 70.5595 163.06
38.3598 36.8781 144.667
38.1813 113.889 69.4947
