ply
format ascii 1.0
comment Created by Open3D
element vertex 564
property double x
property double y
property double z
end_header
114.13 139.183 104.323
117.734 247.935 130.558
77.6268 37.8992 144.613
109.524 79.0368 193.972
29.2386 110.268 127.403
117.729 82.2895 181.142
60.3961 72.6631 104.593
112.68 271.806 137.449
22.2977 203.911 143.854
119.409 192.886 133.857
45.4547 52.6237 151.375
35.4772 68.8369 151.65
117.331 67.2678 140.105
22.3453 208.004 111.171
21.1856 108.02 153.006
117.55 99.6708 196.158
117.928 116.435 109.934
22.7722 98.0525 156.205
117.52 251.518 107.958
115.852 164.581 140.536
31.258 82.5616 139.745
117.525 251.634 162.973
34.2887 93.9452 124.914
59.8825 267.874 153.175
115.312 153.536 114.97
118.988 104.419 181.549
57.0459 164.123 135.033
22.8204 114.909 145.751
117.835 90.0979 149.619
22.021 220.256 123.387
36.7343 129.478 188.324
83.8554 38.137 56.2109
44.837 150.614 182.874
119.161 213.878 109.76
22.571 190.215 139.01
51.5384 106.98 209.896
38.518 147.454 176.983
31.2192 135.656 134.448
20.2557 202.731 118.1
118.428 109.107 137.362
117.719 260.049 124.452
119.401 218.39 126.349
117.12 163.576 154.203
118.452 180.165 172.479
26.7094 116.718 133.766
62.5384 269.367 142.448
117.978 249.311 120.646
117.443 177.475 162.463
35.1401 209.73 176.918
48.405 162.568 148.182
117.886 258.21 139.326
116.781 252.558 177.003
103.313 277.186 135.979
28.8086 221.684 99.9391
118.89 88.3186 132.271
36.4257 113.033 115.875
116.882 199.872 111.875
38.2288 242.903 151.228
84.0475 43.5601 49.5747
47.8005 255.22 112.987
42.6485 241.164 178.594
32.9907 242.727 118.846
31.1118 234.096 102.168
117.049 215.295 138.584
116.944 156.412 127.282
26.0312 127.212 139.477
42.0884 248.517 165.247
88.4569 34.9275 43.7679
107.088 70.4654 187.313
59.2828 43.2958 138.861
118.691 90.7827 118.676
118.958 39.3613 51.0171
63.8574 153.693 108.774
107.68 272.97 123.3
25.3628 229.893 117.133
26.0324 131.758 161.262
118.552 98.7978 141.106
117.258 134.685 144.8
47.8907 81.2551 197.37
32.0455 137.122 175.244
116.72 131.908 116.67
114.23 110.13 199.651
118.76 78.9149 140.892
40.657 248.809 109.77
39.8798 237.979 89.6324
118.894 106.565 123.167
117.387 150.886 146.928
55.778 161.999 121.653
118.764 105.125 154.54
117.351 144.702 126.493
59.6116 265.301 169.804
68.4433 275.282 149.083
118.126 144.163 149.278
43.9887 225.397 191.73
117.603 205.605 104.813
118.2 97.0481 151.948
118.032 123.936 153.771
118.505 183.536 156.487
117.395 124.603 135.596
92.2839 40.8456 143.989
38.1528 195.108 174.366
45.2741 70.5786 189.207
25.5956 209.746 103.005
51.2419 260.61 147.655
118.442 73.259 130.614
118.86 121.051 188.567
62.0709 254.252 196.514
29.7917 237.786 125.069
118.154 72.2087 150.664
69.9322 247.118 202.782
34.0697 183.916 153.568
112.407 53.5962 51.0782
98.7813 58.2669 59.0717
118.789 236.679 168.102
47.2126 246.638 185.237
119.094 221.644 174.864
115.702 66.1228 110.448
31.2486 231.448 148.917
55.8735 124.749 208.158
118.568 204.717 132.225
44.2816 57.812 137.317
65.8043 39.2101 155.805
117.979 82.4284 114.725
85.8505 168.599 101.237
119.121 70.3811 163.216
25.3445 215.129 154.078
112.312 62.8922 174.253
23.6247 224.787 131.038
119.663 83.3303 168.771
50.3027 253.811 96.0536
118.617 105.263 170.561
115.912 176.366 139.489
51.0875 227.172 200.803
119.647 91.4312 168.827
44.1106 188.09 182.605
118.455 132.788 161.095
117.801 131.744 124.632
86.043 47.9546 60.2576
115.717 46.7652 47.5167
23.3803 116.152 159.684
29.8475 77.1793 159.488
117.532 206.009 188.877
117.536 224.774 147.283
81.4343 244.869 203.244
24.7039 107.318 137.89
72.238 60.3707 104.497
21.4073 209.408 136.779
43.4155 106.018 112.925
113.997 89.3499 101.64
23.8999 125.549 152.404
98.757 172.132 104.776
64.1913 270.568 162.721
50.6572 257.32 167.032
66.9575 264.431 187.916
101.187 52.7916 68.8444
118.353 232.285 151.326
27.089 90.1626 143.947
56.5992 157.568 115.132
37.9238 248.025 130.456
92.9718 279.346 133.969
79.2382 161.595 101.719
119.199 207.915 119.615
34.7181 196.584 99.8941
33.8928 151.853 149.616
102.054 39.4999 69.3093
117.109 260.26 154.195
118.434 143.651 160.243
91.3376 270.182 109.149
115.716 129.791 108.087
118.43 73.009 173.192
115.69 89.935 193.836
117.73 75.7451 111.247
33.6111 228.409 162.401
23.6333 219.534 108.723
96.7401 228.452 201.773
113.119 42.8915 38.962
73.2928 257.363 196.597
116.114 182.305 118.786
119.505 235.742 117.277
119.242 108.454 187.097
82.552 44.1857 159.066
50.4547 94.0989 208.564
63.5785 39.5044 145.151
41.5615 56.8605 160.289
118.542 198.159 159.73
118.909 224.811 95.3095
33.7936 122.665 123.485
53.8112 45.0295 163.62
115.992 192.659 101.154
34.9406 211.856 93.3522
48.7852 149.795 190.303
116.657 61.6493 125.368
71.0533 248.797 83.7463
56.8744 221.126 203.426
24.8887 97.852 143.208
117.746 155.203 162.129
114.048 148.525 105.927
46.5298 147.913 121.747
113.492 56.7429 158.285
117.561 68.8668 124.49
68.9216 271.896 137.402
112.577 48.3076 62.6781
118.99 232.228 184.716
49.976 70.6413 114.558
117 165.696 168.237
30.28 236.953 136.087
50.4438 174.408 164.095
111.755 171.174 150.21
18.9175 205.851 127.733
88.287 63.2752 188.149
119.118 209.076 173.085
49.0962 128.733 202.385
27.666 198.749 163.012
25.8787 114.868 169.721
88.1691 90.9802 210.832
117.893 228.495 160.589
64.2066 81.7244 97.6321
82.5861 220.911 204.153
71.6621 74.1388 98.7294
41.5788 159.146 152.538
24.3272 217.946 145.708
87.4039 177.443 96.0411
118.288 242.265 141.937
118.69 182.352 146.29
36.8329 61.2864 166.457
85.3493 237.02 202.912
31.2251 204.947 169.321
64.6848 169.25 151.072
55.0722 140.495 200.475
84.2752 36.9473 146.155
39.901 214.325 86.7962
47.0544 256.834 157.232
119.323 190.781 146.021
73.3826 259.055 90.8917
95.8958 61.0655 182.605
44.9206 61.7825 130.156
67.2671 94.2703 216.61
28.3489 142.473 155.531
28.9181 79.2891 167.655
107.47 50.2092 65.7672
83.6988 98.8921 215.29
35.2257 81.297 130.898
52.5608 49.8364 133.412
95.3904 168.524 109.536
93.2423 69.1676 192.552
46.6445 233.581 194.834
38.0672 148.011 133.156
64.2247 63.4696 107.08
84.6655 279.206 135.792
117.451 31.856 51.9103
44.718 134.634 196.015
31.4817 104.49 186.249
48.2986 161.127 171.846
55.3837 98.4153 214.131
40.9814 231.387 182.757
100.457 93.8588 206.087
54.5023 173.534 152.335
94.5784 267.676 185.817
36.8827 182.485 108.912
50.8222 167.619 113.864
117.848 144.643 140.557
114.451 236.901 92.7026
115.894 168.357 180.257
90.4207 27.517 50.8367
62.1214 214.204 203.091
82.1593 51.3431 110.06
117.956 108.209 107.411
91.0435 114.011 212.946
59.9364 162.61 180.51
110.515 102.036 203.546
50.8915 254.77 177.279
36.1038 87.5536 186.504
107.513 160.087 114.546
89.0304 82.3916 205.378
39.7904 217.274 186.434
109.154 261.454 104.846
113.811 162.661 123.981
48.2899 163.663 158.035
91.2905 163.513 111.752
43.0439 120.607 112.773
35.1592 224.324 176.76
114.722 251.676 99.5968
94.7887 97.2451 91.608
63.4655 250.49 86.9336
39.8924 154.48 139.784
60.7452 117.553 214.237
79.3413 274.655 122.966
118.217 217.854 157
115.005 176.97 129.175
45.9009 255.594 123.282
96.9159 165.491 189.874
89.9992 48.0507 43.0873
118.731 234.789 136.162
118.14 119.646 128.523
79.8116 236.763 80.5455
46.0941 65.1504 122.454
45.5808 249.407 173.233
113.173 32.5592 40.324
68.5328 47.7594 123.315
42.9024 91.869 198.598
119.642 225.648 136.634
97.9369 256.831 193.055
41.484 81.3547 118.823
60.363 255.716 95.1761
118.57 94.9552 183.543
44.9358 172.026 149.044
81.8242 262.108 194.902
74.8311 162.001 187.839
34.4151 67.6915 172.727
118.498 123.485 115.59
35.8203 232.8 170.845
69.3363 168.264 99.7503
92.0743 167.903 128.561
44.8159 180.237 169.491
68.7708 53.2763 114.956
76.4745 276.826 135.698
33.948 177.837 134.284
111.432 263.015 177.217
93.6596 52.8988 65.979
75.4039 86.429 214.57
37.8689 155.264 159.932
41.772 183.075 101.1
101.084 109.067 208.314
37.1899 74.3613 184.413
35.0301 73.7578 139.729
53.7125 175.514 100.864
90.8079 52.0386 106.983
96.2421 84.5791 203.794
36.2242 106.319 118.906
60.0481 145.627 109.805
26.7277 195.516 111.692
117.577 198.783 180.097
118.058 215.317 145.27
64.7951 92.8355 97.6416
109.529 181.042 105.386
101.645 24.0014 53.0753
111.651 87.8897 200.796
28.8755 101.521 130.636
94.6498 182.429 196.191
78.5444 174.376 192.705
73.4005 224.599 206.783
37.9544 112.879 194.835
100.838 102.964 208.441
93.3316 154.648 196.314
74.3368 236.152 207.206
44.7415 101.33 203.625
103.161 269.349 178.284
29.6373 145.531 143.868
51.1033 115.172 106.836
107.93 52.6839 154.784
90.999 126.953 208.638
99.147 255.662 94.8888
29.2517 113.475 180.325
87.6519 277.346 123.871
114.347 215.007 195.192
95.2877 42.7605 68.2976
62.0729 62.0908 189.668
92.0862 73.2087 94.0993
74.3985 180.197 196.147
40.5423 173.717 120.044
59.0089 154.214 193.825
119.268 92.6034 176.223
108.397 31.9222 64.5968
110.547 174.411 120.429
60.3862 217.51 79.2372
38.8677 189.008 175.986
38.1154 105.215 196.364
117.707 142.703 117.915
98.1993 85.8099 91.8954
85.656 247.622 84.8181
107.211 252.087 190.66
32.4536 114.214 188.198
54.5664 52.1806 176.865
47.466 155.819 127.837
64.7027 113.23 217.755
50.3195 227.793 76.9183
48.0534 165.913 126.283
56.7952 257.093 101.914
57.2972 260.399 181.354
99.9662 75.2519 194.616
109.496 125.953 94.8672
46.0866 178.273 156.479
109.725 39.9234 68.153
30.9684 147.367 163.068
91.8039 75.2893 198.637
115.057 97.2798 102.671
46.4294 52.5097 166.411
111.889 26.0592 53.6944
56.7014 242.086 76.5044
76.8288 85.3517 93.8394
51.9013 61.3429 186.163
117.891 137.321 130.344
83.9548 171.533 188.897
71.1222 171.464 186.807
63.8588 243.685 205.459
74.3603 278.196 143.89
87.2732 163.639 190.509
103.132 207.737 87.7612
80.5365 71.4669 95.8589
118.065 200.155 172.113
45.6293 194.21 93.6888
90.7302 241.235 84.4723
65.4358 270.145 175.757
113.355 120.549 199.831
43.6951 248.024 97.517
118.357 185.696 125.689
47.6044 216.205 196.512
55.621 127.439 106.736
95.9172 276.658 120.579
77.0232 152.226 197.826
66.5707 238.523 78.6595
106.373 28.42 38.0287
99.4946 272.011 114.493
82.2578 61.5928 99.4684
83.9215 260.326 92.1492
51.4839 216.479 77.998
33.7758 97.1208 188.202
69.3898 170.28 169.837
94.7927 240.047 200.026
101.305 262.49 187.628
101.972 104.149 92.4879
48.849 178.182 179.625
108.786 225.785 87.4209
104.953 246.064 91.5531
114.021 231.575 194.497
75.3436 280.763 163.698
80.0176 282.382 151.925
56.0858 99.1189 103.316
87.8639 124.486 93.066
53.8785 67.7406 193.273
100.173 29.3243 62.8066
108.064 274.551 154.239
102.167 148.097 197.673
105.513 90.3904 199.527
70.8508 43.8799 166.424
104.1 172.195 114.14
106.835 160.058 190.598
47.9094 123.791 111.04
91.971 169.626 103.074
37.0949 122.201 194.044
77.6629 55.4978 182.039
99.7646 38.1919 32.8323
77.3502 131.164 209.746
78.5903 141.961 203.975
89.3439 61.7974 99.0715
41.8039 184.1 162.217
94.6191 168.4 118.494
80.6776 37.9705 132.169
30.4791 78.3577 174.919
40.9593 57.869 172.782
109.052 51.3189 136.201
99.1524 58.7423 103.346
73.1004 122.691 214.726
85.2436 282.862 164.091
96.8951 54.02 32.4316
108.094 58.6947 46.9515
95.8917 32.0816 34.961
31.9156 81.9718 180.922
78.3637 71.2263 199.957
35.1224 149.948 167.17
108.212 84.2674 94.7561
93.4974 194.849 89.1441
102.346 57.7817 45.8734
79.452 127.841 96.1642
111.75 243.442 192.342
100.045 127.541 205.903
106.541 135.008 95.0432
58.6639 164.45 106.416
102.57 70.4392 96.1685
61.398 165.661 174.082
53.8962 159.26 184.633
46.9216 204.183 89.0469
92.6338 57.2707 56.3046
70.1107 77.8787 209.212
108.615 55.1357 114.348
32.8153 181.006 119.67
94.0601 278.911 171.924
102.889 118.571 207.09
55.698 54.7288 122.952
103.455 167.972 141.343
55.4584 195.562 197.122
72.9588 269.892 186.25
46.7839 168.904 138.166
96.6155 233.093 85.0914
73.5191 177.744 94.5961
115.558 157.071 180.315
103.53 23.6789 42.5215
80.7096 116.084 216.703
113.248 213.709 88.4542
88.4104 47.7858 163.341
66.9692 56.4736 183.889
96.9959 24.8636 43.9657
63.2365 103.071 218.361
56.1761 172.556 178.448
66.381 161.347 105.018
55.7893 263.363 159.924
64.8978 157.786 191.22
95.0838 281.055 162.291
102.119 146.943 99.132
50.1234 88.2 108.461
95.1799 281.838 150.298
104.11 174.897 191.807
46.8228 58.7547 180.438
107.725 50.0826 127.33
56.6642 42.0006 153.825
80.9794 219.028 81.7633
76.8132 169.711 137.508
84.2645 113.437 93.4394
93.5291 274.769 179.371
42.0034 223.169 79.5502
72.2521 147.06 101.371
117.541 62.6847 144.904
92.7591 55.7725 48.5923
64.9026 228.944 207.333
100.225 50.6154 111.617
103.21 171.714 139.835
99.4639 265.777 105.321
109.732 74.4888 96.9583
59.5931 232.072 75.4844
77.8772 250.655 83.5162
83.3365 155.113 101.972
109.741 196.625 194.311
92.8489 217.183 203.344
103.048 190.96 91.5776
71.7526 157.527 104.411
84.7331 35.2529 137.206
90.9005 209.585 202.967
70.502 213.64 81.792
67.8368 48.3704 170.802
80.7152 50.1567 173.2
71.0949 206.289 203.439
82.9194 273.527 182.501
82.7789 200.311 202.871
60.5782 83.5109 209.809
115.959 152.312 184.758
75.5072 167.942 176.842
103.68 48.0253 135.814
71.9647 49.7253 175.252
50.7767 251.197 87.0791
84.5847 63.7563 204.67
104.997 34.0406 34.8177
56.3046 204.705 85.5819
88.5983 136.977 94.5785
107.899 153.134 103.333
98.961 43.8442 131.283
109.742 92.4163 203.993
83.4095 204.105 85.6128
71.3752 204.789 85.0538
77.115 56.6178 216.381
53.0192 246.098 80.5454
40.9626 155.893 168.416
103.856 205.073 199.106
61.7534 73.2839 200.746
51.2906 159.393 178.492
68.1454 104.942 96.8747
36.1697 67.973 180.115
75.2599 108.127 218.354
109.39 188.118 192.229
38.5233 134.174 120.796
80.8377 188.311 199.848
72.8008 42.0914 133.052
60.409 234.784 79.4047
73.5318 42.9971 127.681
61.5572 56.4562 182.012
