ply
format ascii 1.0
comment Created by Open3D
element vertex 329
property double x
property double y
property double z
end_header
60.9752 57.6311 106.935
51.6311 126.393 98.914
70.8761 147.469 123.992
61.0423 94.6172 34.4672
62.3195 167.301 62.8452
44.3325 101.791 83.7336
69.0503 48.5625 136.213
72.9347 163.681 90.0361
72.9003 130.022 37.3601
57.9254 29.0707 116.362
67.0104 147.895 81.8543
61.0547 64.0882 135.65
72.523 157.431 117.235
73.5928 55.2329 152.557
29.465 50.7376 143.698
55.3696 13.5143 104.143
50.8094 116.438 100.657
67.9278 149.167 96.5716
71.4548 158.413 97.6625
43.8813 66.2874 146.686
66.9201 176.438 75.8098
61.4022 186.511 87.4065
55.8449 56.1558 151.219
60.9171 115.333 13.1836
74.6724 119.227 40.2856
67.3049 120.482 46.4824
34.9757 26.0254 107.498
59.5144 146.362 89.9066
68.4746 99.3095 34.0918
66.1047 130.95 44.4232
69.9834 140.242 105.097
61.4227 46.503 106.425
51.9433 121.832 60.5431
72.9099 147.799 70.6775
71.0469 159.427 80.2659
45.6364 41.3759 155.371
59.0337 130.433 127.579
62.6638 53.6894 161.705
52.5353 92.89 36.6681
52.399 22.1102 111.199
41.0769 127.486 29.6062
74.3072 44.4671 139.764
39.1403 157.8 96.3799
67.4301 36.4512 134.26
66.5302 36.4941 105.305
69.2067 50.5168 157.143
54.2751 23.1264 96.9612
70.3629 52.6526 112.093
71.7871 102.228 22.7728
52.4458 55.9496 110.326
59.0902 29.9748 105.825
59.2805 102.422 53.0056
68.8767 109.923 15.8628
48.9325 59.6216 130.791
71.6481 108.685 38.9855
49.1686 105.162 70.3497
74.176 121.543 105.995
71.187 170.213 80.4782
69.8609 65.7435 141.835
47.7352 13.1265 111.013
30.3246 50.7153 132.68
56.4104 150.072 119.838
59.2107 27.0036 155.001
38.3489 40.3857 110.284
73.1297 122.127 95.7828
39.97 107.279 75.3309
57.6722 36.1945 162.915
56.6549 38.1771 131.679
51.4097 145.171 93.6799
64.5606 24.6819 145.914
56.7723 69.4947 119.31
70.2578 59.5702 130.067
62.0325 104.286 15.4964
51.6388 130.424 21.2225
68.0046 135.731 96.0664
61.8491 161.541 108.389
70.078 47.1077 118.281
42.5039 28.2395 150.34
41.091 166.973 102.241
71.0629 179.14 84.2588
53.6961 116.438 13.4382
49.2502 124.53 109.283
73.9089 47.1898 148.839
68.479 43.3 110.18
62.6176 37.6845 166.635
44.9523 57.2598 107.501
37.6546 46.5353 100.361
37.6515 41.0561 118.752
73.1344 125.035 27.4144
59.4426 203.123 192.702
55.8042 46.0885 165.718
50.954 179.635 98.8798
46.266 179.695 91.3723
45.6341 21.8791 95.3134
62.9601 130.774 21.6983
73.583 40.9485 160.563
74.3979 85.0658 169.309
37.4939 113.324 43.8014
72.6627 119.061 20.9957
56.2033 30.7591 135.313
57.3231 105.558 76.6529
68.5249 182.072 93.3389
47.0328 143.739 84.1863
33.2856 90.2498 75.8146
53.4879 85.7767 168.813
65.1798 66.942 120.2
54.2944 105.057 62.0472
40.4216 33.7773 115.017
62.5373 142.016 105.492
61.3221 181.21 105.619
63.839 96.0754 25.3347
65.8133 103.083 44.2933
61.2954 180.206 80.5355
39.7191 167.552 89.9499
55.9184 34.8273 95.175
47.9909 50.2059 117.577
74.2344 65.6262 151.167
49.5248 32.7844 117.909
70.8349 63.5779 159.499
64.7168 122.676 18.2342
42.1543 37.9245 100.366
37.2785 128.531 40.3341
55.1481 91.3366 66.7664
63.7049 173.175 108.193
56.9537 50.4152 159.262
39.3882 38.7354 142.297
67.4563 29.7853 117.944
53.2067 49.8588 101.1
46.8462 57.4869 120.133
57.2588 145.079 73.7702
67.9803 131.877 127.912
54.9169 64.4152 142.817
74.8767 110.55 23.389
55.2807 137.691 100.189
73.844 115.484 30.859
50.1364 38.3729 94.7515
40.4632 160.814 82.7176
74.0989 36.4018 116.788
53.4604 108.339 13.3913
39.4097 18.8899 116.15
68.7954 156.565 71.3885
59.6092 112.389 92.8059
72.2673 136.957 116.994
66.4689 31.9939 150.73
71.6224 56.0476 121.238
66.18 108.303 108.575
73.7012 124.338 120.032
41.6967 115.291 53.1233
56.1114 139.872 41.3916
49.9289 40.3804 167.38
66.4654 112.971 53.0287
62.9317 119.58 85.9559
55.3163 68.169 128.777
54.2038 99.5339 41.7954
38.6902 27.3141 100.582
64.5419 159.398 66.655
40.7819 124.074 50.0149
74.9824 112.875 117.726
62.6581 144.221 113.256
54.44 94.6569 25.6269
54.5283 123.581 18.2466
66.7456 123.775 129.127
42.5985 95.097 34.274
49.0706 116.572 113.609
62.7026 65.7103 161.345
34.625 62.4292 142.889
50.7575 103.184 89.8808
49.7786 31.0179 151.343
46.5099 117.819 121.718
63.6866 127.681 56.0613
52.9087 63.6032 123.578
56.1641 96.5615 85.8636
44.8764 156.378 106.003
43.4229 155.23 76.4583
74.062 172.449 94.9176
69.3857 134.054 31.9596
69.486 167.95 105.501
54.0047 130.903 91.6456
53.9016 101.192 18.3504
72.0286 37.8056 145.552
59.87 116.845 65.9914
50.1062 176.492 79.9906
71.5561 107.649 112.125
42.9373 25.5447 121.501
49.2443 29.8694 142.841
41.2621 34.9242 129.02
46.7067 163.085 69.0401
47.1293 123.107 127.62
54.4993 123.333 134.447
60.0401 110.329 65.3922
47.2424 110.722 16.8662
35.5717 51.7349 108.506
45.325 31.0044 96.9732
41.3123 119.313 24.6229
39.0892 18.2119 102.337
38.7591 91.7808 82.8121
51.3695 58.6167 141.308
66.7011 207.183 182.593
70.476 36.0414 156.602
62.6289 62.5534 115.757
73.5875 36.1943 124.18
45.8852 95.4574 44.8444
68.8876 73.702 144.642
64.5135 130.577 85.4778
61.1426 158.148 121.559
60.8855 54.9541 116.357
64.1083 23.0563 134.368
50.778 21.2938 145.62
36.8874 46.7702 149.157
46.4998 99.6294 21.8423
69.7157 114.34 91.6186
55.095 180.404 81.9159
68.8848 31.3678 140.632
51.8103 36.1656 123.609
62.8615 71.4494 127.154
65.6716 81.6471 172.786
37.5386 58.8784 133.731
71.1572 130.487 108.265
45.5371 172.036 94.4486
33.6531 93.2145 67.9034
45.6745 48.7367 125.278
49.0655 161.947 108.477
45.4611 111.977 63.4603
42.6791 146.228 93.7435
48.0235 129.477 49.9074
39.5714 100.737 23.4982
63.9402 105.394 59.1833
53.1261 82.9281 79.6005
56.9111 150.019 104.834
42.5452 55.8604 128.097
61.6727 95.3409 82.0607
57.0466 39.7069 101.724
62.8423 79.1386 164.361
61.8668 97.1533 18.0853
49.25 136.383 44.4563
61.928 154.182 105.115
66.1946 139.295 126.434
59.3532 181.905 96.0096
47.278 31.7379 130.17
46.9174 42.0236 121.56
33.6996 107.266 29.1367
60.4558 151.493 68.8535
65.051 196.362 185.003
63.6901 70.9787 140.004
58.2746 156.649 129.964
55.2692 114.105 129.688
73.3636 117.043 127.273
69.2874 83.1144 157.322
66.3395 115.661 105.722
58.6563 114.548 109.109
46.2988 119.132 62.9484
66.8748 43.6755 169.056
43.0688 42.0832 148.869
48.8344 38.1253 138.52
57.5763 138.013 128.878
68.6021 51.5895 125.125
50.8653 47.2734 158.171
37.5406 113.245 31.5276
49.4825 128.303 119.006
42.9814 115.642 18.7966
46.5862 123.526 20.9093
55.5372 21.6813 135.374
59.379 138.638 93.7731
56.8882 66.4452 150.958
69.4847 41.2678 128.667
42.3412 42.313 166.865
38.9655 43.3419 135.557
39.777 82.1935 74.8448
53.3101 143.585 79.0457
44.8098 11.4006 101.769
66.462 108.071 123.073
63.0656 135.006 27.1689
50.3199 112.516 90.7728
32.973 101.286 12.1302
47.4687 86.9056 71.2215
60.5141 198.544 187.528
54.7642 171.283 108.109
60.552 85.2216 153.152
58.7679 138.995 31.965
52.0713 154.725 68.0958
37.8567 48.6456 128.582
48.9561 105.925 58.5946
45.7805 83.821 82.989
44.0131 132.718 43.9215
51.1242 95.2656 60.3687
61.399 89.5578 70.558
53.2241 133.923 27.312
47.6005 145.769 102.347
62.6961 115.998 127.786
44.3549 91.1651 62.294
57.6794 130.701 56.0741
57.1994 108.268 117.269
64.9243 78.1631 149.474
56.5655 134.005 50.2916
47.7363 168.013 74.4649
68.6368 159.698 127.652
64.3192 138.539 43.6367
41.3677 53.1551 114.926
61.0417 122.297 62.5117
41.9614 120.942 39.5118
39.2625 33.6602 149.446
62.8971 92.059 166.309
63.3378 144.901 130.146
68.5817 197.023 190.717
58.6492 209.894 72.1895
74.2291 79.1216 180.871
48.1558 132.552 106.588
60.8707 204.078 198.561
41.2739 107.612 21.3012
66.0864 150.865 111.37
40.6295 103.662 64.6594
59.0959 111.435 124.346
39.1874 104.328 34.1592
45.6141 47.8563 146.329
57.6209 68.7444 155.769
53.4967 138.785 122.153
40.6953 105.403 51.3286
56.1333 121.684 87.211
47.8094 104.176 51.4741
42.8178 136.487 32.7663
66.1744 210.194 73.7846
48.7106 128.613 59.7277
43.6724 57.8769 142.1
56.3471 62.5293 115.509
66.2993 55.5631 120.424
44.8363 88.0522 40.8596
37.4107 111.972 22.6788
54.4656 139.936 116.166
59.3918 137.503 47.11
