ply
format ascii 1.0
comment Created by Open3D
element vertex 2022
property double x
property double y
property double z
end_header
103.272 54.5302 54.1864
156.902 136.716 180.298
160.638 110.695 167.869
114.097 121.083 60.0626
115.515 108.746 183.444
119.82 32.1498 26.327
145.115 122.794 108.984
106.25 101.275 174.181
125.014 152.762 89.5093
138.622 53.6742 30.8018
101.848 126.058 268.957
133.702 78.3625 192.654
150.476 61.9578 133.159
122.616 121.391 287.742
156.455 14.1711 26.6849
161.922 76.8817 37.8953
133.634 80.4788 159.729
141.404 172.03 84.631
140.09 133.785 230.828
131.914 129.979 105.772
127.789 116.419 153.4
159.639 68.0442 20.8581
133.985 162.394 51.9732
132.84 124.543 156.599
95.9018 98.8664 289.837
69.4635 33.6996 20.3694
159.95 109.074 111.595
97.6597 155.021 253.223
152.699 125.978 105.32
158.793 50.2405 66.074
130.033 57.6455 260.451
137.4 57.0312 139.947
120.947 149.916 127.993
142.267 15.4029 45.8648
142.704 66.2171 248.4
146.931 156.446 51.125
136.323 129.066 21.1739
149.68 49.0559 97.9136
133.652 22.2214 34.21
159.151 87.6188 224.517
144.13 117.078 174.036
159.905 72.0145 85.4789
139.236 134.909 253.467
158.55 111.87 233.398
158.925 129.12 126.125
160.467 108.083 55.6871
98.6118 129.848 263.805
139.961 163.388 117.099
159.595 80.7324 171.481
124.98 147.947 234.399
98.5257 20.8215 60.164
141.834 70.6474 262.596
153.842 166.272 73.6114
144.7 125.043 168.761
108.938 82.1003 231.045
146.42 53.4899 58.5089
129.414 142.452 250.708
146.192 152.957 133.449
160.016 112.098 141.287
159.791 96.598 69.2808
118.185 159.313 106.209
84.4437 103.504 178.951
158.454 91.2945 215.456
135.384 103.107 165.423
93.7019 60.9886 40.4412
127.302 123.325 145.067
113.801 43.5364 9.71907
126.034 73.4316 151.215
133.585 97.4676 65.5681
157.511 83.1402 198.575
119.03 17.6959 3.26229
148.877 57.6607 114.763
136.375 56.2687 238.541
145.555 91.4998 45.1304
98.1478 4.40437 74.938
149.188 136.672 84.1788
139.703 79.511 263.039
137.589 85.9164 96.5582
142.118 129.34 102.172
135.802 43.6244 89.1165
160.334 129.88 107.333
161.066 5.4172 49.5488
74.875 7.22324 71.0434
133.724 97.7162 48.4616
115.97 70.431 188.812
107.275 61.8139 23.023
128.446 111.862 87.5373
138.308 100.379 229.495
140.793 143.493 34.8556
109.357 66.4165 279.394
158.386 154.791 112.721
143.066 60.5952 243.287
159.565 109.411 222.364
121.25 59.2881 204.11
122.388 100.672 154.566
159.498 90.47 119.78
141.335 68.5894 154.741
132.562 151.798 124.05
123.294 134.162 118.187
139.415 121.46 163.177
139.463 124.902 116.619
154.755 161.06 69.0342
146.673 22.5668 13.7035
160.229 137.968 111.012
90.7233 27.3724 52.1232
159.154 121.312 33.0545
77.3468 68.9165 3.10856
110.804 73.8557 282.204
112.536 93.9659 146.289
121.893 118.028 153.471
135.476 63.5371 262.02
79.3361 143.926 246.067
149.79 14.2205 36.3855
107.877 75.2641 25.8029
134.647 43.758 54.154
96.0589 147.88 239.83
126.342 51.2051 123.382
129.774 13.8977 54.213
108.96 152.29 255.771
134.284 155.828 96.6898
106.579 146.291 210.353
143.3 128.84 250.63
129.311 105.845 163.331
153.286 167.505 97.4959
126.403 139.69 202.883
161.144 114.494 48.2889
153.717 12.4975 44.0559
153.201 138.937 103.254
142.702 101.142 182.437
127.177 138.54 274.442
144.854 18.5102 36.5308
83.8898 139.685 252.064
123.436 72.5561 32.7325
65.8245 121.77 262.758
142.795 47.2717 99.0696
134.7 113.884 165.472
151.462 87.1452 54.9551
160.475 86.056 141.56
108.782 133.879 257.896
150.777 41.6756 174.002
130.306 132.328 122.606
152.687 85.5116 43.8773
126.676 154.546 126.439
136.537 70.1595 267.842
126.698 130.496 211.308
157.826 82.5781 215.321
139.346 75.8842 198.032
138.362 93.5538 187.785
138.406 12.0131 51.2317
159.694 97.826 94.7743
141.468 5.17742 11.8842
97.5548 60.5938 113.389
160.001 17.796 4.76478
140.616 134.187 215.278
148.625 169.099 102.62
127.055 114.456 161.789
144.472 52.754 116.474
119.354 48.3643 230.455
134.122 19.932 18.9938
159.773 81.4333 83.1167
142.928 103.451 100.102
158.776 139.903 26.4398
141.238 79.4179 163.323
119.47 14.2943 58.1566
133.037 116.618 103.653
135.38 66.4513 154.972
149.9 164.315 109.565
132.504 139.282 213.301
136.67 97.6177 278.373
144.635 68.9411 19.8645
121.356 45.4792 100.551
120.656 50.6578 8.50866
158.182 119.927 155.116
159.969 131.568 90.5167
91.4334 156.022 252.731
130.368 146.322 35.4616
159.495 89.0735 83.5946
124.212 68.2742 145.555
131.934 29.7925 35.3049
132.525 89.809 54.5801
142.004 86.0642 52.2992
146.187 136.053 108.333
122.414 95.3192 63.6393
105.98 123.194 51.0129
96.7409 134.127 285.963
98.9701 107.842 290.198
125.471 125.306 155.042
160.784 81.8472 104.822
74.4375 87.3832 273.292
155.439 56.9163 226.655
159.016 102.593 15.8144
117.333 52.7268 262.968
120.317 116.869 250.605
152.1 133.566 161.087
142.776 63.4317 114.747
118.18 21.1942 13.4906
160.086 104.061 116.539
105.777 116.646 293.913
157.683 134.001 154.234
122.176 51.4636 268.323
158.386 84.0034 247.51
134.395 92.117 106.33
155.233 76.1248 20.6568
98.062 94.5287 247.588
107.454 110.357 239.388
136.922 139.075 243.508
143.407 105.058 11.9856
160.735 81.8648 120.5
86.7905 140.238 281.562
130.946 72.7983 154.503
126.42 115.572 253.162
90.5945 67.7556 269.56
160.793 114.856 107.114
161.31 102.199 28.9633
119.371 8.15111 63.4599
126.577 54.8428 214.504
155.69 55.9622 84.1973
104.814 137.656 118.73
153.007 1.62829 58.6295
98.0952 29.0389 52.2355
148.663 47.1954 90.252
135.516 57.6169 247.824
104.675 50.2825 239.756
124.107 148.823 81.9765
127.622 94.4454 277.479
109.094 84.2263 192.558
129.053 107.981 106.128
158.028 111.81 241.014
118.999 68.1257 223.16
132.719 85.0052 60.6061
125.098 94.0355 221.317
136.705 87.4404 121.624
141.599 24.4128 30.8853
87.8964 122.353 288.493
146.865 87.7826 159.388
116.562 52.0604 249.676
159.817 83.6065 155.491
160.74 151.784 104.581
160.569 79.1977 136.159
136.784 50.563 38.6498
156.861 163.824 108.857
157.937 114.257 66.1408
146.654 104.64 228.365
134.036 134.022 40.2661
158.124 96.6981 206.478
118.949 152.125 88.5405
125.673 48.5233 38.1099
121.342 58.9387 23.3288
159.084 107.66 185.208
143.978 98.2674 268.472
143.328 86.8281 110.465
146.405 170.948 92.9815
113.198 53.2144 94.8473
158.123 122.852 85.5077
139.594 157.295 48.7906
145.301 97.1566 109.946
108.274 101.598 25.7123
102.311 41.0793 31.2107
160.276 109.951 93.5618
128.063 52.8932 29.1119
140.634 53.7154 125.559
144.769 87.261 261.158
149.614 80.1132 62.5204
161.339 89.0596 47.2915
84.677 137.964 260.639
103.815 126.054 184.272
130.109 44.7717 111.963
141.249 131.086 164.788
79.9449 140.36 278.734
158 5.26406 58.9823
160.242 145.679 87.2084
126.197 120.979 208.804
120.453 58.7423 86.4973
133.468 133.805 209.877
158.503 99.2269 136.364
148.923 146.658 142.422
146.395 127.27 213.049
115.694 36.8783 36.4772
125.307 135.188 110.838
143.238 75.2253 222.197
158.47 162.737 99.5771
116.704 68.5199 275.294
146.806 162.137 55.6001
146.5 121.226 84.1507
142.676 50.9473 36.5744
119.934 101.591 284.579
89.2723 85.4574 35.5039
141.466 80.4801 65.9279
160.852 139.196 34.3057
130.846 102.822 21.0716
102.374 94.8042 23.7974
161.266 71.7207 52.7147
133.883 78.8102 118.46
142.674 85.9876 171.848
139.328 112.178 177.751
145.152 164.373 99.352
104.225 26.374 46.1409
95.0922 83.8787 245.756
131.752 94.6828 93.0194
150.108 60.2334 102.657
110.824 153.795 246.237
141.445 80.3337 208.237
124.695 102.935 86.7445
132.843 99.6716 247.974
145.17 84.6201 44.0694
151.411 98.437 203.851
159.241 89.9272 94.6638
160.285 72.5307 74.3377
138.438 107.032 214.48
134.664 90.3061 80.8117
120.781 104.893 61.7954
122.674 73.2582 65.3712
139.921 29.5215 23.3396
116.556 92.9541 20.6365
89.0337 10.711 69.7964
90.9011 79.0287 31.8231
158.565 103.428 73.4255
119.951 111.248 177.237
119.456 144.474 208.16
147.833 82.0118 204.649
136.947 134.609 151.762
139.2 118.053 270.207
128.02 59.5003 208.494
115.433 101.159 24.5188
160.423 123.356 112.758
137.681 78.2119 27.5821
154.209 167.287 87.0336
158.616 95.5683 14.3821
105.919 136.31 190.051
156.33 136.6 77.9397
134.101 127.568 274.733
160.682 139.343 121.182
144.216 77.4158 78.7295
160.46 148.385 120.594
144.942 84.7688 34.9115
155.018 135.702 89.7782
155.724 13.0795 36.7596
108.839 56.9876 7.31863
131.59 160.177 118.925
140.513 98.1779 148.204
146.918 91.515 14.4439
148.339 129.685 61.8761
127.454 94.7553 104.471
151.091 79.8572 255.263
159.46 73.9751 164.863
99.6886 75.2883 212.725
134.782 164.627 81.252
159.615 112.487 214.904
99.0006 50.9668 246.583
87.4146 113.351 271.038
113.961 114.806 291.698
129.503 5.12692 39.2481
135.777 165.736 99.3899
159.63 108.769 207.435
160.545 103.448 82.4252
145.857 132.463 233.282
142.562 115.531 53.7552
159.269 139.114 83.1897
126.359 50.6939 231.61
152.236 106.709 10.3256
120.474 40.6758 8.28429
126.616 138.068 35.1118
158.995 154.681 61.8365
112.725 120.618 137.275
123.148 143.496 221.533
153.558 62.7869 78.7664
149.056 131.786 67.098
115.153 134.622 117.832
148.187 86.2534 254.508
126.472 56.6276 266.059
142.886 112.781 253.802
126.831 21.2864 24.9705
158.973 117.262 86.7196
99.457 131.672 185.892
145.211 170.427 78.3061
98.4194 80.082 189.38
107.804 111.569 146.281
116.394 42.4552 26.2288
126.992 99.1827 157.003
119.907 90.4656 144.607
108.442 61.4686 198.306
122.184 75.2791 203.784
116.538 128.775 287.472
140.674 96.3505 258.194
98.3849 43.9975 21.8706
133.148 159.499 46.5845
147.51 130.033 112.158
96.2517 9.49211 70.4625
142.703 111.108 218.404
141.021 68.0479 234.397
134.222 61.2653 148.473
143.428 168.564 106.144
155.655 115.206 250.356
84.2326 52.8288 218.806
158.922 71.8188 201.143
128.48 55.7384 129.405
114.171 60.168 99.9588
143.003 118.434 210.843
110.579 72.4222 207.14
93.3472 108.537 287.908
134.266 125.09 109.721
127.844 85.4688 71.0745
126.263 133.229 280.372
138.514 88.1134 104.919
160.79 85.694 15.3178
107.842 89.917 220.079
118.862 119.569 234.662
124.192 30.8134 36.3352
148.404 11.6294 51.2875
160.253 121.126 174.528
110.175 152.552 234.204
153.974 92.383 50.4298
139.62 2.89663 17.9719
131.562 138.257 149.275
158.349 151.765 54.331
160.014 75.5996 226.741
127.49 32.7841 29.6998
133.785 78.5469 275.9
158.511 104.754 64.8264
124.12 29.5091 16.4236
137.388 118.297 14.2484
118.091 90.716 282.976
114.247 80.8044 272.742
108.783 150.055 221.734
99.6223 152.751 264.026
160.784 9.21985 2.58759
116.059 83.8948 112.158
125.172 61.3659 71.6703
136.699 4.21257 41.1251
156.48 100.62 54.6057
114.499 23.6658 36.3488
130.597 98.6315 221.052
114.881 14.4347 62.1264
97.0837 62.0376 192.819
103.768 59.7574 258.356
132.369 41.1448 2.16422
137.17 34.0407 8.78151
128.294 74.8338 277.406
124.311 47.3683 53.1368
106.414 80.9028 19.505
124.663 134.342 140.97
74.1385 117.524 269.123
116.326 141.146 281.677
157.636 155.643 125.765
140.934 87.9886 194.283
105.219 2.24645 76.083
145.978 91.1331 34.4925
124.129 43.9383 83.3663
151.765 127.163 174.661
112.373 98.7839 114.467
151.776 105.27 194.597
140.859 119.561 110.1
139.802 92.1087 77.0565
101.817 117.364 258.493
111.148 91.2183 285.627
125.359 21.8178 33.7649
128.96 57.7337 250.423
144.422 97.9879 18.5522
134.06 104.944 278.139
83.8305 3.30432 50.997
129.809 43.4883 87.581
140.174 48.1983 43.1103
116.594 85.3135 18.0077
90.0698 68.4985 41.3898
158.207 100.742 245.553
117.625 62.8809 71.8118
86.2062 134.613 195.355
140.159 65.9324 209.139
87.7953 103.169 287.896
143.947 45.3921 55.8724
114.953 2.80249 70.8028
130.384 155.641 59.4965
126.085 155.228 81.2787
136.973 131.507 159.621
122.123 88.6508 21.3006
109.293 98.0714 199.579
137.95 89.9919 46.3179
147.579 58.6951 223.449
140.025 140.435 149.496
140.604 105.937 272.576
159.194 121.578 100.353
133.623 110.032 197.807
138.761 136.709 29.4364
149.663 69.6009 149.545
98.2402 131.16 105.602
132.579 64.8201 72.792
127.129 45.6858 6.10599
128.262 171.799 89.1491
152.566 91.0334 208.074
153.48 160.142 59.9548
132.786 54.7265 72.784
142.606 58.3984 231.866
91.5549 58.2841 256.034
126.722 125.563 281.211
152.499 117.568 81.5119
141.613 96.7892 43.4058
159.047 131.375 117.347
111.014 93.1393 63.1681
94.9558 72.4542 224.569
122.517 85.2853 109.074
106.411 93.8496 252.351
155.78 49.7596 177.292
114.738 83.9606 261.032
147.309 70.7439 159.048
112.387 71.7857 138.083
141.692 103.976 237.959
159.859 124.979 93.0513
112.199 76.4038 59.5231
115.998 131.948 259.184
134.985 168.892 88.2288
90.4301 152.254 270.07
99.6252 139.433 192.959
118.094 64.983 257.774
113.566 70.8138 213.044
121.487 109.918 287.75
126.25 134.777 131.908
92.0891 116.259 236.952
107.23 98.6987 223.107
103.855 136.826 256.256
143.351 109.391 198.738
136.104 137.792 126.321
115.107 51.53 76.5172
108.979 13.3661 65.1328
142.3 108.479 110.543
129.505 120.771 160.583
137.134 59.4875 24.8342
136.45 112.086 14.1221
117.861 48.5555 238.265
121.125 135.997 236.765
125.436 73.9673 193.126
139.187 94.6608 221.595
144.09 9.21678 4.16174
134.633 118.407 47.4482
79.0449 152.48 247.657
140.198 96.5471 34.9512
130.722 134.67 142.062
105.924 37.9332 10.0708
85.3289 16.0271 65.8031
158.733 81.1433 236.448
148.369 75.3985 233.362
149.155 80.5148 169.696
142.708 48.744 109.955
140.472 16.1442 10.7775
98.2397 141.088 105.295
130.548 87.196 232.835
118.741 148.829 235.26
104.44 97.4199 287.979
154.129 54.4521 32.8419
140.816 163.676 89.7686
129.048 166.897 104.806
119.427 105.69 88.9648
111.857 49.3679 37.5472
157.814 51.2861 75.4954
129.182 137.945 221.382
129.19 92.2497 120.52
96.6145 55.9054 209.44
113.791 117.807 81.2118
87.3689 148.935 251.09
104.33 86.7012 234.577
138.107 166.008 109.603
155.96 130.088 78.3634
108.96 62.4892 262.029
156.477 153.419 133.935
160.758 80.4609 28.9038
136.709 121.636 69.7298
95.0811 82.2436 25.2634
136.474 159.392 122.857
102.646 89.7359 286.375
102.49 146.987 252.454
105.338 59.4563 2.02131
128.962 83.8042 149.399
140.821 90.4377 246.338
119.199 135.949 283.335
122.074 5.59068 56.0397
154.544 121.7 135.538
158.584 146.732 71.5286
122.489 62.0951 278.305
160.673 81.7439 72.5072
147.859 113.775 66.9093
161.054 104.463 48.1163
133.672 165.753 108.045
139.654 73.3176 85.9933
127.501 120.416 265.997
144.134 131.216 221.331
145.427 115.222 160.76
116.06 120.275 289.531
126.17 95.1726 95.8287
106.999 51.3751 210.761
118.659 67.9306 21.5186
121.187 94.7337 253.72
68.7846 24.9857 26.6463
142.256 93.5912 69.4757
135.361 139.542 223.151
155.539 119.081 162.771
154.219 48.1681 166.508
101.583 62.7895 199.897
119.347 49.0206 38.9019
140.864 45.3489 90.0492
115.985 88.4877 107.716
160.449 81.6327 63.2914
97.6261 60.4629 256.921
125.708 66.9631 274.252
101.894 106.946 139.609
91.4822 71.7808 31.2464
133.191 138.631 108.044
106.763 128.011 85.5786
75.4819 58.0985 6.24734
154.787 76.248 249.498
95.372 75.4095 25.1401
91.6443 127.453 284.028
124.63 100.896 95.0217
146.918 86.0274 198.315
112.74 103.474 88.4759
139.882 112.064 272.636
148.67 128.558 100.801
104.256 52.8217 38.4156
149.665 98.2407 259.423
157.249 71.0687 145.466
101.331 53.3864 92.4719
156.483 113.649 36.6861
157.633 133.436 144.704
135.018 91.3443 131.472
136.379 101.91 122.128
101.554 61.5385 27.9358
124.113 104.305 250.79
132.797 131.484 202.476
80.7541 24.9441 55.7806
145.895 92.1985 233.283
131.117 59.2687 135.273
156.035 2.11535 48.0277
100.757 81.4946 23.9509
111.959 47.4685 229.591
100.455 97.8944 130.685
84.2879 72.8337 183.176
114.735 63.8828 271.262
111.762 52.5475 13.2287
98.1053 147.53 74.7928
88.5682 99.1803 130.281
156.948 115.2 74.4961
131.391 67.3888 202.519
115.267 99.4965 62.6172
117.552 125.865 129.339
103.308 132.418 273.908
120.364 129.114 95.6893
102.644 102.598 31.5081
152.123 121.338 212.306
134.364 128.326 117.762
102.806 98.1607 97.5107
112.17 123.655 44.2941
138.31 95.4333 212.941
89.026 153.179 241.944
109.877 66.1249 60.3389
94.6816 86.9292 136.582
91.7594 83.9847 233.041
95.5402 148.035 269.015
135.713 67.8218 19.7774
124.503 111.524 200.301
142.661 48.0629 48.0948
85.9171 103.848 280.85
158.472 153.168 77.2516
159.901 57.287 37.9373
73.7093 132.074 278.775
114.811 149.812 256.712
117.243 68.7559 199.267
106.492 81.1898 64.7894
91.598 73.8665 210.122
104.435 104.369 291.777
79.9787 148.907 212.727
139.185 45.5098 55.6811
157.051 115.805 186.019
129.095 139.026 263.219
144.297 58.5824 135.427
113.627 66.9116 260.682
145.288 79.1364 103.589
146.46 75.4119 69.3735
150.187 61.6954 140.744
133.853 169.454 72.0217
97.3757 22.3745 17.9431
123.227 109.159 270.369
141.547 128.144 206.472
157.523 129.803 229.214
129.603 166.354 56.3043
132.62 135.861 270.615
160.318 154.11 95.8167
116.195 50.7056 88.8123
125.902 50.0239 116.929
150.972 123.731 249.366
148.684 114.249 242.266
136.188 121.129 53.2994
159.873 95.135 86.343
159.376 76.7645 243.85
121.856 79.2067 280.804
111.233 102.574 62.6314
159.411 125.967 146.161
161.099 114.727 120.759
134.132 108.814 108.34
99.4751 127.031 283.386
150.973 146.583 38.772
161.883 57.8419 44.8322
139.665 77.9123 106.408
139.052 125.288 224.706
96.4482 57.771 226.457
117.833 113.869 140.405
118.54 46.9135 63.3373
121.266 140.558 60.3694
110.471 91.9089 100.067
105 150.497 264.699
139.213 107.327 95.6965
136.774 45.576 101.859
117.746 60.8772 29.2086
124.436 97.1893 117.855
131.055 14.8109 46.2081
104.368 86.4729 61.7758
111.356 78.2629 215.965
130.922 94.5264 188.341
93.3109 17.0737 66.0385
149.417 77.0043 17.2246
139.734 89.2353 225.434
93.603 8.07576 6.13142
158.946 90.5597 128.94
145.114 109.404 179.237
148.111 127.051 238.67
147.47 72.6951 97.5736
138.763 97.9287 243.047
147.265 17.4829 7.81282
144.505 70.074 208.165
154.394 133.101 44.1133
123.251 106.563 236.797
138.379 81.6311 60.1438
126.008 79.2841 74.4369
156.006 146.184 40.578
79.0229 81.8506 272.927
160.482 110.05 158.212
104.202 135.135 231.921
113.783 55.8905 274.35
139.379 119.306 243.98
144.577 133.13 17.9943
137.064 86.4475 52.6415
119.398 94.6497 54.1001
134.639 86.6795 186.258
100.511 53.6392 18.6533
138.436 99.848 65.9664
148.422 65.0227 229.064
125.374 84.9109 58.9664
129.697 112.584 22.448
140.323 61.2009 220.293
121.078 103.974 222.928
103.497 98.0069 203.681
109.038 143.502 248.805
123.208 155.04 67.0204
138.871 46.0904 73.468
123.056 74.6772 142.083
147.143 165.165 61.5797
122.583 109.4 156.457
139.295 95.961 168.508
145.742 129.507 40.3018
160.362 65.46 29.8597
132.879 38.8889 10.2149
145.818 59.7778 214.88
128.211 156.434 47.3465
149.33 61.8937 147.792
157.08 141.764 145.264
131.321 63.971 22.3296
140.744 159.047 97.8406
135.99 98.6615 88.2969
155.382 76.8018 220.572
110.208 142.214 284.663
149.133 103.077 173.7
135.123 147.267 116.696
160.312 144.791 132.377
110.355 48.568 85.9404
159.155 138.688 96.2389
121.926 109.848 110.96
119.342 126.21 215.081
159.205 96.2658 78.0556
122.537 58.9567 131.577
135.442 142.261 34.6667
159.697 95.9156 47.7199
145.222 55.5461 30.7375
117.322 26.6242 31.7928
123.286 67.0376 23.9132
95.691 104.515 247.239
129.319 156.206 92.9817
105.074 74.0412 229.411
143.361 104.211 193.375
159.413 134.886 47.0325
128.94 105.994 282.4
140.711 123.728 92.3537
102.86 61.2564 128.477
108.381 124.944 180.154
153.772 139.645 150.572
158.364 97.0435 228.475
135.016 82.5394 203.742
131.297 103.737 117.616
72.1234 69.9882 190.12
122.403 127.522 144.359
105.555 99.6702 236.698
132.817 80.7778 78.1119
71.2012 60.993 241.48
101.15 28.8833 8.53042
116.344 132.523 234.374
158.434 90.6797 72.9828
88.8941 147.275 275.686
140.409 13.0878 27.0764
107.232 56.0533 94.8076
93.4567 66.1874 33.59
124.883 74.4941 21.4533
144.031 169.461 73.0772
125.834 10.0028 61.7437
160.398 7.50294 27.8643
116.617 132.061 221.946
131.207 120.141 68.2757
86.0631 27.481 48.8239
114.463 59.7426 219.921
126.607 118.429 183.471
135.545 88.8845 259.296
100.713 60.6372 266.621
91.8396 148.056 220.155
134.593 109.074 252.024
123.97 116.055 101.719
95.0788 77.7329 133.729
109.66 49.327 240.149
91.6452 57.438 104.729
160.512 117.475 13.2076
119.614 65.451 133.678
112.428 54.5288 68.0414
99.827 136.657 243.066
157.161 118.193 142.295
121.263 111.321 84.6459
147.388 153.574 42.9421
154.189 70.8186 127.505
156.167 104.215 229.636
115.029 130.624 61.2227
128.074 79.6992 63.6913
127.308 64.4851 23.4114
137.32 31.402 18.4582
116.019 151.379 49.798
140.401 23.4804 4.87283
119.88 49.7884 121.831
117.337 129.693 229.078
153.112 138.007 26.6885
64.4123 11.6874 65.5254
151.231 142.013 76.4134
145.986 134.162 160.866
150.266 61.8297 86.9974
124.616 114.835 50.8233
135.166 134.519 265.329
129.306 45.1729 59.3855
157.82 97.5636 197.359
138.613 35.7149 2.31204
155.1 91.0685 109.182
123.085 105.555 38.4241
130.61 141.174 257.853
131.773 29.775 17.0533
147.54 136.149 75.6551
117.159 128.115 147.766
104.664 101.001 91.4053
160.498 113.749 148.681
133.281 53.4463 31.4455
152.068 77.4041 195.782
139.114 19.9686 39.7019
115.507 81.6053 254.275
117.843 75.3618 269.444
160.271 8.79331 11.9833
137.785 88.7243 89.3683
124.733 136.404 217.424
125.944 116.231 41.9861
154.142 66.6292 21.3833
122.377 58.9765 257.102
126.781 61.2823 140.786
133.09 98.0267 27.6425
97.5008 146.076 88.6404
147.092 91.661 136.844
152.834 123.609 223.979
147.723 103.144 186.146
88.6783 89.9033 194.001
129.281 103.372 37.3907
158.813 79.8008 94.9666
117.798 93.6609 178.243
142.068 69.5902 76.1751
157.721 47.8706 45.1956
114.069 64.1064 23.5686
136.287 68.3658 202.372
121.445 87.1176 256.759
147.765 139.223 152.997
158.664 106.679 200.767
78.4081 23.7344 29.4397
115.31 64.4785 110.334
86.4301 80.792 43.5387
147.2 105.609 211.855
160.792 9.23208 18.9648
129.322 72.6811 74.8041
158.916 92.7599 241.951
139.536 99.3427 176.598
143.476 131.951 240.656
153.958 74.2228 156.186
111.424 116.262 146.112
143.33 58.6267 24.3703
146.018 15.1539 26.0753
132.169 56.1703 217.314
108.449 89.5748 126.035
122.696 120.416 271.112
129.939 82.6214 122.895
120.635 69.9077 75.5306
111.217 65.1552 134.946
110.112 132.826 187.864
132.625 116.631 271.654
68.0351 86.7851 270.4
120.048 93.9856 107.159
111.202 132.78 281.009
130.295 101.271 196.627
152.296 105.5 150.335
101.92 67.8803 109.092
128.215 103.902 62.9471
128.899 152.741 41.636
131.556 140.368 231.878
126.039 108.172 181.487
107.152 146.783 278.496
120.232 61.7536 97.2805
127.651 162.534 112.25
119.819 120.394 32.3726
160.087 131.718 28.9823
149.251 67.485 124.182
101.339 125.895 292.885
134.143 105.752 246.576
129.855 46.6486 80.4886
104.979 101.805 40.2524
95.6331 55.5693 96.7299
111.198 17.1781 56.2828
119.28 122.917 243.191
138.024 122.079 62.352
131.822 104.251 221.185
70.8192 146.415 269.557
108.88 126.994 292.324
161.35 2.27066 19.8197
113.097 136.026 194.122
159.35 70.6075 107.339
134.35 45.7938 77.9939
157.585 134.773 19.7534
124.644 127.744 41.2898
158.021 99.526 221.362
120.219 165.314 86.5401
137.317 75.2025 70.3693
105.439 149.565 240.472
128.264 120.961 49.0174
151.912 114.196 61.5122
159.132 113.651 80.6051
143.3 114.264 94.5427
159.04 162.783 84.7132
79.3408 112.01 200.859
146.497 56.8418 42.8467
141.66 145.374 136.35
143.69 85.6562 216.545
121.588 34.3585 1.61004
115.721 94.7537 221.078
149.108 63.194 23.2531
108.903 51.7295 252.416
150.72 128.332 232.785
98.9065 33.6406 46.4858
131.635 46.6474 45.4073
100.16 87.0524 195.066
125.942 93.6787 201.129
108.777 149.061 55.1689
120.211 112.106 257.513
133.972 150.561 46.4174
159.29 65.884 58.8543
114.152 97.5505 286.707
73.3667 70.358 216.826
137.583 26.4039 12.518
117.735 82.5087 216.757
100.155 66.0258 270.232
113.542 93.1594 265.984
158.632 109.885 73.1286
116.193 32.8831 4.88159
141.568 84.0566 73.0444
124.858 49.325 108.706
109.396 149.819 271.757
147.251 124.453 47.0593
148.438 117.318 219.964
137.497 123.359 18.5184
106.761 93.6242 177.32
150.818 91.9047 63.6097
121.319 92.8628 97.9785
144.438 46.6483 67.4138
109.377 84.1189 107.71
138.774 101.074 271.278
103.518 115.81 139.155
108.466 126.293 117.408
160.826 59.0132 228.671
140.233 115.678 223.111
100.984 16.81 15.5159
148.004 73.5734 242.035
148.272 113.712 185.002
98.9372 88.6678 176.996
118.751 79.9078 61.7153
130.728 132.172 275.84
146.202 128.122 54.7445
137.528 54.1778 49.2005
124.785 144.179 254.245
134.519 139.156 252.576
118.659 135.276 200.145
131.125 76.4506 21.7597
123.316 79.4625 248.437
121.611 54.1496 251.414
112.78 75.0386 252.446
72.0244 155.05 265.275
108.445 105.059 129.162
149.301 6.06416 26.376
146.002 96.8046 95.4649
145.651 139.552 36.8075
119.095 104.138 255.694
154.932 6.93779 31.1344
148.348 118.742 104.007
110.494 9.3365 44.1289
119.268 53.8182 47.6395
131.342 121.913 20.9232
115.955 141.761 226.114
130.306 120.017 281.541
103.264 51.0113 249.68
125.795 3.50116 34.4059
119.804 155.116 97.6011
109.615 9.47189 13.6414
136.766 130.743 241.688
128.3 54.4968 245.088
111.753 140.26 210.694
126.449 13.4308 32.9799
134.079 89.705 37.0143
160.004 46.9304 152.677
111.141 129.274 202.973
114.76 122.956 180.63
139.646 50.6483 117.212
72.6944 152.581 256.237
110.911 128.39 286.517
138.208 64.8406 77.0669
139.477 102.242 92.0783
108.871 64.6829 106.589
124.981 117.203 58.842
88.9447 119.804 64.5792
160.033 108.241 85.8668
110.073 94.4708 20.9407
134.583 83.3446 110.635
131.641 44.7529 95.3996
147.395 56.6543 50.118
116.016 137.915 43.3822
94.2431 99.5825 231.255
131.194 64.8021 267.148
146.346 132.921 26.948
161.316 95.7848 161.515
135.542 117.835 220.449
125.243 100.877 54.009
107.405 120.492 131.05
109.738 137.798 203.278
132.11 119.951 205.249
110.741 109.114 110.482
122.41 169.497 63.565
117.655 77.7365 19.0651
104.07 119.574 193.535
132.896 2.69624 21.205
90.5125 71.4336 48.998
126.648 82.4043 186.985
126.069 163.329 99.9965
123.666 67.5063 204.385
160.843 3.47595 37.0873
137.653 140.264 111.802
128.079 102.938 46.691
106.668 53.1555 14.2164
134.654 99.4665 40.0639
158.283 119.633 54.5509
154.336 112.104 135.108
101.082 100.361 189.023
79.8524 46.2477 10.3319
123.051 65.5372 249.676
86.45 86.6808 250.384
123.628 82.2025 119.871
143.196 123.803 54.2344
102.36 97.988 222.968
88.1271 48.0131 216.54
123.29 117.129 26.9099
122.17 8.78731 18.8105
111.732 137.66 139.455
139.535 124.354 44.2122
118.352 112.954 152.35
91.4062 34.0778 47.9048
102.221 3.19583 2.56213
151.483 169.043 80.6019
108.544 51.8686 60.5875
124.458 115.473 285.292
154.564 18.3732 14.5314
103.717 84.9059 281.916
100.664 141.329 214.67
119.149 138.78 138.6
119.39 148.714 253.313
145.526 75.2392 248.977
157.761 125.851 132.009
79.7459 108.743 289.871
121.394 138.833 43.4523
77.27 111.242 283.485
119.806 69.8591 281.697
141.711 90.575 205.72
129.624 125.096 190.071
96.1834 143.321 82.2774
137.926 106.741 191.397
114.023 165.667 68.729
141.908 2.00426 61.9417
119.33 52.0257 244.598
93.7205 72.3855 216.813
147.174 166.994 67.6739
132.526 90.8826 250.945
110.741 52.4412 246.737
143.67 85.9009 23.3348
109.414 54.2949 79.4186
122.472 142.889 132.593
85.7694 20.322 59.5334
99.3347 119.425 275.727
104.312 113.512 267.202
137.456 106.695 172.125
120.919 170.198 78.0461
158.687 48.1316 54.8663
139.633 86.9018 81.8397
122.694 105.125 49.5447
119.238 83.6542 136.499
120.898 71.1673 245.937
95.181 90.3347 286.328
155.314 145.852 48.2469
132.477 82.1198 261.677
114.78 48.6354 124.321
89.8125 75.9675 267.439
74.878 42.5005 3.35528
138.51 169.706 80.1439
100.862 59.4734 9.38904
130.047 91.5091 66.7661
110.495 58.1378 270.178
146.337 99.1491 85.0485
150.009 69.6838 73.2816
151.076 96.9784 131.12
87.0891 35.5401 6.30315
124.285 104.589 121.881
100.878 61.17 233.606
105.987 137.257 250.7
160.74 138.796 73.0618
87.8601 96.2384 174.012
96.301 62.1066 12.9464
159.587 93.7996 176.79
157.749 157.163 90.7955
143.701 104.538 263.125
118.055 98.7918 96.479
148.013 106.704 112.125
137.436 115.55 109.35
130.079 141.639 129.854
69.3603 32.5361 32.6463
121.094 102.204 113.84
110.171 35.3011 2.91805
90.717 130.592 69.601
124.803 143.877 262.279
103.496 74.2866 135.976
128.031 115.681 193.262
134.552 108.433 96.4299
119.118 133.05 141.692
134.768 55.7162 225.631
158.918 93.037 146.071
96.3618 64.9826 123.914
90.9868 55.2229 3.1494
110.084 57.5644 29.1743
155.8 81.9143 124.5
141.367 87.1244 164.467
105.778 87.7876 246.343
132.414 73.8898 269.868
158.66 59.3388 70.7443
104.067 4.00327 40.6187
117.125 110.259 116.548
113.352 156.053 56.3502
109.421 80.2628 114.814
143.071 97.3784 193.562
98.0898 71.2183 184.686
125.948 105.892 24.2084
109.693 144.879 66.0034
130.287 141.333 139.901
135.081 82.9861 85.9453
112.185 61.4959 249.634
70.7994 70.1496 1.75387
132.919 127.773 147.544
114.501 35.0612 13.289
99.0797 119.633 293.675
154.99 148.406 138.739
125.049 144.007 50.509
131.859 115.369 280.235
156.697 101.865 102.343
118.874 102.834 205.877
114.527 67.2474 83.7659
120.156 62.3047 264.526
85.4481 57.3101 7.88536
104.042 150.945 70.3717
151.964 92.3313 258.062
138.976 83.6962 115.658
144.775 124.203 256.645
160.279 143.554 54.2888
140.358 87.4996 128.944
126.97 147.295 130.988
148.07 78.2688 158.463
139.576 85.7507 40.0374
113.51 153.749 116.703
121.271 143.482 107.9
113.868 15.3434 31.1873
104.415 115.803 91.8744
128.17 99.9145 283.913
138.768 72.8779 19.0838
146.232 141.929 144.053
103.401 120.196 58.1649
104.556 63.0791 74.4078
150.369 114.704 73.7001
80.2956 54.7973 8.81367
98.4607 91.5586 230.167
101.907 13.5114 49.9662
142.422 75.0183 234.526
132.688 54.4848 41.7707
106.227 108.544 204.647
139.594 101.621 50.3079
110.564 26.5206 47.4712
95.5274 100.509 256.248
154.548 115.133 128.995
142.082 49.6807 76.0557
142.54 109.865 162.781
94.3277 88.045 237.796
109.406 97.5956 67.7118
157.814 123.864 221.96
126.321 140.536 40.985
115.453 88.5362 101.444
150.768 97.8006 15.5031
96.5671 68.5789 85.3548
123.649 52.9213 236.719
155.691 98.5797 252.612
122.376 47.5181 70.8679
128.305 102.664 139.48
144.978 85.6981 57.7417
93.937 34.6606 5.96437
93.4864 92.507 273.618
122.067 4.83995 31.4604
138.931 109.828 242.594
83.6649 131.641 205.568
81.5759 11.5899 69.0483
91.9608 130.513 186.785
105.921 90.5769 106.22
117.11 157.817 78.3375
100.428 64.9002 216.836
99.903 109.543 204.709
136.184 125.263 250.346
155.133 91.8884 140.774
157.358 112.724 6.70816
146.563 9.89132 15.8845
135.426 149.355 39.958
117.568 72.3741 28.3638
105.582 108.381 116.229
91.1117 30.3448 18.1313
110.034 81.1269 127.859
158.36 89.9441 164.279
118.07 128.058 108.223
147.969 93.1229 23.9765
94.6932 140.663 197.664
152.151 91.0704 129.241
141.143 158.616 106.114
134.663 82.7653 33.8724
128.916 65.1177 220.453
147.016 164.271 115.828
109.006 63.6378 214.871
152.338 103.324 254.536
84.1498 147.651 218.953
158.313 132.722 136.644
161.187 2.37042 4.46396
144.127 134.814 121.993
65.7787 143.773 263.005
132.729 87.841 152.424
82.1018 19.6239 38.4481
123.832 121.082 84.2342
101.231 88.8976 256.14
95.0956 86.8062 259.813
108.586 143.334 257.009
90.7808 65.8077 236.07
124.84 110.458 282.961
120.734 20.2153 25.2329
82.7336 61.1999 6.48504
133.623 161.357 70.5861
155.474 21.0875 6.99502
102.259 6.73574 60.5937
116.995 106.88 28.0315
157.697 15.3022 18.6621
116.549 142.044 194.783
145.952 101.499 151.037
106.368 83.5423 116.383
131.001 120.181 97.4618
123.979 82.0186 140.166
128.202 102.821 129.831
121.205 111.828 37.1811
130.338 129.889 134.247
138.713 154.526 44.1606
160.094 122.11 126.516
92.6752 86.1139 197.83
127.562 119.621 89.2232
143.336 128.992 73.4499
138.708 164.608 75.7013
115.165 19.9756 46.1649
110.498 107.584 32.2854
103.46 94.8434 141.664
118.999 163.256 97.0982
131.419 85.4881 266.667
117.779 79.809 68.4179
121.68 132.173 193.594
87.2138 79.6478 128.845
89.5348 68.2271 56.921
121.519 8.19381 48.4831
145.273 95.3345 131.506
110.317 132.039 53.1365
155.124 92.7158 246.332
140.939 80.4854 252.309
150.129 121.297 180.514
151.188 81.8757 129.964
152.467 63.6952 231.666
104.581 51.3864 84.2736
105.92 151.079 127.239
149.711 140.056 95.5185
96.5916 40.1841 38.0422
94.3679 85.4351 282.608
80.6159 72.5463 237.98
159.077 65.6157 68.7771
150.454 86.3599 83.0244
152.417 143.744 71.2547
131.575 127.119 140.323
114.766 103.692 286.498
113.746 72.0155 77.3207
114.449 52.8494 30.6533
112.042 83.2721 20.0553
132.082 53.8745 53.7529
138.438 103.646 58.3765
119.607 111.562 230.731
107.143 120.988 207.524
160.963 110.501 25.0063
114.331 52.0855 239.953
94.3323 68.8867 256.364
102.832 2.70368 28.403
114.386 141.568 271.592
133.906 47.3583 116.571
109.854 75.3406 228.621
105.744 145.947 114.183
88.4099 134.173 284.944
160.415 146.671 98.3321
132.014 97.8839 124.417
122.292 141.688 245.338
90.5895 118.841 276.001
102.677 112.003 195.179
160.109 71.2771 137.687
113.654 102.995 224.514
125 158.623 72.7272
77.4508 138.684 272.897
135.623 58.7428 129.441
105.269 66.1169 119.034
118.779 154.954 118.994
153.486 106.693 167.114
131.846 63.7154 233.07
142.985 71.3452 124.752
152.372 109 254.414
128.66 123.347 252.836
126.18 97.5793 31.0125
109.953 120.482 292.629
140.719 44.2062 64.4674
100.253 81.6918 139.885
123.639 100.542 190.743
124.689 112.812 79.6195
114.932 16.7305 23.0042
119.344 161.373 51.4292
137.068 125.041 95.9186
118.256 120.978 142.01
152.502 136.621 70.1752
125.761 117.038 79.2342
108.183 98.1352 129.483
71.5784 86.0789 82.9177
143.809 122.585 74.4018
90.6456 154.296 258.567
114.267 106.929 255.714
121.613 97.0526 28.4266
114.337 118.076 182.88
124.829 145.806 239.836
109.883 129.65 221.174
91.4463 54.0483 201.458
121.955 92.5465 267.727
126.178 73.4813 268.55
113.26 128.437 122.635
140.321 79.6181 18.6409
89.1941 96.7433 197.404
147.589 115.56 99.4267
141.674 136.379 115.997
144.508 117.951 201.271
86.6875 7.46491 5.03885
159.446 71.4405 210.561
124.064 48.0029 1.8049
153.363 74.5651 241.892
101.154 61.202 57.5593
118.796 149.792 75.0035
85.9894 64.2064 241.939
114.135 156.14 93.0041
140.668 162.058 64.8524
113.758 8.94666 19.16
103.69 120.089 218.342
116.998 12.7848 48.0085
131.991 111.986 221.087
104.271 58.658 10.9429
130.412 106.631 94.1153
112.658 141.879 230.732
89.5676 51.6427 249.528
87.951 65.1338 215.101
132.592 104.111 240.655
104.827 64.5201 85.5656
121.438 125.486 199.299
131.527 78.0988 68.7413
131.526 127.096 42.7267
136.418 74.9475 112.19
114.703 115.605 48.0758
146.815 106.662 104.605
112.875 100.13 48.6142
122.381 151.776 45.4244
149.737 128.95 225.107
122.345 168.226 91.1569
150.363 120.448 73.7481
104.985 69.6411 187.212
93.6194 135.208 189.994
101.775 80.9264 217.639
95.7539 117.785 266.264
119.351 94.3735 273.113
160.587 90.5497 33.0848
160.594 85.3972 38.934
127.234 142.24 109.733
158.127 114.379 225.989
106.187 108.162 178.041
125.766 49.4638 64.939
111.354 119.518 237.722
98.8733 77.2924 275.923
148.046 130.69 77.9099
122.018 58.3684 273.787
158.992 110.2 126.117
88.3733 148.053 213.353
136.603 101.126 187.117
124.103 108.957 225.153
113.022 100.573 93.3398
121.984 50.317 77.4065
139.668 16.3966 18.9232
113.02 131.239 42.5917
106.565 125.042 260.53
103.912 1.92983 45.9071
117.066 114.284 270.526
136.73 74.9291 254.196
132.57 133.867 30.3363
67.5515 5.30476 70.3085
139.924 79.251 123.439
156.552 80.9443 109.491
159.388 73.3293 152.241
148.046 85.9141 106.81
141.355 55.5837 132.379
132.836 2.36322 27.1901
140.602 3.4288 56.124
126.089 105.739 193.235
110.662 126.429 256.524
156.834 105.615 131.422
115.04 144.469 219.651
131.799 129.545 25.8192
159.169 136.326 64.6304
97.7831 145.479 217.68
78.0262 156.398 263.256
111.777 93.419 177.322
66.2425 26.554 40.4174
133.875 97.4732 138.285
137.643 107.473 53.6802
137.649 106.437 114.935
125.197 90.478 192.223
96.4774 90.2991 100.019
65.8038 49.7047 2.63118
158.697 109.202 176.346
119.744 85.2828 65.0176
109.98 157.577 88.8896
130.607 87.9604 28.8362
160.509 56.799 62.0945
91.4938 90.7872 180.193
158.239 133.595 60.1917
132.782 90.0585 96.2409
102.66 140.084 239.425
159.449 75.609 116.081
141.515 117.124 67.92
125.712 2.10045 20.9283
101.484 71.435 23.0693
144.421 1.32298 4.69365
127.144 44.8381 103.786
122.996 79.3834 258.328
122.277 84.4215 240.309
139.869 62.9455 251.584
107.263 44.4935 26.3913
109.956 111.434 128.779
153.921 55.5002 42.0433
142.701 71.814 98.6656
157.252 102.404 166.501
113.834 115.507 247.949
145.467 116.25 262.329
113.281 51.3655 62.2128
160.703 119.243 23.6021
92.3199 66.1555 187.966
155.276 98.0246 119.714
114.569 119.611 38.7109
130.878 113.715 229.399
108.719 114.514 243.699
113.512 93.8496 229.764
111.026 4.93212 23.6212
88.585 51.7612 243.105
97.1889 111.066 269.69
157.044 57.6234 55.8597
130.442 84.9455 115.488
91.1726 70.3553 76.295
75.2921 56.6788 218.484
148.507 70.8075 86.0716
120.183 1.72074 13.975
116.881 112.986 286.027
99.9725 57.2358 33.8624
153.329 81.769 211.171
125.56 146.509 41.0559
119.448 114.409 54.189
93.7151 77.8704 227.897
149.936 99.0306 142.329
98.6572 133.307 224.994
150.36 49.6206 39.0956
117.263 110.365 125.094
154.751 103.77 59.0065
136.862 90.9611 143.159
105.338 110.344 250.316
150.843 108.611 161.064
126.918 68.4826 130.165
154.984 127.275 57.3897
144.267 5.35333 27.2441
161.454 61.3641 52.4956
84.9955 25.1455 33.4156
154.217 151.111 66.2357
126.311 127.347 241.142
130.395 63.6645 143.067
102.116 55.2785 104.739
123.791 54.577 84.4974
125.457 4.68171 46.7219
96.2426 104.168 91.2242
101.99 99.3338 65.795
135.342 123.535 102.193
87.4349 75.1931 39.8817
132.903 120.711 229.424
106.53 7.40826 52.0617
132.069 115.483 93.0867
109.07 68.748 25.5508
123.367 79.3676 148.397
156.919 133.229 54.7952
142.984 113.361 70.6114
99.903 60.9726 2.4104
121.37 2.33763 67.3754
104.047 146.278 202.033
141.604 123.21 261.377
112.426 84.5008 282.555
154.588 129.141 41.0421
85.5823 142.239 211.708
106.589 102.686 145.919
158.978 98.0258 41.7092
150.154 97.7029 52.3096
91.6077 145.477 227.796
118.721 112.701 66.1451
146.167 142.04 122.006
110.471 86.8848 267.946
126.138 85.8336 26.7553
93.3674 101.02 193.82
139.084 104.733 28.6903
97.6839 22.6958 10.2331
140.588 89.3151 282.248
102.84 115.406 204.354
94.3967 138.292 232.132
143.015 142.502 116.936
101.265 82.3918 177.933
109.563 2.87226 33.6527
134.998 141.745 138.909
99.9308 71.1157 231.048
107.927 23.1293 55.3762
154.235 73.2042 164.808
100.536 145.815 258.79
110.528 113.478 199.375
140.471 127.829 62.5239
111.69 48.8158 105.955
147.678 87.7551 175.871
104.982 35.1517 44.3117
94.5218 63.3788 200.506
108.274 158.005 81.2874
93.8173 116.227 124.65
111.314 146.423 263.117
134.275 116.458 257.185
110.11 158.563 62.7152
121.877 57.6105 103.909
138.167 67.6163 82.4125
128.27 114.847 276.148
83.2115 62.2744 261.169
142.052 3.28884 46.8929
147.725 64.1797 96.2696
149.364 55.4312 32.6704
111.358 147.214 114.72
118.933 131.816 41.5883
78.3764 21.2636 46.2345
144.089 110.602 17.2704
69.0612 17.6852 32.8233
108.793 115.904 185.069
120.044 3.78355 23.2786
124.217 68.658 136.331
95.6487 120.522 287.927
116.571 8.04988 30.2938
155.113 132.174 103.829
73.6027 84.8766 197.794
140.576 47.3413 81.7521
85.5411 116.112 69.1244
80.6279 46.9378 21.9177
96.2455 66.3971 236.132
131.696 129.806 224.421
159.718 82.957 52.5686
104.105 51.7961 223.636
158.215 120.692 234.148
90.1771 133.565 208.915
96.2084 72.4937 128.7
156.558 123.253 8.81973
160.958 110.564 14.5638
158.6 140.415 48.1091
145.488 103.767 117.811
109.52 103.308 203.814
139.635 153.23 125.572
156.738 81.3246 15.8547
160.867 66.6551 38.4802
113.289 45.4905 113.396
149.651 137.725 127.125
120.788 133.034 255.505
153.537 125.927 80.803
100.513 144.17 67.2646
110.292 50.4308 45.105
146.7 65.3514 153.501
107.196 3.01161 28.4076
159.653 127.029 19.3859
123.284 107.523 134.166
159.767 145.029 61.1394
115.638 133.554 66.2841
127.076 156.121 113.806
109.628 141.777 190.561
132.569 125.978 234.801
97.9816 67.5048 27.2949
84.569 29.6825 43.4567
114.793 70.8854 245.161
123.161 79.3063 23.9911
96.1889 136.775 269.595
150.557 49.5297 76.5191
141.293 70.3608 108.9
106.945 6.3113 72.4013
158.496 89.1278 230.929
142.39 95.5023 60.9838
88.1382 18.0649 36.2961
148.545 22.1973 22.6287
150.237 62.3365 217.171
149.993 125.808 243.435
151.378 97.4067 64.1756
151.84 48.6529 49.1696
91.2432 13.2204 20.3283
99.4077 148.477 231.687
157.623 116.739 43.2826
97.9575 12.7645 9.96809
86.4277 81.5655 245.769
96.0771 46.2187 214.269
95.348 77.8818 65.7618
118.677 98.6533 185.817
104.082 11.9932 66.2591
153.754 61.6066 210.568
138.134 118.497 197.789
105.576 38.9479 37.7017
141.797 97.5035 29.3021
93.9485 114.879 289.397
105.663 63.5481 274.122
98.8473 72.8597 259.084
147.54 85.6672 66.1735
111.519 62.9894 75.5192
157.295 107.626 35.7854
98.3897 117.807 180.959
159.309 106.103 103.475
117.889 140.607 66.6903
127.833 52.615 47.7456
152.257 49.4002 64.8407
122.475 116.405 70.5436
146.54 122.15 219.559
116.758 100.351 273.645
116.195 126.034 138.566
89.3991 131.908 246.825
121.72 97.2625 279.85
113.317 55.2455 209.915
71.4652 137.907 262.818
120.062 123.776 252.539
139.795 126.928 69.4755
122.743 26.4268 21.9623
107.417 5.07682 6.69968
103.118 148.018 120.707
129.034 45.5129 99.492
91.1855 9.44233 27.639
114.066 63.5314 62.3083
153.254 78.0977 115.387
90.9886 62.7636 78.7688
113.622 139.729 54.3071
104.054 10.3485 38.9848
135.42 166.193 93.0883
117.7 11.0201 10.5984
81.5591 87.6485 179.566
109.668 37.3377 33.1133
91.4883 3.36997 74.4683
86.556 36.7819 44.406
153.252 143.09 111.714
88.0517 138.242 243.37
108.096 91.2859 113.017
100.886 140.847 286.004
91.6828 99.4574 271.651
145.73 104.376 257.839
105.17 150.923 83.1373
106.189 85.7247 181.539
111.053 88.7869 53.6942
138.96 68.9392 117.527
111.697 44.9777 28.17
59.5374 138.068 247.831
156.67 123.079 42.6047
157.624 69.7503 96.5185
86.5027 97.5065 189.283
109.36 131.721 46.592
98.6703 122.72 209.831
123.057 44.1976 20.7774
116.982 83.2631 121.615
90.6543 107.946 267.572
157.065 88.7321 28.6953
156.7 102.613 235.386
130.857 18.1959 38.0941
148.4 95.0131 154.308
139.549 76.1422 242.056
117.642 141.476 112.261
78.4619 18.0755 32.6942
88.6188 62.2278 197.366
105.188 87.7951 20.2766
75.1574 102.238 253.17
103.118 142.75 279.228
88.5447 102.118 263.129
123.157 56.3641 112.546
143.338 84.5493 254.092
161.28 105.465 37.5281
95.1469 18.5713 47.8702
108.213 143.844 270.968
114.472 147.377 61.5452
110.742 31.302 38.1294
140.2 163.262 54.344
143.442 107.815 206.749
144.762 90.2713 149.811
95.1143 105.645 265.847
147.097 3.00011 18.8677
86.6114 138.129 235.157
83.5198 16.1564 24.6089
116.475 4.56798 35.1442
155.891 146.991 92.7984
116.516 91.4207 119.576
141.527 118.183 94.1752
147.319 82.7387 244.131
131.188 123.883 259.721
82.339 42.2352 14.4199
89.2398 68.4422 83.8627
122.364 152.287 112.16
141.586 123.866 13.1284
94.5814 89.5301 30.4256
106.393 146.833 230.23
120.734 68.9674 84.4633
115.757 143.354 214.412
116.793 106.122 47.7032
150.465 119.716 53.7995
86.9335 117.079 177.092
136.814 69.9408 123.321
120.362 93.6483 201.899
97.8007 74.5596 236.672
123.959 155.448 51.3491
124.532 98.1517 230.508
94.1067 80.7865 252.329
153.829 68.5891 87.3767
119.364 146.847 258.961
128.367 166.225 63.9617
125.545 53.4659 241.864
92.7827 139.947 280.804
159.974 71.4363 61.1097
100.217 128.331 55.7091
104.728 73.1511 208.8
115.239 164.533 79.774
98.9336 146.618 97.9351
118.158 103.494 147.314
77.845 12.2422 10.1296
87.8987 98.3367 246.947
126.306 117.852 65.1588
155.954 104.999 241.888
153.533 133.642 123.85
91.2344 68.37 69.8806
143.309 1.20261 23.722
96.4788 50.4462 237.494
136.626 114.658 56.0729
99.2982 109.849 133.498
86.5886 123.014 202.36
74.1281 62.025 15.018
132.17 95.4433 148.64
118.279 94.4848 248.722
117.091 143.032 266.684
107.516 104.853 283.19
129.282 122.588 28.7176
100.941 137.102 90.0501
98.2889 101.158 261.601
116.565 84.2246 225.154
110.45 100.281 245.324
111.184 3.85785 39.4034
71.4536 72.5163 261.119
140.012 72.1352 251.662
105.071 55.6722 47.2084
138.136 133.417 260.099
128.116 79.7901 32.4171
130.211 76.4994 28.5211
149.4 134.115 120.69
104.49 109.783 90.5199
74.8135 19.6323 6.96274
94.9955 97.9249 90.0582
92.0726 62.5226 3.43462
74.0395 64.3583 247.336
123.49 69.8189 261.354
157.077 61.2362 219.853
101.277 111.003 261.327
142.568 136.424 24.5946
129.941 171.821 82.4265
107.435 153.57 98.5107
121.146 148.26 62.3872
158.837 131.7 42.4029
133.009 87.8929 137.831
72.7153 121.086 282.518
150.994 76.2019 123.027
107.67 117.534 120.934
140.599 97.43 21.9521
81.7174 99.4229 254.66
122.485 74.168 237.682
117.764 77.0582 133.663
115.44 98.8893 200.044
125.731 59.6601 27.8571
110.044 124.436 66.4979
108.366 104.737 66.7202
134.846 63.5136 254.862
152.66 129.766 70.1549
113.129 2.58315 11.3687
130.343 87.3919 280.005
99.2026 8.33955 56.2588
119.674 56.8932 211.501
93.6981 106.199 275.907
120.034 137.647 274.303
139.804 87.6354 262.874
114.268 107.988 40.5974
158.776 83.4672 131.124
107.038 101.692 122.097
117.011 144.574 46.8866
84.7295 74.5769 199.185
121.861 93.8278 261.038
94.0925 40.2185 33.8394
110.035 17.8968 15.6606
92.6052 65.27 51.222
105.65 60.2988 111.427
146.08 60.2743 88.8951
90.7434 129.93 263.037
156.734 119.288 59.5284
149.912 142.638 35.5618
139.873 124.392 78.7483
154.744 93.9935 234.471
100.474 62.1587 52.3918
84.8762 129.391 187.382
75.8544 158.764 254.926
98.3686 90.4525 25.8984
126.491 170.488 70.3362
143.318 101.546 126.457
157.19 80.2325 59.5318
134.044 166.979 63.6081
159.176 144.558 66.2814
95.7856 9.04391 42.5498
143.21 78.3849 213.918
111.006 77.1284 65.5877
105.342 138.631 58.3342
117.362 54.4729 101.486
94.5015 65.0369 97.0133
122.133 157.646 118.14
111.065 92.12 136.403
126.554 125.353 97.8599
125.372 93.381 56.6586
97.7098 62.7806 103.028
131.947 110.543 272.155
118.508 120.182 181.182
89.0136 81.2619 64.3078
101.466 134.085 124.802
86.798 142.637 203.665
108.261 135.096 94.3173
88.8238 28.3963 26.8685
150.3 80.3388 238.462
111.921 59.0526 131.777
112.457 101.466 252.199
117.355 65.268 65.7696
135.998 158.226 60.3102
82.4198 147.139 269.609
133.972 137.557 236.399
115.042 128.802 212.266
96.1351 32.7486 22.8142
74.1554 40.7218 31.8927
104.341 49.8123 20.6005
84.4311 141.739 272.705
144.327 47.1324 83.7514
101.716 92.6107 266.991
115.439 115.74 109.963
85.3218 35.7268 38.0767
95.2347 127.643 56.4113
66.9965 117.722 283.64
111.04 3.90182 2.90054
140.567 71.4015 216.453
97.3742 30.8246 16.651
151.793 157.35 122.223
100.37 108.472 255.045
158.361 124.038 49.2758
119.58 101.928 101.029
114.948 156.735 71.1415
123.996 153.989 59.3872
112.325 74.9834 21.6119
148.674 96.8242 71.2409
120.985 103.479 106.043
115.468 137.453 50.0996
100.827 111.048 238.069
102.119 55.6601 99.644
102.409 135.188 130.283
130.519 76.1863 203.953
143.391 114.135 232.189
95.0873 98.3664 51.5126
85.4624 81.3839 238.812
126.6 90.0102 241.233
114.513 149.982 249.951
119.724 127.194 85.3376
112.411 23.5784 12.6399
137.788 134.535 105.898
112.315 48.6942 50.0822
100.075 139.9 277.05
126.963 81.1414 234.956
102.96 87.5796 221.249
103.901 91.6819 65.3171
78.4646 131.855 283.831
98.7838 73.8358 111.953
61.1137 65.7513 1.41062
106.423 97.4943 260.742
155.23 62.1249 35.987
106.491 52.8768 232.6
100.31 80.7938 112.413
159.899 154.499 83.8516
102.87 127.855 66.3223
98.8215 2.70147 40.2608
134.314 62.1758 228.317
117.157 123.088 85.0616
106.945 112.522 222.066
102.858 105.058 108.443
103.289 128.366 129.486
102.306 23.798 55.4151
110.551 66.692 192.92
100.024 136.685 63.0185
92.0861 83.4001 271.006
122.273 86.6077 122.758
152.008 104.915 116.284
96.8635 14.9173 4.78782
115.748 107.417 203.638
110.316 82.0783 249.919
85.8076 147.902 243.796
75.6803 58.2299 224.515
126.793 11.473 25.3521
115.169 90.4802 200.53
97.2452 26.0874 1.34492
160.133 58.8155 84.6586
112.271 108.272 61.8772
89.7182 65.3055 205.444
88.8945 96.1925 268.093
126.441 122.416 93.9582
73.3203 91.4596 80.5294
149.484 95.4801 163.72
64.2512 61.6181 223.721
99.137 122.464 225.625
114.489 107.649 289.296
107.549 111.594 291.934
82.5898 63.0057 102.712
160.869 128.528 35.598
155.337 73.3097 77.6143
112.325 101.887 106.415
119.664 146.424 54.6448
109.053 115.167 261.643
152.722 16.36 1.58554
159.595 68.4021 80.492
143.304 65.7114 103.763
82.7997 83.9711 214.343
96.3382 58.1548 87.1366
92.553 91.8716 94.7813
91.2252 40.4053 14.2268
152.098 54.416 93.6917
119.931 116.345 224.825
113.129 7.79037 66.824
111.587 130.404 139.55
109.318 142.466 59.4328
103.203 47.1307 219.183
155.267 47.1273 69.4847
158.156 58.3658 30.7173
120.667 6.14663 40.8896
157.632 91.8678 19.1986
111.895 57.749 56.653
159.917 63.8544 213.661
135.215 110.601 277.104
66.8407 76.0543 261.618
107.563 124.646 104.689
75.8776 69.2649 228.307
98.4893 155.949 243.297
66.5389 149.599 256.72
156.829 122.773 239.17
71.8386 135.025 271.801
124.907 90.3327 143.663
76.542 76.3586 93.285
106.732 11.0115 33.3507
92.1018 79.5338 261.943
96.9036 1.62918 25.2184
71.614 49.708 8.44012
