ply
format ascii 1.0
comment Created by Open3D
element vertex 2021
property double x
property double y
property double z
end_header
137.48 191.869 121.152
145.06 107.527 193.199
117.898 116.11 185.898
144.672 101.164 189.167
142.132 57.9199 168.665
122.308 49.7264 135.048
100.523 135.021 77.4669
94.4634 226.15 63.6322
131.808 130.448 206.229
110.801 262.297 101.983
152.841 186.469 184.794
122.01 212.315 93.8341
108.764 242.09 161.756
142.685 166.539 196.094
150.971 63.3119 178.035
77.4219 123.471 164.156
144.488 153.707 172.117
117.095 61.2127 83.1803
117.908 196.61 156.172
122.516 105.547 186.987
94.5136 200.896 61.3241
96.5567 209.763 62.0976
130.127 182.948 52.5331
126.136 175.342 100.682
123.168 120.577 191.789
127.967 166.541 57.5469
119.965 240.35 90.1876
131.608 94.6737 104.074
85.1468 124.32 69.6538
136.013 161.033 134.567
108.954 187.993 72.1075
120.294 231.672 179.913
120.419 115.704 86.828
124.941 227.222 88.8232
140.344 77.6902 109.717
139.631 130.86 55.3457
120.162 81.2978 75.5226
106.235 148.751 33.2076
147.829 174.956 156.693
108.689 127.758 174.206
146.694 160.546 145.96
112.237 51.2847 106.136
105.558 134.629 183.472
97.7784 165.642 80.7204
119.39 260.329 116.49
128.936 151.994 72.5449
127.997 222.611 186.856
145.1 178.779 140.095
121.388 174.172 193.124
138.754 195.991 100.967
124.451 237.31 176.849
140.701 141.803 93.7384
117.616 256.962 155.977
133.277 183.039 94.3818
102.383 126.741 168.728
114.968 156.866 96.0705
121.127 133.622 171.348
141.075 63.4744 185.717
95.7246 123.761 132.549
138.52 77.7831 160.947
127.463 98.281 105.036
101.574 145.251 35.9104
105.104 251.165 89.7285
131.563 62.4372 210.436
141.185 244.175 139.741
147.815 53.6454 168.993
136.408 225.787 177.688
134.023 183.488 102.294
92.1568 223.883 71.2476
118.684 217.086 176.444
122.918 53.056 200.769
136.713 52.2718 152.458
129.862 234.6 178.314
138.869 174.306 65.8979
105.691 165.915 94.5275
126.46 115.333 44.9798
113.512 61.6672 159.026
109.95 154.692 95.4107
120.17 60.7407 179.115
125.882 81.5962 75.6871
120.393 112.264 53.8409
118.373 159.452 90.8076
136.039 54.3634 212.295
136.295 170.991 197.726
148.675 208.997 184.715
140.766 50.9555 160.661
114.175 137.873 187.025
117.312 250.156 161.741
136.741 233.285 175.151
126.068 246.043 167.257
65.1668 227.407 94.7371
113.003 261.309 147.495
63.3355 138.241 157.257
123.864 129.439 249.736
141.894 192.522 129.879
80.286 132.142 125.452
139.925 69.9258 128.027
90.507 251.951 83.263
138.741 237.096 165.614
147.127 74.9858 155.156
149.75 62.2088 160.823
137.964 223.15 105.332
128.431 253.28 157.612
130.514 256.744 137.271
106.752 122.265 66.5687
135.274 55.1019 162.516
120.495 155.743 82.8563
105.229 120.901 42.7366
134.592 92.5535 219.77
143.816 136.342 89.374
144.552 179.922 81.2849
151.399 215.289 165.687
118.345 81.927 208.559
133.16 252.265 141.568
127.082 178.201 83.098
140.684 73.7268 122.719
137.915 212.663 191.507
123.038 92.0162 213.416
103.066 237.061 151.297
107.241 139.666 32.9241
142.178 86.9209 174.513
107.72 174.411 66.3111
104.728 186.804 54.564
124.802 205.34 189.952
107.57 148.281 117.408
82.3251 226.595 62.7174
87.5877 140.144 127.05
118.934 160.327 138.332
119.82 54.1048 216.002
137.483 246.673 124.588
112.936 74.8492 75.2013
129.64 97.8239 89.9332
85.3145 157.442 71.6417
144.492 68.0001 167.152
130.53 61.8648 179.399
116.313 143.492 168.857
129.129 85.9682 173.435
128.602 252.331 113.083
141.191 169.521 67.4603
147.572 204.436 190.466
107.253 130.764 137.525
94.191 127.452 87.6582
141.691 223.516 113.011
97.695 221.53 66.149
86.1596 247.663 124.033
130.757 158.694 127.806
145.725 237.029 125.427
151.279 176.169 183.418
121.016 150.425 156.577
89.5463 133.102 110.372
143.13 231.707 170.727
102.437 263.596 124.764
155.154 207.513 153.78
141.219 231.201 117.913
104.672 166.753 175.016
113.066 195.312 137.564
134.255 113.911 55.1339
134.034 57.1874 107.227
117.572 89.6238 237.03
136.093 73.9209 131.345
121.796 136.619 77.3781
146.414 78.7034 127.211
98.8304 135.843 39.5492
136.921 189.147 197.534
119.459 261.801 140.104
137.123 84.9981 138.349
140.896 172.439 126.85
134.459 234.964 104.569
140.718 152.05 66.8179
99.5725 197.713 65.0665
110.283 188.673 51.4903
151.208 179.438 143.752
105.086 256.9 140.688
142.901 222.966 182.796
117.853 116.177 201.816
153.574 191.072 169.433
84.6555 150.115 76.2675
82.3665 118.543 147.772
80.6119 213.83 68.0809
127.496 206.832 94.4838
149.001 168.344 184.33
115.191 174.379 69.6841
107.456 176.698 40.6956
105.888 119.31 59.2325
127.171 87.3705 183.073
90.6356 193.783 78.8882
91.0024 118.863 146.464
127.175 258.756 144.115
145.07 73.8469 164.023
113.03 238.666 169.672
123.89 161.88 88.0712
115.468 89.3023 123.974
150.936 175.627 189.722
135.824 162.375 172.777
119.526 108.489 66.814
145.808 119.126 246.412
146.959 198.732 196.253
123.912 136.68 87.4828
122.148 137.357 178.293
122.691 83.383 158.473
145.499 179.471 151.227
136.753 118.934 200.351
115.877 261.733 106.852
123.184 136.298 161.969
137.993 115.865 193.883
102.973 130.71 40.8959
143.489 129.613 80.8514
110.875 54.9653 186.932
137.664 68.0037 193.699
110.178 192.838 77.7656
111.225 236.403 78.1888
116.306 263.974 121.104
137.346 154.336 138.359
131.888 85.7219 221.805
104.855 140.071 140.92
114.69 243.942 165.932
138.028 58.7433 182.512
111.182 176.087 181.149
147.686 187.212 187.076
126.561 229.594 182.954
134.055 221.886 97.9992
120.6 163.743 96.6558
101.342 180.062 134.999
120.849 76.3234 219.86
74.9073 191.62 68.0285
135.603 250.791 136.239
100.644 74.4957 83.5246
114.553 123.646 220.657
122.081 150.368 95.2444
135.036 174.277 145.033
111.279 144.929 192.576
136.781 206.256 195.323
120.448 197.773 83.641
143.821 159.569 184.522
128.034 144.671 37.3987
125.451 111.756 58.8937
126.189 102.501 94.3541
138.626 72.6502 91.6142
71.6214 167.62 135.919
117.871 186.928 191.471
138.082 146.964 163.314
134.038 93.0818 91.9528
149.908 169.661 145.11
98.3432 166.504 150.26
143.41 66.6619 176.266
126.98 255.435 150.894
119.749 86.4915 130.067
76.7434 178.135 128.437
101.058 169.641 90.1845
120.793 114.752 44.8824
141.213 83.6267 148.997
118.555 240.886 169.586
111.585 75.8559 226.488
103.759 137.535 116.936
101.428 214.794 65.3596
142.417 112.106 252.191
114.224 139.563 127.953
129.062 146.025 158.364
100.017 261.965 101.128
136.937 122.146 46.7755
88.5155 154.137 93.1248
144.655 154.291 150.396
141.664 156.908 142.195
151.458 175.417 77.2424
148.447 170.052 172.758
80.0097 236.807 69.1092
125.597 260.415 137.003
129.185 69.8194 99.4085
139.338 64.4111 208.381
125.436 91.9927 80.9871
97.8467 174.579 81.3543
141.34 128.059 219.33
149.818 231.712 138.614
104.735 157.251 102.82
110.695 130.889 166.385
104.096 244.806 150.763
121.747 259.986 122.375
125.431 239.71 93.1749
89.3153 242.179 71.6185
114.729 157.309 32.5049
128.628 56.155 174.753
111.137 120.095 203.801
139.14 85.836 164.835
147.821 219.272 121.211
141.123 67.6615 200.996
109.586 129.635 144.861
119.421 160.122 32.4514
92.3958 202.805 73.1291
125.06 61.4631 100.702
133.012 176.056 123.668
130.692 59.4077 95.2525
142.531 157.024 90.2833
143.874 67.0809 159.214
96.0796 125.525 168.611
123.072 56.9796 93.1548
118.735 246.196 92.6715
134.931 158.902 88.0346
147.631 133.285 83.825
111.03 254.447 154.498
114.253 191.387 178.476
93.0095 260.715 100.727
134.26 79.1437 264.516
76.9751 220.297 114.772
127.344 45.0927 146.771
126.441 167.125 92.6347
141.358 115.609 202.114
114.746 208.218 83.2425
122.043 220.395 184.308
128.461 112.793 268.47
123.445 98.1939 116.355
83.795 245.955 76.0415
116.297 131.184 36.6813
120.396 55.355 98.1222
140.996 100.718 176.499
116.356 76.2841 210.952
123.444 88.5225 172.144
135.86 225.319 185.341
140.164 80.1664 86.6982
104.325 182.897 96.8095
125.855 100.319 273.851
135.239 143.912 92.2386
149.352 127.457 65.1441
85.1777 234.624 65.4889
106.83 210.161 72.3166
118.991 157.523 195.557
128.264 72.3041 253.241
108.155 135.929 151.356
103.155 155.119 35.6151
102.41 115.232 67.2916
124.156 244.551 96.5892
110.408 69.3472 179.704
123.318 154.04 194.144
120.043 83.428 123.488
126.319 61.5678 107.9
108.542 68.7131 227.858
125.815 47.1606 198.211
125.096 187.137 63.4954
139.317 119.625 187.761
149.377 164.859 178.583
107.819 127.794 38.9992
126.645 172.275 92.233
95.5558 181.386 129.719
140.768 97.2968 243.249
141.572 100.768 209.511
134.538 65.2955 120.127
138.912 245.084 156.062
104.048 80.9948 117.323
110.561 216.454 82.1165
131.328 61.1388 167.999
152.598 75.3693 180.791
135.855 47.0863 173.303
100.243 174.597 69.2257
110.762 134.941 133.397
130.26 122.593 41.9564
105.055 143.027 114.731
109.545 220.02 140.801
145.587 175.611 67.6091
97.4226 192.297 66.2356
122.827 214.067 187.693
131.411 255.751 147.535
133.141 75.4184 98.1354
128.163 161.788 195.325
80.0869 140.136 111.88
146.517 222.104 175.497
131.521 72.0643 83.1165
112.17 181.699 72.107
114.563 56.1571 93.8163
112.577 184.358 149.329
136.817 106.1 184.465
139.913 128.738 89.8206
143.842 165.493 187.683
137.362 195.493 153.384
140.188 128.435 241.761
150.428 227.722 122.036
111.272 83.4813 163.709
106.094 102.889 107.78
129.129 65.9864 251.713
75.6041 194.998 104.341
141.593 155.301 179.404
107.049 132.379 35.1966
130.727 95.5018 274
128.563 156.735 191.263
114.553 58.1868 101.67
110.692 150.355 103.25
88.2999 206.231 60.5678
74.4562 171.811 77.6957
154.552 112.931 213.331
118.769 205.413 186.604
129.937 66.0282 89.4728
142.325 164.072 136.879
107.103 170.737 158.388
109.849 202.868 95.9081
131.512 101.987 214.017
135.849 113.181 70.2569
106.107 53.766 127.398
132.845 128.419 233.719
133.646 54.3103 122.205
98.2679 143.942 109.668
114.316 87.8098 166.34
124.036 191.144 85.7516
139.464 199.032 195.949
134.347 230.927 182.033
73.199 133.187 173.251
120.397 55.7598 113.032
147.734 193.172 193.938
127.985 142.551 181.864
139.731 161.115 72.9034
117.721 95.6764 110.577
96.968 126.45 177.648
81.0721 209.09 60.8223
97.6311 215.195 119.541
127.816 175.865 193.926
106.436 172.053 168.958
106.563 67.1773 170.159
129.535 55.5032 158.822
130.792 191.725 111.362
106.592 224.173 78.2008
148.56 185.538 195.048
107.432 169.213 33.4148
147.956 108.237 253.081
150.84 143.051 80.2575
111.872 189.382 59.9705
109.552 264.925 122.136
141.112 149.175 92.4102
129.513 50.463 125.358
151.074 174.471 177.173
137.652 148.81 54.9568
138.632 117.242 75.4025
120.583 144.677 66.167
130.865 94.3558 96.7375
135.457 85.9122 120.952
107.65 167.849 181.094
100.688 125.003 42.3874
126.94 152.801 129.068
110.048 158.488 32.0524
147.038 226.232 170.087
63.109 170.242 133.37
129.914 247.162 162.954
146.341 232.095 159.891
115.11 85.0303 77.488
135.959 105.324 210.794
128.168 210.38 191.52
123.078 55.2073 174.236
111.04 67.3018 208.602
123.1 235.421 86.7356
140.785 67.5003 120.506
125.543 53.0498 111.92
105.894 219.92 134.51
120.36 134.276 36.3911
131.24 137.81 51.3599
126.882 49.9754 179.961
117.772 133.972 143.461
143.493 204.621 195.58
129.478 52.0011 114.867
140.063 84.9063 96.3313
130.531 150.753 192.227
104.595 181.316 67.6707
72.2217 140.435 126.339
126.838 97.0811 98.5901
90.6304 174.892 129.722
122.928 255.001 156.084
125.402 220.06 92.1835
109.832 135.529 81.306
146.081 108.373 199.985
130.859 90.7052 118.423
105.188 263.447 105.107
114.627 263.967 129.828
147.946 58.5238 185.539
142.723 217.28 184.146
130.609 177.054 91.0764
132.065 174.616 131.334
108.036 180.177 148.218
126.861 166.448 102.427
104.995 100.144 95.4846
98.7526 136.799 127.278
108.515 257.202 148.285
114.784 112.667 57.3672
118.628 65.4514 78.8893
146.468 74.6897 192.408
103.707 75.8687 162.335
144.074 210.275 192.862
95.9876 238.904 71.4605
116.447 93.7961 86.8758
145.44 58.5471 155.785
114.496 137.824 35.4661
113.501 263.306 138.477
126.682 256.052 128.534
126.277 163.663 36.9399
135.648 88.248 160.238
118.136 91.8412 224.206
134.401 81.6618 81.8221
123.938 69.7738 262.069
128.234 122.512 248.763
118.525 51.787 119.504
133.449 252.23 155.81
105.259 250.847 152.559
94.6126 172.855 72.7092
61.6815 136.579 122.199
123.84 124.488 84.2088
101.62 257.811 91.8448
109.382 141.788 86.5813
122.981 168.237 37.3244
69.0536 139.581 171.548
122.993 129.024 39.118
142.445 226.3 176.145
105.684 201.154 69.3698
120.264 149.689 76.5253
132.249 62.3254 102.637
104.38 249.884 143.536
130.97 186.438 197.969
123.638 107.076 266.863
122.016 193.927 95.6986
115.079 151.796 34.3017
118.51 88.6884 156.065
117.741 120.568 40.4664
139.746 243.337 147.877
138.002 99.5909 269.095
99.0296 249.672 82.1943
135.908 181.514 197.952
110.481 61.9932 78.0834
91.5197 124.347 162.498
126.595 151.68 89.8453
97.8946 142.583 41.344
104.195 145.049 79.5846
115.088 91.6927 79.9894
153.876 204.224 165.737
134.958 128.094 45.6487
109.191 235.656 164.009
132.157 91.6323 157.674
130.083 189.712 94.7305
126.701 44.3139 191.55
126.055 50.9222 146.267
120.498 74.9319 75.2854
137.142 118.703 53.5119
101.829 128.522 75.2866
129.394 147.332 140.24
145.666 165.901 141.935
76.785 241.447 75.9662
134.936 111.681 189.512
141.234 202.956 107.308
132.01 200.882 196.457
112.759 249.578 160.916
55.4522 199.954 76.0946
111.598 61.5992 167.305
115.683 116.782 45.2254
148.784 204.878 136.331
93.0207 216.852 61.8523
139.616 193.431 110.535
153.993 169.583 165.545
121.677 258.584 111.599
97.3289 163.724 39.655
128.047 138.049 169.207
122.803 143.029 34.9176
125.117 113.832 50.5863
124.014 260.139 150.297
106.102 160.973 51.4846
121.388 80.4348 231.425
133.325 109.144 269.31
143.726 73.0807 202.505
128.99 71.9947 246.061
102.609 177.98 140.648
109.601 55.414 95.4676
143.289 116.595 70.0345
97.727 147.715 82.4284
110.036 97.0969 104.585
127.387 183.714 192.927
107.286 225.975 152.873
107.106 139.005 73.9055
120.262 96.4513 273.644
134.005 152.877 174.431
102.866 205.545 120.674
84.3421 138.159 181.081
146.332 69.8076 183.849
115.801 64.143 217.943
104.912 230.548 148.104
115.642 71.6838 145.008
153.715 197.458 163.328
119.929 90.494 208.302
98.2161 159.603 84.4904
79.5045 248.539 82.2614
91.0158 247.446 76.9872
140.718 120.978 206.961
120.465 203.043 96.1852
151.722 193.198 146.739
117.001 146.778 180.398
153.691 212.68 148.578
124.272 52.5278 122.338
101.538 58.2896 94.9017
79.0025 126.172 130.929
128.553 100.791 223.904
97.4413 243.492 75.443
124.602 84.8669 192.571
122.452 140.024 185.932
127.287 128.205 89.7368
110.924 143.525 31.8691
128.344 240.866 173.148
116.969 232.463 78.9991
124.169 149.304 73.2269
107.119 245.781 156.813
102.287 151.928 103.948
139.746 217.891 108.154
145.796 101.254 196.791
123.748 63.7433 80.5791
108.278 141.847 187.55
111.839 115.865 60.2114
127.922 210.362 99.3286
110.233 229.863 77.5767
136.351 85.9672 84.5271
112.261 80.541 204.387
110.193 70.2234 151.395
78.0163 231.252 64.9078
74.0189 225.898 63.7987
93.9376 147.763 186.67
118.479 237.115 174.609
125.838 143.819 189.914
147.105 233.215 146.111
116.159 198.741 149.14
149.555 197.521 142.268
117.725 187.36 46.5856
139.55 170.876 168.785
120.835 89.145 163.443
135.117 111.045 178.057
117.906 117.274 79.272
120.165 212.992 182.317
143.414 209.082 115.472
132.262 207.955 192.935
113.383 200.889 78.1902
132.268 162.492 93.7907
139.905 242.482 133.025
131.08 78.7559 107.134
144.146 205.845 144.91
123.576 94.4941 86.1777
82.6888 166.429 119.93
133.763 48.5308 190.847
111.574 226.664 167.504
106.065 138.027 167.231
143.554 192.327 197.736
138.764 240.99 161.285
104.207 263.486 112.818
127.554 131.413 234.152
135.796 197.756 108.619
137.805 130.775 230.179
132.282 133.027 46.6373
90.2683 212.496 60.0317
105.34 155.683 90.6027
99.963 165.041 167.554
122.035 109.003 72.3517
134.789 195.656 197.497
109.906 152.493 31.2272
130.328 87.9406 83.453
127.36 92.5054 271.926
130.736 247.091 103.962
102.662 241.014 81.5637
150.682 217.78 171.751
128.829 73.2516 260.616
148.214 70.1744 139.293
88.2363 124.249 155.652
96.0401 141.021 182.698
149.696 196.816 188.417
107.385 52.7914 178.886
115.482 134.584 154.431
137.421 126.351 237.267
110.317 141.67 132.996
131.839 110.477 63.7183
132.806 240.657 170.67
116.599 204.391 152.066
141.29 184.432 69.6126
132.005 83.208 145.651
111.491 238.786 86.0157
127.059 192.266 192.953
139.429 80.9646 101.228
98.6915 65.3677 122.04
129.595 181.806 88.0422
130.69 48.4953 183.169
138.536 78.9839 213.125
85.2718 195.209 114.761
133.414 251.661 124.106
101.042 153.017 93.8174
131.694 254.128 130.133
90.9514 128.378 136.576
134.868 138.196 95.669
126.284 128.378 212.273
97.4448 227.897 128.595
122.941 142.24 59.8035
99.2424 63.495 101.352
132.471 245.74 110.501
105.342 204.473 74.8358
78.4145 189.366 109.56
143.399 60.2006 205.396
111.001 70.4817 120.116
128.294 54.4175 199.547
120.786 92.3721 176.608
122.066 50.4305 193.582
75.9463 164.029 83.1271
93.9542 138.709 93.6881
96.3801 165.257 48.1924
117.639 168.079 36.4389
113.295 125.923 38.2523
119.921 148.005 133.659
99.3479 204.436 65.8767
143.866 152.799 164.197
109.692 117.658 46.6409
110.604 79.2817 178.097
138.215 167.851 132.149
118.429 186.787 56.8525
76.9675 125.519 124.019
135.202 115.999 62.5003
91.47 191.155 68.9309
127.494 117.957 88.058
115.386 100.034 101.89
129.201 71.4776 109.293
121.741 99.3177 171.605
110.947 55.6681 116.218
124.46 64.9039 95.9329
84.2964 253.408 85.9816
102.142 157.813 43.5492
91.5154 135.266 182.426
144.945 201.756 123.636
136.766 239.17 112.694
140.427 114.066 211.388
108.993 158.262 189.237
145.355 197.84 150.824
74.273 182.771 108.882
130.067 89.3626 189.008
99.8136 256.956 141.081
122.601 91.0314 271.939
139.728 122.064 246.731
127.002 46.0905 173
118.581 141.018 135.928
124.65 108.798 64.9846
120.625 245.463 166.062
85.8723 214.799 63.4819
108.885 93.3788 91.0253
149.26 166.176 78.5426
134.738 151.717 87.5733
92.6608 256.798 114.529
132.194 86.798 152.134
139.773 129.468 248.825
110.479 71.5417 215.238
141.831 237.892 117.656
149.096 168.537 155.392
109.045 206.03 122.754
123.734 69.3977 223.602
138.797 249.623 144.502
87.6302 188.447 103.436
126.542 158.38 79.608
129.494 130.719 245.725
148.562 145.496 86.1104
88.1663 208.778 111.879
136.929 123.116 250.899
85.7073 138.148 92.7768
77.7395 128.138 117.5
145.33 225.535 118.476
122.791 240.833 172.358
141.114 199.253 113.404
140.209 114.438 65.6269
100.624 93.1437 113.554
102.034 71.5203 175.509
117.729 208.5 91.0171
103.299 157.163 83.761
120.211 69.0259 218.312
92.7821 137.574 108.044
88.1759 119.81 139.537
135.644 150.888 146.234
150.523 70.7664 175.023
121.688 99.7592 246.346
86.7841 153.174 164.931
116.877 181.598 40.2129
110.221 73.1231 165.208
117.911 105.051 266.444
97.5315 216.07 62.0559
145.784 90.1413 191.35
108.484 146.653 109.134
118.498 125.773 37.6982
127.71 91.3153 166.129
90.3987 161.825 82.5917
97.2085 127.562 75.5364
83.1916 240.127 73.3166
141.69 109.566 206.065
111.851 75.1343 137.655
139.913 84.5617 156.655
133.937 118.829 194.94
85.412 122.087 128.45
113.208 134.54 170.92
105.402 158.267 71.7855
139.124 51.3037 193.619
141.814 195.848 118.558
128.225 93.9609 115.517
137.253 85.792 90.932
104.184 160.107 186.282
133.136 156.556 73.0606
146.224 187.24 134.896
150.428 192.109 139.503
137.303 228.71 106.089
100.794 234.295 73.0567
148.558 224.555 161.697
151.845 228.739 129.737
136.867 183.202 125.045
121.533 63.3507 215.861
123.878 138.146 154.478
133.783 65.474 201.707
130.973 59.7167 216.897
130.714 119.617 83.366
110.259 83.5207 187.172
151.845 202.213 187.208
65.6418 214.286 67.2119
131.937 48.2871 206.129
130.477 49.7047 150.517
103.876 254.423 147.656
152.076 223.031 134.878
84.3598 180.197 119.111
113.205 84.7036 127.833
93.9751 161.395 58.7774
113.847 85.6159 263.31
146.462 160.923 76.5402
104.083 91.8931 103.287
88.4366 180.504 81.6118
111.92 152.074 71.751
104.612 56.6342 115.252
103.044 134.507 121.991
132.84 177.759 57.8703
136.364 183.274 76.6133
124.125 100.255 181.035
125.644 118.213 263.928
134.309 183.461 109.427
120.96 69.6197 76.3314
127.799 73.1317 222.915
136.923 189.178 102.787
131.018 54.9267 181.305
126.605 96.3946 171.562
149.946 207.402 169.696
124.372 89.9632 155.607
147.955 113.101 224.741
112.209 122.13 41.9211
83.707 249.159 118.479
98.9741 171.187 141.734
115.985 147.136 70.4191
109.881 155.741 110.724
116.633 50.0439 140.1
123.924 255.811 108.281
142.63 134.237 69.0392
114.506 116.242 51.7723
134.284 246.431 147.433
118.803 161.678 115.472
136.057 88.8697 168.483
113.771 158.68 194.705
86.3777 221.79 64.3738
135.082 116.789 213.539
144.234 241.826 129.077
141.716 242.226 121.421
138.116 105.156 265.921
107.203 130.472 73.757
77.3743 117.11 142.892
136.863 79.0264 170.074
121.992 180.704 191.444
145.104 225.738 155.252
128.079 79.4494 262.665
127.016 77.8437 248.74
140.401 154.268 158.18
111.206 213.498 155.371
108.411 91.4996 263.322
118.74 115.555 73.2937
126.015 102.72 175.956
116.648 84.313 134.794
74.9276 204.222 63.1316
143.409 175.661 146.041
131.503 78.7812 135.556
137.484 215.295 185.975
147.105 195.219 134.103
142.806 114.524 219.042
94.4088 133.295 125.694
100.087 74.2946 116.687
115.687 108.203 188.601
123.728 97.1947 91.4636
93.4216 255.972 89.3518
129.501 81.4511 217.708
143.348 233.633 163.595
113.388 164.097 33.0239
92.8906 206.715 65.1346
120.179 138.587 140.119
147.573 217.651 179.787
147.211 169.512 190.899
118.448 102.308 195.432
126.546 142.545 69.4145
153.691 182.941 170.141
146.913 233.813 132.045
91.9213 175.22 143.367
102.219 128.327 153.41
119.38 143.707 189.039
148.636 177.325 194.37
87.1351 256.769 92.5935
115.56 90.4706 116.953
119.236 225.129 180.378
103.219 170.132 149.109
126.548 84.7635 268.519
98.2126 241.936 141.363
131.25 102.05 175.494
96.5796 253.754 136.667
87.8112 202.757 113.62
151.559 228.477 144.675
105.313 175.184 163.469
108.283 156.156 83.7664
114.563 68.827 76.0958
123.149 97.3074 107.912
133.999 71.0798 118.899
102.915 208.2 67.7987
102.77 77.9231 111.812
135.615 250.069 152.688
149.22 209.155 125.767
125.94 87.4434 127.318
132.314 152.159 137.957
92.3465 126.588 71.2672
102.386 166.53 161.284
118.085 49.3991 198.304
153.037 180.677 153.348
137.57 120.09 263.571
90.3775 251.086 126.916
92.4479 176.167 58.6761
89.638 131.07 124.325
94.6417 154.938 91.4233
137.358 237.835 171.2
138.351 52.4219 204.549
115.517 251.662 91.2898
138.75 204.372 102.861
135.48 90.8723 98.1163
120.796 138.65 34.1989
111.909 132.062 34.9625
125.219 74.9551 265.27
116.882 138.175 180.338
109.738 67.5036 82.2487
112.61 54.0234 132.263
136.582 145.768 176.992
110.428 88.6816 79.6141
150.523 223.121 126.059
125.936 139.204 174.634
110.96 149.349 65.9584
142.324 91.8236 182.431
83.542 181.551 109.389
111.816 67.1576 156.231
108.467 71.3579 77.4597
57.7468 149.43 105.471
123.244 55.1055 222.697
132.707 85.9672 115.419
128.192 85.6465 230.031
140.256 102.382 203.817
124.46 107.696 180.6
135.564 98.7422 220.349
105.91 163.037 66.7852
111.749 75.8654 193.483
103.271 224.609 131.525
139.339 109.306 191.856
121.455 85.4288 271.528
107.99 80.0553 221.358
108.644 89.0312 114.936
147.483 138.472 77.3156
105.576 260.383 97.3527
103.952 141.113 182.475
141.5 239.928 155.368
120.129 59.2494 237.454
113.284 67.6748 162.904
112.41 202.417 86.3516
127.132 61.9549 236.358
150.93 198.44 169.92
125.853 190.537 54.964
86.6655 215.045 111.876
133.106 114.838 183.366
144.93 100.685 253.755
138.628 170.72 82.6589
85.4583 255.919 117.227
130.693 149.147 152.713
146.908 99.4572 247.419
108.217 264.935 130.947
118.489 102.729 233.633
103.047 128.696 141.98
132.017 180.054 118.774
123.238 198.647 191.012
117.898 227.648 79.4206
126.956 199.12 195.062
87.9916 223.593 117.637
98.2295 236.222 139.686
137.08 228.746 162.848
134.48 90.6161 271.255
116.992 194.05 186.362
149.061 94.338 195.727
99.2859 129.476 132.379
74.4143 119.211 158.037
82.3808 166.087 155.962
121.821 63.3015 247.857
126.854 115.355 80.2265
60.9762 229.736 79.254
96.5325 174.895 137.208
124.365 124.288 256.979
128.812 121.715 193.471
135.281 79.3752 123.568
124.206 55.7114 102.956
144.177 96.7782 201.476
137.814 198.77 127.261
137.548 133.072 49.5952
139.602 204.136 153.387
127.15 75.8367 235.31
138.228 181.298 117.408
107.04 195.948 74.7056
78.0915 217.809 59.5881
88.0619 159.841 166.538
95.0711 258.131 95.4688
130.509 147.141 89.9511
130.704 172.739 66.4876
128.1 53.8073 167.867
119.175 119.524 257.111
146.076 97.3337 215.48
134.236 200.498 98.2519
144.271 240.922 149.342
81.7672 150.843 90.17
131.362 231.296 96.7667
138.541 172.035 57.5111
130.496 143.993 176.577
141.624 58.0812 161.07
152.067 191.651 179.579
96.2682 260.355 127.531
124.372 171.533 106.856
117.14 145.084 87.7254
82.1125 167.649 146.997
99.5041 190.419 72.7098
114.165 155.063 83.8123
113.314 255.59 96.2868
117.208 93.5654 268.305
116.708 53.6731 203.846
143.249 101.645 265.327
146.798 237.245 140.517
140.945 86.3387 216.166
105.001 71.2516 197.422
135.462 90.6155 104.554
97.1724 126.34 139.164
82.6618 158.039 170.826
138.029 175.89 85.8273
127.431 159.866 118.28
69.1171 125.02 161.403
146.021 150.522 84.0106
116.039 221.982 82.8081
98.0217 254.416 86.2402
114.464 165.799 188.268
143.057 144.803 89.4287
108.329 128.458 80.5978
146.49 162.139 169.995
88.4146 183.731 115.765
128.903 141.735 164.585
144.998 130.259 74.2985
101.525 127.582 49.6183
100.524 139.948 89.6288
143.626 117.414 62.0015
105.226 136.864 128.684
112.717 90.3094 213.315
123.642 112.807 264.703
96.0782 150.351 180.693
113.1 152.515 123.057
119.09 99.0392 105.604
125.855 224.525 95.298
124.318 64.347 242.516
93.8436 167.834 146.036
135.844 243.645 116.908
106.951 237.24 156.425
102.371 170.777 55.0547
126.918 64.4759 230.348
123.667 90.3531 119.199
116.605 96.2337 215.884
130.187 106.069 178.019
105.097 60.9252 163.754
137.305 178.168 62.817
125.964 94.0302 110.29
123.01 185.898 53.4125
106.5 91.0676 84.7717
131.794 148.273 186.776
97.7362 204.557 118.311
121.184 87.8358 186.058
119.478 147.619 192.652
140.121 119.49 219.035
133.651 193.385 98.3303
108.351 55.0201 207.339
110.819 93.537 85.0413
116.809 87.4888 174.84
94.8884 124.596 156.828
134.848 91.8223 233.678
104.085 187.952 70.3638
121.144 174.974 68.8702
117.373 87.2487 150.549
117.638 198.099 181.183
145.387 109.374 221.222
112.309 221.085 165.377
125.424 87.1731 78.3834
71.7887 244.834 81.4858
127.766 167.323 84.0225
136.607 102.944 176.854
126.016 88.1088 149.93
144.703 173.184 166.601
86.2707 143.755 99.8574
81.2433 147.584 167.306
111.041 62.4438 245.346
153.108 186.158 151.061
104.12 68.863 81.3829
115.724 202.074 176.783
105.529 232.741 75.8782
118.094 167.477 191.333
139.883 93.2601 213.839
104.513 75.8919 79.0562
134.18 150.889 182.01
133.994 187.362 121.94
141.121 63.078 122.495
129.027 52.5527 190.126
121.315 98.3181 100.044
114.352 146.837 31.8118
111.571 181.197 39.4608
115.93 87.4846 269.439
115.038 210.622 166.565
79.4956 242.013 118.523
128.911 80.9061 80.6824
131.318 76.8423 222.383
129.087 104.93 268.943
137.919 70.7413 111.845
142.719 182.242 134.23
74.9937 248.176 86.4569
97.7585 232.352 69.0257
129.44 126.933 84.1688
145.453 238.139 135.331
132.669 132.383 229.271
149.132 179.217 173.52
140.286 124.569 232.795
147.562 185.368 172.5
116.484 51.7941 162.729
136.323 84.5995 152.984
118.212 90.7147 168.84
105.097 197.976 130.408
133.449 154.753 131.675
114.685 80.6597 269.423
138.535 86.9375 111.193
99.4633 226.586 70.535
138.217 124.554 215.872
103.171 214.657 124.965
113.239 169.846 36.9965
125.742 141.867 155.828
148.294 139.382 85.0453
62.9608 226.478 72.4082
124.88 83.3599 144.967
110.02 163.55 188.323
118.783 65.2846 256.971
122.862 61.8771 233.142
127.216 112.896 72.7041
145.111 215.921 166.199
126.553 80.957 225.79
114.101 144.426 124.932
128.295 171.432 60.4767
118.361 55.8058 89.7337
129.554 112.818 193.937
141.136 155.325 73.1298
117.293 239.252 83.1269
126.125 59.144 212.455
115.601 196.48 174.942
127.149 92.3565 245.521
106.687 151.506 191.555
98.5246 133.916 181.819
119.662 87.3789 77.0655
136.86 61.7531 172.14
143.885 217.896 115.424
70.8116 166.528 148.246
97.0916 138.354 80.9222
86.039 138.763 52.9264
67.2756 224.624 65.4861
78.0152 163.495 138.294
132.775 151.966 157.089
85.3222 188.975 111.845
145.753 93.6111 210.083
113.189 115.699 73.189
126.065 89.8158 238.125
137.545 81.0686 178.22
108.256 82.4089 77.5593
89.3834 174.662 76.8196
93.3845 180.892 71.5136
106.551 174.776 151.92
72.3427 141.126 64.8668
94.5111 246.616 136.725
125.869 152.252 137.051
116.74 187.353 183.559
118.753 158.446 123.181
139.094 81.003 127.734
84.5844 195.364 66.1634
137.082 179.27 128.899
111.912 232.233 169.267
132.732 185.288 115.681
76.782 237.383 113.638
138.581 65.3101 109.661
142.976 103.526 237.318
125.902 54.5368 137.436
93.1412 132.195 131.402
122.66 116.093 78.0612
110.626 94.8057 110.682
109.381 214.687 142.821
89.2011 236.626 70.3151
124.862 178.028 109.334
120.452 55.9089 184.755
105.531 85.5852 211
93.0076 253.642 131.46
87.0862 129.654 79.0321
134.454 79.0157 251.946
131.314 75.4979 255.808
91.0277 153.463 179.497
142.149 59.2821 191.708
108.532 174.98 49.9561
131.094 117.023 50.1539
139.524 113.903 262.152
125.149 144.282 148.028
76.4006 165.67 146.898
107.758 168.891 43.8394
149.067 208.62 153.749
138.398 115.647 232.192
140.242 92.0882 261.264
117.305 56.9264 140.464
142.217 171.652 139.463
118.343 166.295 102.872
112.5 99.3731 201.001
130.983 169.389 126.397
143.182 104.48 257.434
116.428 141.678 82.1581
106.854 65.1964 218.221
100.336 197.219 120.151
140.144 121.946 72.1757
101.865 175.85 44.0401
137.692 101.192 190.898
100.711 263.335 117.54
127.127 170.458 40.0022
84.6082 125.879 172.868
100.369 196.341 126.977
109.591 175.149 173.184
110.236 262.399 113.137
113.208 135.41 145.414
102.555 219.302 129.157
132.35 70.6238 220.538
113.027 178.952 47.2753
134.985 130.116 91.2478
66.4323 233.39 98.553
138.942 151.356 151.74
134.637 129.953 242.212
123.171 120.752 251.145
135.78 76.8665 88.1097
116.747 133.777 166.323
132.325 49.5397 199.167
122.966 101.862 269.493
137.23 87.5564 219.627
138.031 72.3798 211.927
109.458 55.6091 198.542
131.137 172.472 197.051
96.2892 76.696 122.368
118.765 55.6415 169.034
114.141 181.386 160.864
108.528 64.7347 223.212
108.047 97.4313 207.438
109.154 74.0653 210.403
121.798 254.684 102.573
103.775 239.284 75.4769
101.778 189.809 131.585
115.524 81.1259 147.601
112.586 182.883 168.591
91.9216 127.814 171.852
132.028 72.7138 232.259
128.626 127.381 42.5317
104.794 225.041 144.817
92.6621 187.153 119.265
91.1564 245.548 131.126
93.8804 122.992 141.851
114.075 55.6857 124.249
132.474 113.957 263.009
125.64 64.6815 87.758
122.159 260.612 128.291
110.748 58.0039 140.051
135.065 250.339 130.01
65.6309 138.577 165.108
130.031 147.678 61.5193
142.193 213.623 115.378
124.799 87.7621 141.707
120.921 173.374 39.8882
115.233 225.195 171.691
135.042 52.8215 196.767
120.057 92.3183 81.4008
88.9631 129.395 117.501
118.797 58.4452 209.42
85.0014 124.301 161.684
111.996 62.077 193.992
125.885 45.9889 118.883
136.559 78.3722 184.204
134.463 85.0363 260.161
132.035 57.1963 202.439
142.2 134.642 60.0335
99.8247 181.4 53.1549
131.588 97.2117 230.632
81.9012 256.715 105.225
108.396 128.791 62.1001
122.444 147.315 37.4009
118.096 189.127 82.6645
93.6015 233.365 67.8127
108.572 213.364 136.078
143.647 111.241 258.574
123.201 69.0733 250.904
119.134 127.178 85.1716
110.566 86.2504 119.816
114.755 91.328 263.986
124.138 131.51 82.4826
131.723 113.685 77.4177
128.007 60.071 115.483
118.385 165.981 122.444
143.192 95.509 192.533
127.524 91.2455 231.594
130.65 120.592 199.284
118.516 116.099 209.046
102.747 147.682 109.704
116.916 193.32 170.193
126.083 84.5049 241.366
85.9283 127.05 136.157
151.094 175.036 167.996
101.312 137.63 134.191
145.44 126.156 70.6957
135.614 250.414 118.919
101.095 131.678 137.055
128.939 76.1653 241.743
131.125 189.202 59.1264
109.635 60.5615 148.056
110.44 74.8265 258.904
143.064 180.089 68.1043
141.733 66.3745 105.023
116.388 176.743 183.875
132.343 129.739 216.454
129.42 93.1012 86.1958
99.0063 183.442 58.0239
61.0052 219.505 70.84
111.744 65.6894 249.4
95.798 90.7695 108.639
113.374 152.044 193.913
139.474 233.123 111.651
115.065 79.6789 222.389
105.695 75.7875 122.13
130.75 110.631 57.0091
148.106 185.321 156.673
103.173 89.0224 88.7409
108.392 60.879 91.8079
130.153 94.1168 240.317
123.865 80.2035 266.889
140.3 122.552 79.8083
141.348 77.7301 176.452
124.517 167.77 120.747
133.156 105.852 230.846
130.738 84.7369 264.378
96.9672 150.328 107.449
139.434 80.7528 142.778
118.041 206.464 179.725
110.252 157.861 103.505
146.067 81.9238 160.149
121.355 229.954 83.9814
105.98 68.9039 206.218
110.178 156.747 63.7358
136.103 126.19 51.4164
127.955 180.657 104.63
62.4863 233.698 84.4375
103.96 140.351 83.439
108.474 63.036 240.216
115.81 66.1519 171.883
143.784 126.553 57.9305
127.544 87.3704 250.071
126.805 61.8077 218.185
73.0147 245.611 103.92
109.93 219.746 159.348
98.4294 260.811 106.935
102.142 177.673 146.368
146.4 185.573 141.123
104.373 231.904 155.59
131.963 119.374 45.3905
63.6961 236.113 77.9116
145.803 155.859 77.2963
139.748 77.5768 118.062
120.234 120.423 214.275
147.756 157.32 159.391
119.982 96.2536 181.989
75.4899 212.996 64.158
115.662 232.08 174.918
147.394 108.417 211.768
121.678 154.683 48.2289
139.934 123.518 54.5513
137.68 87.9441 247.569
118.617 168.504 114.283
94.0647 260.099 110.586
125.037 48.3237 185.635
127.204 175.136 118.739
129.298 166.915 115.455
119.782 65.6135 240.946
89.3663 256.664 104.891
101.428 240.729 146.549
67.0385 175.535 128.021
132.146 58.867 117.312
98.1369 248.639 141.447
131.785 195.446 93.7838
79.6539 198.067 67.2936
111.472 248.003 89.1151
132.427 87.4509 89.8642
128.754 89.7701 136.802
129.895 80.0278 239.438
118.028 257.123 97.9676
142.676 166.499 71.523
115.61 221.278 93.8617
141.358 91.4254 248.599
66.6913 240.473 82.9197
132.323 147.61 46.2831
150.595 178.317 161.712
138.647 86.1306 203.077
124.764 249.595 102.823
117.11 158.738 53.9554
118.128 179.29 48.176
137.163 212.786 107.549
137.222 79.8626 95.1291
126.717 158.411 40.5785
119.996 160.703 109.04
134.454 72.7848 216.249
137.191 86.4984 265.841
143.928 152.401 88.1032
107.393 63.5545 123.349
81.6043 164.143 68.7405
141.784 211.216 124.699
117.021 142.273 32.873
99.3153 180.663 67.8125
143.962 80.4208 204.469
127.384 251.624 107.194
143.935 236.023 156.168
124.068 164.366 195.849
138.973 83.2506 117.767
135.349 123.673 222.91
104.904 215.475 72.3188
108.952 72.5973 158.369
72.3728 133.958 114.147
128.31 94.583 121.944
141.572 200.271 131.592
117.173 137.852 77.9467
121.167 98.0598 201.772
129.836 255.026 122.96
135.175 86.9035 188.141
124.183 147.043 45.0055
149.88 209.774 174.758
108.928 177.592 157.08
129.487 134.765 85.7438
143.36 169.738 149.813
112.595 210.496 143.482
110.167 94.8246 98.056
137.503 111.123 267.111
118.362 100.289 176.255
131.595 86.5034 270.423
118.782 99.4675 95.3696
58.5658 221.334 85.4314
101.004 132.607 157.907
99.6428 185.216 132.436
132.429 74.5877 114.931
147.21 231.673 124.839
92.169 186.028 69.6854
83.4247 143.434 175.299
112.925 85.5299 218.456
136.91 74.9526 103.33
87.356 127.398 178.735
113.82 153.075 78.1835
98.6327 72.4094 89.312
71.0675 232.033 107.33
84.3538 203.177 63.4612
119.744 108.585 222.562
99.9732 136.13 47.6005
56.905 127.969 142.741
62.064 206.582 69.5658
92.59 233.895 126.793
137.98 70.0006 100.751
92.9525 148.812 100.827
92.6979 145.28 106.714
102.148 123.044 53.6462
118.276 102.423 183.425
101.674 127.018 68.1623
143.904 122.557 228.613
71.6972 172.076 123.555
98.5343 86.5786 101.888
106.647 82.4864 123.031
77.3986 215.019 109.045
132.129 136.76 61.816
115.101 61.4214 122.931
126.487 181.064 96.5226
74.7122 129.435 86.4087
142.69 89.5072 237.998
136.051 119.806 83.5839
136.368 76.1494 204.529
146.782 113.956 243.533
122.403 148.964 50.5661
139.706 79.0464 190.985
148.928 195.358 182.192
115.168 203.899 145.395
110.872 64.4631 117.824
112.234 68.4035 255.036
140.506 205.206 113.067
132.118 70.7344 91.5008
82.1276 122.226 155.76
140.699 130.61 64.2034
150.234 203.423 181.607
114.144 121.01 82.8932
117.083 87.3615 251.488
127.139 70.0768 217.106
139.396 164.4 90.0264
69.1149 131.496 165.976
122.17 136.967 149.768
74.275 161.668 49.7638
146.727 98.835 239.924
128.904 225.763 100.616
63.0348 165.339 139.64
117.423 57.5504 108.298
148.22 164.528 159.544
147.235 73.7684 146.639
143.267 124.445 76.2939
143.989 140.589 67.8322
150.261 185.358 146.249
120.28 48.4268 206.704
107.279 121.286 53.0505
113.866 58.8214 226.49
112.107 160.446 117.414
72.0212 226.371 107.205
107.058 221.065 154.053
109.144 214.588 130.084
143.271 95.3932 186.506
134.828 118.926 208.242
117.436 122.97 248.174
118.252 122.197 206
124.412 185.707 92.281
135.769 220.855 187.741
141.616 145.457 68.9226
108.366 230.485 160.935
111.806 81.6064 135.082
123.497 57.1293 119.429
133.374 130.273 224.562
145.191 121.256 235.682
142.569 163.273 154.203
106.614 69.2916 239.281
75.6874 119.933 136.353
125.217 163.229 50.1733
75.6748 221.675 61.87
113.803 187.271 76.4493
111.747 78.0407 166.469
148.119 189.099 165.974
103.133 67.8964 234.162
130.803 83.9587 129.002
141.912 159.113 83.5131
150.317 183.116 178.776
107.263 262.362 141.626
141.153 95.2584 265.913
61.5711 125.285 155.318
133.094 102.524 269.415
121.958 170.36 99.628
106.815 67.3822 245.073
135.147 52.2272 185.684
110.554 72.6135 221.302
129.532 141.185 95.4063
143.704 228.544 149.695
111.971 221.445 79.0177
119.834 81.9834 266.244
111.288 114.641 209.904
101.867 219.882 68.9236
145.168 117.488 206.828
70.0483 230.632 67.7983
139.628 54.2057 189.76
141.706 98.2293 233.525
85.8952 130.899 127.05
105.546 74.5127 180.219
129.108 125.711 221.87
132.097 96.2825 267.832
90.7828 132.72 90.549
143.09 238.774 143.947
118.197 83.6156 196.829
70.136 239.589 75.535
129.482 66.4706 238.38
90.5088 158.048 87.5003
138.765 188.504 114.171
116.467 48.0437 152.342
131.819 134.507 92.8761
106.386 67.07 252.055
112.244 97.8638 251.695
133.86 137.408 68.6614
70.3644 236.316 101.486
87.5949 168.352 146.081
143.97 162.299 178.488
117.444 83.8435 160.872
76.9651 246.298 109.644
142.753 112.866 197.075
112.062 151.06 133.833
106.233 63.044 84.8437
126.064 71.7037 239.745
138.303 72.2999 172.351
138.786 107.679 235.18
58.7753 221.668 77.2508
100.728 147.679 182.98
87.1946 139.214 104.938
113.497 99.9804 96.0478
127.344 148.076 53.6048
149.184 217.922 154.486
114.307 60.4495 144.787
103.893 62.0105 89.8664
146.689 215.595 125.391
95.9548 73.4103 98.8097
114.792 61.8586 136.003
122.713 186.164 105.802
92.5221 126.761 79.1406
103.26 77.9943 224.132
113.71 58.772 237.487
116.696 53.6353 192.957
146.344 149.816 70.1548
137.248 84.5563 255.71
100.613 134.136 53.6434
151.628 197.971 177.52
108.227 215.942 149.811
131.7 121.955 212.382
127.278 169.923 111.379
114.36 188.155 171.252
80.2673 201.031 62.0576
98.6665 78.8925 89.684
118.278 52.9706 128.639
105.558 140.028 91.5985
109.487 99.6132 217.685
71.5682 197.38 68.5019
116.977 97.8407 262.856
57.2873 214.913 78.2136
121.087 261.297 133.1
100.499 71.6499 124.421
55.5752 133.206 137.718
101.037 84.0455 107.93
134.722 182.921 68.3844
72.316 127.112 168.659
130.26 129.028 238.765
80.0704 177.529 114.141
129.094 97.9898 247.784
95.5057 78.1596 95.8647
119.023 103.679 257.536
83.7728 203.751 107.864
117.99 131.637 76.6069
106.521 84.8232 82.9056
115.185 73.7948 262.01
92.6698 215.028 115.578
107.041 84.9309 174.964
134.52 240.113 106.716
125.363 159.813 124.718
143.025 108.014 263.523
132.301 121.554 205.073
111.65 156.779 89.5363
66.2239 232.432 73.3572
107.086 182.938 142.812
113.404 54.6407 208.281
93.6842 134.738 57.1532
107.785 130.527 156.796
141.289 112.906 237.829
122.147 171.022 117.203
119.899 73.0279 262.011
100.386 154.832 182.688
128.129 256.197 118.749
135.481 92.5761 177.266
110.794 61.7563 106.003
141.784 124.196 66.4979
94.5936 75.3523 109.596
114.836 62.9076 240.706
110.881 66.0735 234.22
105.221 88.9236 122.429
120.443 188.083 89.6309
124.833 48.8978 159.132
117.218 63.7782 210.789
140.904 85.095 210.47
112.595 78.4193 263.471
136.081 80.5684 146.584
123.253 95.5402 162.938
116.815 99.9633 269.82
117.162 60.4608 232.623
89.4881 143.963 179.132
110.936 95.7766 260.115
118.612 87.2346 200.995
132.444 79.4097 114.598
120.132 158.209 129.138
136.061 136.527 86.9856
103.051 78.6894 250.974
88.5154 169.429 51.0706
88.5158 128.591 166.479
53.6526 134.625 131.77
124.353 55.5686 163.668
133.892 59.2079 187.065
84.7985 122.849 168.704
140.976 125.71 225.633
127.688 122.001 206.705
121.168 124.661 219.025
117.205 214.118 87.9067
140.783 66.6918 212.821
95.4083 124.87 67.3288
113.301 226.111 78.2872
122.473 178.195 41.2349
80.1709 249.575 104.094
108.433 94.8071 196.251
152.016 190.735 174.834
112.827 91.223 206.979
119.028 110.293 60.283
112.884 129.506 159.762
110.195 88.9031 182.862
89.054 127.38 128.84
58.4908 133.32 153.041
84.003 178.566 57.252
113.396 169.609 182.372
119.449 98.8375 88.6461
118.938 234.657 83.0347
97.3037 85.3735 114.361
134.001 90.9524 258.635
143.725 120.399 214.472
145.766 87.3284 208.553
109.261 73.964 131.131
72.3789 132.006 121.56
74.6836 248.079 93.536
86.8367 254.885 109.855
109.211 140.266 121.444
140.475 80.484 208.57
130.895 165.877 130.524
115.266 133.485 137.104
130.596 55.311 209.163
64.7621 176.289 118.015
114.898 125.229 228.007
127.989 188.98 102.054
101.227 87.1109 96.4161
128.125 68.3025 104.941
118.151 110.184 206.266
116.067 173.038 188.586
131.273 146.538 170.566
113.035 108.299 256.53
140.404 73.9718 184.189
125.64 69.5654 81.0848
94.577 177.262 133.229
130.707 148.22 164.667
94.9845 129.243 44.2772
100.906 148.09 190.174
120.591 197.7 164.535
96.5346 69.6445 102.918
130.321 229.358 107.911
111.465 84.2967 170.284
121.097 157.935 41.8508
103.199 136.856 35.6953
110.333 117.381 228.626
141.581 96.4313 249.948
73.6536 235.772 70.1948
110.274 95.5971 235.668
121.725 91.544 123.793
108.722 89.1399 221.733
143.276 204.512 118.786
118.591 251.555 95.7103
125.797 71.3475 229.087
125.39 234.237 96.1672
122.621 102.03 227.407
142.435 62.8361 171.986
145.77 212.929 185.736
133.341 127.97 248.777
135.845 83.2716 132.408
136.399 208.768 107.145
98.2079 122.778 148.034
117.449 183.966 76.7544
109.906 76.1215 188.074
90.4512 196.546 67.8701
146.95 183.036 168.302
105.424 128.666 163.155
96.1979 132.338 174.466
105.518 163.108 42.9291
116.219 152.415 59.7497
107.384 63.9664 100.7
144.763 106.664 226.77
107.868 57.6566 99.7544
140.403 116.703 240.386
80.4119 246.053 114.049
140.466 116.54 225.775
95.6995 161.003 171.902
135.045 77.9255 216.563
121.756 61.9412 227.429
115.108 244.381 84.7998
137.098 64.8719 93.0821
99.9462 160.819 180.558
95.6948 73.1514 93.0585
135.24 172.944 53.2016
93.6627 208.971 115.183
116.597 61.1681 246.946
127.351 141.835 53.866
97.8844 81.0808 101.248
118.007 66.6451 250.291
82.0835 164.33 82.647
129.193 164.277 123.797
125.24 215.671 96.9949
148.927 208.33 160.058
130.892 97.4396 173.628
120.259 127.261 207.286
110.499 74.1404 173.751
81.7283 136.62 133.464
105.562 129.381 148.873
106.74 78.805 171.538
140.363 116.941 256.666
118.604 153.202 54.6966
72.0343 129.683 127.369
98.1317 222.704 126.68
119.053 224.661 87.5207
77.1084 151.978 168.867
89.9617 169.001 140.476
101.095 167.303 69.8611
78.0594 140.694 175.69
119.943 98.5349 223.657
129.847 122.745 256.137
100.897 72.1708 237.017
79.4991 163.604 151.439
125.504 68.4122 245.541
123.444 188.02 194.593
137.914 69.7655 184.516
107.899 64.2082 111.105
128.8 112.789 189.049
118.322 142.584 146.587
78.2322 169.391 131.614
53.3529 145.725 118.407
96.5596 127.198 54.0467
114.188 75.9544 150.771
124.787 70.4721 256.371
149.273 79.9766 188.953
140.494 104.061 242.742
135.25 95.47 242.118
78.1162 230.295 115.839
121.051 98.0192 191.291
124.429 118.147 198.873
122.06 113.61 196.908
83.9105 166.633 139.409
67.835 142.709 118.474
105.553 97.597 250.207
98.0456 85.32 90.8015
111.372 175.628 164.917
60.9494 212.918 70.4866
114.039 184.413 176.511
119.167 53.9614 103.613
107.049 90.1311 196.469
112.019 225.995 158.164
133.256 205.553 100.327
102.758 97.0598 108.78
111.553 189.758 84.1291
129.135 238.289 98.1392
77.2631 117.769 153.861
100.751 129.676 62.5435
106.305 78.1664 209.892
124.746 255.933 115.808
79.2017 252.202 90.792
116.605 134.38 161.57
114.09 67.7811 138.362
126.783 175.744 43.0596
101.911 80.4575 228.307
105.776 88.7184 251.727
138.259 76.3121 197.456
99.9604 85.3961 231.438
117.833 169.154 107.688
132.756 124.186 252.9
128.325 200.761 95.8119
84.3339 220.057 114.865
142.435 79.2962 151.653
137.481 188.509 128.247
65.3095 180.708 112.328
108.122 59.8893 211.509
145.194 102.466 231.874
119.64 135.08 155.992
92.3933 134.43 49.8659
102.198 64.5599 111.935
91.6091 167.986 156.584
85.7059 160.942 85.6656
151.424 202.166 157.376
149.581 211.192 179.047
69.6216 155.579 159.295
143.875 108.85 240.317
74.5389 161.979 155.396
72.6048 154.828 51.9611
74.8151 170.027 127.888
93.6717 157.886 176.723
136.523 82.6119 186.743
105.301 84.7875 255.431
139.207 186.379 132.223
115.991 57.923 114.852
143.275 62.5044 163.882
91.1746 170.551 83.5853
119.536 148.256 56.8526
122.733 107.074 196.056
103.948 76.5919 129.281
132.455 81.3922 256.48
138.988 94.1319 226.057
108.758 63.7195 182.478
123.608 112.211 256.943
131.003 148.522 146.023
138.912 121.664 59.9774
114.75 68.3127 213.756
140.249 106.022 222.268
68.7363 122.305 156.202
102.013 133.183 58.1324
97.4629 128.866 162.319
120.153 114.895 240.503
144.18 201.793 164.308
96.2378 156.452 51.6087
135.028 116.708 77.8995
116.884 83.3006 181.674
71.9648 238.551 106.339
118.735 150.422 45.5473
121.028 195.384 188.802
116.541 209.33 149.92
112.867 149.688 141.405
137.682 84.501 191.921
117.656 188.297 157.154
131.712 119.965 260.25
98.3643 185.565 68.6336
129.601 174.017 112.93
130.866 110.787 69.317
103.884 94.7831 235.052
93.5719 162.778 90.2889
140.042 91.4115 204.599
140.145 99.275 258.282
113.539 118.489 233.99
129.784 146.79 73.0515
112.195 69.1968 133.963
115.083 218.671 169.665
109.794 72.2148 126.334
112.235 62.5648 187.181
116.531 97.3396 231.296
145.215 105.029 247.871
80.8668 130.562 78.7684
105.364 192.94 136.681
96.6753 140.611 87.6906
80.6062 158.579 86.1077
140.55 100.438 218.535
116.343 94.1564 185.538
134.662 126.537 84.6972
123.668 84.3265 134.625
151.543 215.191 160.072
89.8298 146.435 101.687
116.373 127.66 234.772
143.289 87.142 183.378
92.4126 141.212 84.9871
64.4389 120.972 145.583
125.556 54.5761 207.901
147.965 156.121 84.088
111.182 79.6534 129.894
149.844 183.424 163.236
109.528 61.077 205.501
120.471 149.428 139.328
123.388 128.937 231.663
141.651 123.193 240.672
98.5527 231.246 134.763
123.549 119.588 203.751
120.699 163.389 35.9854
81.8086 211.844 111.163
115.119 55.5113 156.271
113.57 91.5558 251.009
64.0829 130.78 118.85
77.2727 191.365 99.2249
140.859 125.665 84.7106
121.309 164.817 58.9239
117.732 96.9751 255.773
134.49 126.251 218.449
79.0436 173.371 108.84
95.9923 80.1093 107.273
116.416 79.1935 139.259
59.3326 177.762 113.557
105.815 76.8061 232.557
104.543 154.175 53.7338
128.053 140.041 89.2362
105.927 67.8823 130.533
105.948 107.943 235.59
62.0084 228.776 88.2612
99.5231 218.678 123.512
124.08 139.311 40.8746
104.78 75.9964 192.988
107.885 210.643 80.1902
109.325 200.824 131.752
122.626 114.498 247.98
122.081 62.0534 109.956
115.043 182.133 181.575
80.4961 169.73 79.6172
107.129 93.7898 202.54
69.7383 177.774 119.754
98.2891 140.301 49.7919
133.146 96.1059 179.15
103.215 80.767 244.064
131.331 168.284 72.6719
100.452 75.3114 247.078
88.0749 173.188 138.059
70.0242 222.656 103.709
128.218 242.053 101.968
110.718 211.566 86.8162
103.328 87.5699 115.872
114.826 103.497 225.181
94.1884 131.138 65.381
104.277 72.3439 227.877
125.058 145.541 88.1627
106.566 153.037 76.5421
69.7655 216.536 63.9004
114.407 172.298 82.0898
116.845 204.752 171.826
137.635 59.7277 199.163
141.971 224.414 163.564
103.875 195.947 69.2472
102.987 126.44 58.381
96.0191 140.704 55.1506
117.824 61.559 166.986
94.3547 198.137 116.911
130.769 85.6001 124.078
84.2338 161.082 95.237
53.6419 151.233 111.394
113.736 79.6841 75.6371
101.2 67.2018 106.626
118.129 210.961 170.921
84.7443 169.269 134.143
128.161 181.286 114.157
76.1197 172.323 139.625
70.9432 244.397 97.6677
128.556 111.638 181.04
117.02 111.6 256.996
104.758 71.7686 249.408
134.048 93.7717 263.559
143.973 81.4442 199.456
104.693 78.4482 257.324
104.229 89.2883 225.436
121.751 92.3917 192.801
102.99 227.263 74.7546
102.387 84.2892 224.344
84.3335 242.264 120.271
