ply
format ascii 1.0
comment Created by Open3D
element vertex 170
property double x
property double y
property double z
end_header
100.172 114.618 88.236
38.73 106.526 84.818
28.463 131.486 77.9621
103.336 146.687 98.1202
102.831 137.695 82.0553
36.6906 109.532 70.7904
89.0624 15.4772 134.873
94.786 64.7718 103.134
102.077 133.075 65.441
67.6096 81.8898 122.539
27.3955 163.48 77.4773
96.5345 176.021 94.1711
90.8565 47.8029 141.735
97.2975 29.9705 108.997
102.461 31.6714 149.929
99.1824 73.8085 151.62
66.2275 70.5872 100.792
33.4247 131.358 59.9261
102.921 159.432 82.765
102.089 56.0713 151.697
88.3692 85.5135 130.059
102.254 65.2567 142.762
101.283 145.23 56.0047
102.179 54.8975 109.99
95.9672 83.2898 132.615
100.639 42.302 108.43
80.0877 75.7188 103.126
76.424 26.2987 107.593
80.8836 86.5964 140.776
97.0639 81.4133 142.769
90.8866 78.5473 111.895
90.1727 85.4493 142.992
104.971 39.6392 131.493
70.9139 82.3893 140.133
96.2041 72.583 110.261
84.9913 18.5368 120.86
88.6023 53.938 119.369
87.7041 43.0659 94.9805
73.6771 82.6366 114.611
83.5408 32.8715 117.77
65.7285 53.5471 99.7321
103.269 34.5349 119.322
89.0731 31.7005 152.752
26.6912 146.83 88.6042
92.5414 35.8127 124.192
88.765 76.1089 161.956
101.149 68.7438 116.199
91.572 23.8128 139.443
43.5991 103.118 74.0991
90.7542 34.4669 145.426
90.0491 40.8462 161.454
94.5273 113.383 103.862
70.6446 34.6157 101.7
40.934 150.998 115.776
83.9573 68.4086 164.3
101.347 120.421 73.2667
63.802 186.983 60.9837
77.8837 186.134 65.9717
63.0853 191.007 76.636
101.087 163.077 67.1015
29.9889 132.552 96.4728
102.908 69.3631 133.348
30.5617 128.77 68.7627
75.2083 141.584 34.6116
87.6832 67.3915 97.3221
66.9242 70.5051 121.721
97.3074 43.5292 129.73
101.413 130.476 104.921
99.5949 26.0087 113.891
96.8412 14.249 130.796
71.3665 42.0928 105.265
29.1325 153.975 96.1187
85.3685 84.3571 121.274
93.2263 178.047 68.3749
81.8841 63.6327 159.196
38.3578 177.944 65.3773
40.9378 115.925 58.898
77.2951 157.161 35.9536
85.021 47.5356 116.762
61.8785 66.438 104.81
74.8703 68.9858 147.398
62.7426 74.4931 111.19
43.2197 123.177 51.7516
52.5669 186.646 64.4103
77.1718 41.3419 113.106
79.5797 86.018 121.114
95.1834 122.332 53.7874
74.0655 81.8653 149.751
61.8663 190.256 88.5802
96.1595 56.311 101.233
76.5811 65.423 128.173
96.0959 169.946 102.999
38.3207 170.251 54.0361
80.1492 65.1443 143.749
92.2472 151.247 43.6409
41.7842 165.067 113.959
33.7379 175.323 84.676
59.8931 120.143 45.5211
54.8508 163.405 120.445
34.6187 135.615 108.202
82.463 170.47 45.7458
73.8138 182.477 54.9449
57.2923 98.1367 90.6344
97.2865 65.6679 159.115
73.9786 86.6144 129.279
69.2213 79.0733 106.665
66.7248 146.911 32.3537
76.1177 71.8651 155.259
39.3398 138.959 47.656
78.7488 77.2186 160.108
102.589 20.7973 143.654
85.1836 140.65 39.2333
62.487 177.17 45.922
83.1883 116.572 52.1066
83.735 104.196 103.35
89.8537 10.3771 126.993
70.8703 188.056 96.24
74.7137 67.7757 94.5808
69.3412 45.9756 91.8802
82.236 187.048 79.1794
87.7462 182.612 94.7902
91.4917 106.265 76.8767
80.9996 45.8546 90.9673
47.6246 105.814 100.748
58.3506 133.171 125.839
72.4442 97.0703 90.2373
92.501 17.3783 115.079
51.7811 123.147 46.4112
66.8423 58.8783 106.469
66.0134 132.082 37.8834
58.9444 131.131 38.6572
65.8371 124.066 124.268
70.4248 60.3298 112.817
63.8347 154.137 125.099
90.4737 53.8547 157.611
97.9707 52.1259 135.932
83.4844 64.0463 138.874
41.5735 178.855 98.8651
71.4623 176.27 113.916
53.4954 101.567 66.7265
49.4498 124.126 119.642
101.801 43.972 157.294
82.5271 126.733 42.5582
61.2607 183.631 105.977
47.8394 146.188 38.8932
49.2774 187.117 88.2885
82.6058 106.922 62.5869
78.0564 35.6463 92.8399
84.2255 18.8954 106.265
93.0531 165.327 51.9218
44.2123 134.73 44.2799
81.1433 133.87 125.706
48.3083 166.618 43.3078
64.7868 98.7946 70.8689
93.5546 13.6762 142.744
67.961 108.172 114.219
53.4512 165.229 39.9883
96.2012 32.7963 160.181
92.3026 55.4973 168.314
90.2831 166.463 113.113
79.1925 161.825 121.59
93.131 134.741 118.805
57.117 109.974 114.105
80.2341 115.204 117.446
88.2905 59.1831 156.826
66.1791 77.6865 125.863
67.3114 184.012 105.867
56.2187 177.559 47.0119
62.2774 67.628 139.726
75.004 113.423 117.251
