ply
format ascii 1.0
comment Created by Open3D
element vertex 94
property double x
property double y
property double z
end_header
59.7869 112.385 59.2061
40.6246 101.851 57.1218
61.7019 53.5033 66.1534
49.2191 19.3597 68.567
56.0182 97.261 58.5486
25.117 46.9399 61.5499
63.1543 34.4807 70.4766
60.6919 28.6702 63.5257
30.4618 25.6085 68.7998
63.8552 44.2747 67.0392
55.2632 43.4703 50.9999
42.7689 38.0205 49.438
33.3378 49.148 83.7053
45.3877 95.2563 59.4884
39.9046 23.5067 54.2636
53.3802 88.2017 57.5785
33.1332 25.0281 59.8656
46.4048 100.53 67.2162
57.1427 26.0493 73.6116
55.5368 60.5881 60.1246
27.6873 58.6032 62.1537
46.6504 112.896 68.1859
25.0379 45.0538 70.3812
36.9415 107.984 60.3511
29.0882 50.8072 72.7303
49.1106 30.1421 52.5575
43.1195 20.4375 62.6703
61.6849 46.7957 76.1533
49.2322 21.9107 76.2135
41.5243 34.7383 85.8957
35.8623 51.2426 49.2136
56.0929 33.9338 53.3861
39.0087 61.4149 50.4689
45.839 103.868 50.1033
62.266 106.846 66.7871
27.3027 31.8179 67.0216
49.5917 115.174 60.9194
31.0518 57.0314 74.6594
42.862 28.9195 49.9748
47.7624 19.2514 56.7287
32.1551 44.3928 50.9874
33.6433 31.6112 53.1844
54.7047 113.695 67.5742
51.0784 28.0526 83.1691
33.8028 62.566 54.7181
53.083 104.49 51.2879
28.8288 37.165 56.3637
46.6806 61.7239 50.7838
59.5934 50.3586 55.8131
41.2309 109.421 66.3034
29.7452 61.594 67.8122
45.0719 45.5882 47.5351
52.8605 37.2908 85.1167
48.404 96.9032 52.4912
50.1759 44.3857 86.5753
52.6732 91.825 63.6957
29.5729 57.4377 55.0542
46.3325 108.865 54.8792
41.3645 44.3461 88.9113
40.0107 98.2214 67.4718
45.5476 90.3276 66.1219
57.2297 59.5505 71.3407
43.2036 55.8681 83.2786
25.1638 39.5717 63.6678
37.4028 59.4428 76.2738
41.1928 104.69 71.6723
42.7911 66.6304 59.2463
55.2882 24.7916 55.4462
50.9056 63.828 72.7003
27.3677 39.258 75.9309
43.0065 65.2528 72.6943
30.7565 31.648 76.4828
36.1274 65.2526 66.0624
52.6254 109.702 56.3214
39.8937 22.4255 74.4571
46.2278 50.8565 86.6411
36.9359 19.7713 67.1526
47.0366 87.9023 58.9497
43.6466 111.131 60.5898
36.592 30.4025 82.1685
57.8021 41.5912 83.8143
49.1372 51.906 47.6891
50.0433 96.9096 76.5224
43.3529 94.4461 71.8095
53.351 17.7961 62.8893
57.2263 101.385 64.2708
55.7573 94.4681 72.3773
51.4206 106.319 76.0967
52.9463 25.3271 63.3974
47.6331 65.3469 65.2449
60.1706 97.9424 74.8241
59.0664 31.7432 76.7884
56.7034 103.525 72.5542
56.702 50.3128 82.8425
