ply
format ascii 1.0
comment Created by Open3D
element vertex 406
property double x
property double y
property double z
end_header
83.5096 100.238 61.2416
87.0074 122.465 26.2818
78.8134 47.3524 39.804
93.5791 54.6835 93.5005
38.4017 98.6362 85.767
56.5789 98.9438 63.739
88.9759 102.005 80.8599
82.8999 65.093 117.949
84.3355 49.0916 103.277
57.0661 46.7114 112.516
96.9922 54.4469 43.7853
95.3373 81.4444 123.712
60.0401 110.094 134.248
82.488 93.7261 138.686
79.9145 59.9239 38.8519
44.0055 43.1712 110.273
50.5262 39.8542 67.1064
46.415 36.1194 61.417
40.3843 83.0893 111.216
70.1339 87.5676 114.733
56.2249 36.8558 79.3745
88.1128 39.4334 77.2253
99.7825 53.8834 74.3036
92.1289 95.3402 84.8563
81.0773 99.1461 149.753
101.218 88.6378 66.1168
57.4131 82.8397 116.916
46.0503 52.9203 112.012
42.0679 86.3848 102.105
34.2674 55.0351 59.3891
53.5896 98.8262 106.777
61.5257 35.7092 49.0572
80.335 72.3313 36.3222
80.4434 94.2913 51.7927
86.972 42.7044 93.5172
81.4555 34.6188 74.5107
71.9136 33.252 77.5174
58.2087 111.613 146.345
26.0054 69.4957 74.9862
81.4203 87.8104 147.211
58.7537 30.3806 74.7437
64.2595 53.3741 116.279
96.4314 49.9993 78.8238
64.2104 41.2744 43.4617
98.9038 77.1111 90.8407
64.594 45.6972 110.773
48.2145 83.939 139.037
78.3086 45.3108 50.0256
91.3931 93.5357 93.9343
30.1115 43.0959 92.1019
43.0694 95.1841 110.016
83.2346 95.8538 105.687
27.3108 75.9419 71.6239
91.3141 36.4592 55.0207
99.7586 72.1639 111.017
101.243 73.5232 66.7721
48.5198 70.7548 114.883
84.822 63.3258 48.9338
66.7131 31.0167 72.8214
71.4492 33.3013 53.776
65.7007 78.8076 115.786
100.274 73.8562 102.526
32.5536 84.4119 103.168
82.9837 41.3046 51.1609
80.5166 73.9769 148.306
98.3655 73.3122 58.5871
28.8328 83.3567 84.6382
67.0387 70.4605 119.267
91.0183 122.843 17.858
82.2026 96.7588 82.8357
88.2069 41.2037 44.4569
48.8155 38.6223 50.4451
34.9233 44.1164 73.067
59.3174 51.8099 37.2778
77.6062 78.8149 154.797
97.9399 80.2579 56.7251
71.8437 72.613 33.6378
96.025 66.5255 118.945
69.1876 35.9204 101.937
86.1557 98.0219 68.6283
101.125 52.6086 55.9513
75.5182 96.9006 109.027
70.9313 44.9583 41.9138
93.8972 49.6742 87.9324
75.4897 106.394 79.2468
53.5397 81.9282 37.2957
95.2721 74.6806 50.0618
67.6788 100.671 89.8034
84.9078 79.3991 43.2401
88.8229 43.1014 86.0234
54.4079 73.9331 138.149
66.9538 79.4073 33.4682
58.7219 56.7801 117.632
27.4771 72.136 81.3738
102.156 62.8861 74.2751
75.0209 58.1339 117.549
64.5337 92.9861 114.934
42.9568 92.3394 145.003
82.6239 74.9547 137.568
80.7331 104.93 87.6922
76.3603 35.7727 86.445
65.8183 39.3226 63.5882
101.33 75.4554 82.2219
80.7812 72.4004 120.068
63.0704 25.8098 64.4948
49.385 44.1529 111.425
70.8759 37.7635 47.5948
28.8788 57.4632 82.7268
96.1906 86.1643 74.5089
32.9481 46.4642 80.2444
42.2685 63.6382 43.5195
90.0624 89.179 52.1702
92.0997 92.1558 61.8907
98.565 128.036 23.0003
61.051 37.0507 95.059
48.7772 104.975 58.109
50.2591 71.4092 36.741
75.3155 89.5922 46.6457
99.454 82.9348 82.1949
74.145 113.832 143.38
101.972 108.289 135.258
50.19 106.85 151.092
67.6091 32.1344 84.7048
30.5833 63.6118 96.3971
85.8891 98.9396 92.0476
91.0203 59.5896 46.9784
96.441 59.1559 98.7128
82.2078 122.415 19.2378
87.4326 49.3823 57.6346
95.9791 46.2351 71.8878
47.4204 104.684 141.74
41.8232 44.6415 52.8702
98.3437 54.3521 65.6008
79.2423 88.4045 113.361
54.7271 64.7483 36.044
89.5882 56.1057 39.0223
78.6432 95.3631 157.774
58.0178 92.0412 39.6932
58.3631 106.825 157.679
44.4726 88.7387 50.9675
77.1079 125.383 22.4126
33.4552 53.4472 90.987
58.9642 109.657 63.1967
89.6763 80.8913 47.4169
33.619 93.237 65.3437
27.4004 61.6819 77.9106
45.752 35.7962 98.9006
76.7832 101.617 62.8039
76.0876 129.516 17.8499
39.5765 41.1314 63.7388
93.0525 41.5393 67.4283
93.3926 44.3557 80.1427
81.463 35.0169 81.3432
90.7426 71.9905 120.898
57.5939 91.7274 114.932
95.2952 89.3914 97.0144
36.4855 42.5789 104.705
64.8001 49.0893 40.8529
101.252 62.2656 84.4303
71.0257 102.156 54.2037
77.5892 83.9544 133.525
47.4929 88.5922 146.705
65.6177 110.992 83.9918
66.0872 111.216 70.3223
96.6784 95.5857 62.0429
39.9826 64.0205 112.747
86.5867 35.1813 62.5044
28.8362 82.4695 72.9838
69.2991 89.6918 39.2336
77.2785 37.4632 100.495
38.2381 53.5916 106.862
67.9507 65.0219 33.339
88.0616 48.5606 97.1543
67.7968 73.5656 156.503
76.2223 51.2395 105.897
34.3693 88.2442 83.6391
52.7523 30.0113 66.7774
49.7561 34.2166 77.3818
55.5717 39.9394 106.564
93.1155 71.4888 112.297
47.6209 49.4952 42.4045
66.4823 79.4539 47.8966
88.9796 105.104 143.031
35.8507 85.3597 54.8598
44.0053 40.5246 90.3655
77.8022 106.61 146.576
49.9147 90.4652 111.931
30.5035 85.143 66.9977
100.751 69.9946 77.6106
53.0559 64.3821 118.692
84.1607 35.2826 96.9829
67.9857 99.2395 97.2321
67.1977 71.3236 135.115
43.0767 100.259 144.11
93.4636 100.246 137.335
42.9035 95.5727 94.6093
93.0515 127.765 25.7118
61.2805 95.5556 161.115
87.5175 88.7363 116.596
69.3085 32.2735 59.8384
60.4406 99.2965 52.4161
65.1559 97.7873 106.219
101.654 71.2641 94.253
90.7067 66.5232 41.5034
92.5659 94.5053 71.1893
34.5804 67.9846 125.469
56.619 95.0032 46.7622
101.35 130.088 6.92399
52.1921 101.994 130.711
99.2863 60.6732 47.0765
44.7938 108.325 63.6006
102.287 79.5754 72.4353
60.6025 65.0206 116.89
74.413 76.4526 117.739
37.0475 64.3069 50.2692
44.9086 105.364 69.7535
73.9338 98.2121 52.057
77.66 100.864 94.9829
40.0145 98.0687 59.5542
76.2861 70.1957 47.5622
40.2627 37.5602 72.839
65.3313 97.2318 69.98
75.4525 74.0358 146.473
88.4792 121.058 8.95128
79.3617 54.4023 111.98
66.8102 57.1166 36.2362
85.0975 58.3612 110.621
65.9744 106.119 158.757
60.4995 106.691 91.5432
97.204 85.2444 113.254
96.7505 83.7976 99.0025
77.58 72.2085 130.961
82.0926 101.222 75.8879
78.1864 37.4324 56.8658
86.0924 72.5514 47.3332
99.7773 103.107 139.458
34.4908 90.2015 90.3465
68.222 62.2062 119.081
89.2408 110.594 143.617
47.7596 99.1105 51.5101
32.3365 64.7707 57.511
52.2441 54.1984 116.483
32.2582 53.4722 71.4647
66.5819 34.1402 95.3016
96.6432 89.6266 84.109
79.9469 86.4057 50.0856
51.4194 100.96 73.3564
35.3079 87.8428 74.5569
56.8837 80.7141 130.565
71.1387 49.3576 114.376
54.2623 42.3385 43.0327
88.8279 91.3163 103.438
36.25 95.1412 78.512
85.378 85.2904 59.227
97.5393 126.313 3.74992
52.6302 35.997 102.11
37.2345 93.3113 103.523
85.3554 81.0811 125.652
75.3466 109.334 67.4025
60.2215 96.5699 126.995
45.1759 93.5557 44.8389
62.5301 110.547 75.9463
81.6959 53.8572 40.9793
89.6099 41.3224 57.8903
61.1632 32.2677 85.383
51.2481 101.769 160.432
75.2764 65.9813 119.055
75.3843 83.0124 36.2466
83.9359 78.6144 120.973
41.0868 32.1174 89.5461
84.1147 90.9085 62.3979
46.7823 68.7356 44.8386
99.8886 61.6234 68.9529
41.7182 50.6389 57.5302
46.6181 55.7903 42.7555
29.5664 76.9788 64.3101
30.9566 52.4742 82.8815
50.1035 82.5324 46.4953
63.1153 96.3873 47.4784
85.2057 130.179 22.2623
68.024 107.294 132.754
86.4714 128.625 13.3142
32.2699 71.7376 56.668
40.7631 54.8163 114.489
28.2972 65.8896 70.4957
74.3155 101.608 87.1164
44.1662 78.1192 44.6652
49.6339 78.1869 145.29
55.0225 61.4683 47.503
30.8473 62.604 63.8477
101.205 59.3876 56.4748
91.2989 61.7463 104.329
59.8585 73.2734 33.0676
54.5194 95.5578 53.9482
30.6502 70.2941 99.9305
27.5871 67.3633 89.1087
63.4617 26.7532 55.7053
46.1644 63.9902 115.214
47.6109 80.856 109.384
69.3185 108.4 148.372
38.4027 102.1 64.6782
72.1159 36.1979 68.6772
42.635 51.2661 48.3915
53.783 91.4185 159.519
79.2029 38.3934 44.9345
34.4763 76.9327 56.6315
80.2609 99.6344 100.59
39.2568 89.9451 53.146
52.3707 45.8801 47.2035
89.5854 95.5833 76.273
95.382 106.465 130.882
99.0958 112.343 141.411
71.1805 103.009 103.231
87.9844 54.7185 101.485
44.3297 100.613 76.317
36.7312 68.4354 104.523
58.7099 37.5292 100.752
60.7242 91.2317 106.593
34.8876 55.1728 99.5023
78.2808 34.9241 62.8295
61.8459 102.561 58.056
78.2738 64.4966 47.8289
43.3444 77.4226 52.0316
58.3363 106.221 68.0808
65.9732 113.163 151.296
38.6283 70.7165 52.5369
46.3303 86.7443 153.507
76.2731 96.9617 128.701
50.3926 90.4055 44.3454
97.4353 46.8241 54.9341
76.0989 94.479 60.274
66.669 96.1275 55.1458
28.1589 37.3741 100.607
53.7746 33.9158 88.3051
62.717 72.6656 147.903
36.9309 57.7371 53.814
35.4344 84.0007 96.1001
48.764 91.8575 134.061
34.3606 45.1252 86.3349
56.5115 73.4587 120.922
81.5443 35.4943 68.3366
47.0975 97.4689 99.681
101.066 67.1921 88.8071
55.5793 100.091 100.286
75.8481 65.0873 36.4803
38.1541 97.1169 50.0944
70.6433 37.711 90.5519
34.9434 46.9466 65.7598
59.5677 101.793 94.6087
89.9734 64.2348 111.042
28.8407 70.2064 63.7717
45.4879 46.9391 97.164
51.9799 38.0384 93.6014
44.2052 104.509 54.1056
71.1473 106.695 70.3269
31.9317 81.1048 91.3725
57.833 89.1762 45.631
43.6106 35.3984 84.2411
89.1133 123.254 2.81452
46.1428 100.377 83.2332
94.4678 74.9037 102.88
57.3653 95.7277 120.221
95.6941 87.7283 67.0088
66.7666 85.7549 126.113
92.7932 48.8921 65.0427
80.224 81.7862 43.0914
74.0081 77.5072 131.312
70.4494 42.4589 104.859
78.5624 85.5633 156.495
78.4911 99.7681 70.6702
72.0276 94.4601 48.5826
51.9489 99.5171 60.0767
78.1878 42.821 103.932
33.5572 80.498 61.5061
54.2654 51.154 40.8173
40.9741 33.4138 100.941
95.2241 85.3214 106.826
51.747 75.3249 152.298
50.5414 107.64 136.766
50.5016 99.7777 93.9242
56.6835 104.073 74.6343
41.7855 91.974 116.266
42.8211 84.1532 53.9152
32.0853 36.2361 62.5303
36.3134 76.8197 120.422
74.2337 105.021 130.508
40.1702 88.2788 65.1288
76.022 63.5134 41.4626
48.5051 79.3273 114.017
38.622 40.0037 81.2813
33.6982 85.983 61.4844
94.2256 66.2106 106.385
30.5563 76.4861 98.4717
76.5033 80.6919 150.369
65.986 92.0537 45.7978
42.7817 75.2553 108.186
90.7234 70.6906 106.196
60.5413 82.5913 162.147
70.1118 59.3621 46.7265
55.7076 79.4659 41.1825
53.8864 82.0664 157.886
34.4266 82.0449 114.685
77.0691 130.194 1.18857
37.0663 93.9788 134.623
67.1574 64.6508 50.1058
61.889 69.3082 149.168
