ply
format ascii 1.0
comment Created by Open3D
element vertex 101
property double x
property double y
property double z
end_header
26.7257 90.7791 77.0102
33.1442 95.7949 77.4615
28.0763 101.183 62.815
31.9618 103.492 72.2584
38.639 95.2893 55.3728
55.0577 58.8029 48.251
53.4687 92.7312 81.7358
35.4304 101.832 58.2542
27.3955 64.3496 78.8398
30.7561 89.0755 86.9234
31.8461 75.9977 55.892
27.6104 82.4283 59.0878
52.9567 103.725 83.9356
63.4977 64.3201 61.4169
49.4033 95.3803 65.7017
29.4447 57.6752 51.2144
19.9299 56.3907 73.9316
52.97 102.852 69.105
44.9458 47.3296 65.2421
44.6401 54.9713 46.1808
38.6108 86.4411 81.8075
57.4772 55.0719 72.5867
29.6076 76.9104 79.8369
19.1066 66.5247 72.2222
43.8317 100.511 67.2445
27.2361 70.4905 82.6468
44.1875 54.9737 82.8369
38.1312 98.7107 69.7104
23.6153 63.09 52.7242
36.9884 97.7158 90.0767
44.2916 90.2552 69.8437
63.7804 66.1085 76.5803
29.6669 83.472 84.2278
45.9946 88.1631 85.3564
47.2289 78.1169 54.0548
37.2353 71.5332 46.8711
56.4771 93.7525 60.6608
19.0807 64.8178 60.1912
24.7912 65.0206 61.3525
38.4694 90.8368 86.6194
30.4005 51.0045 70.1556
28.1335 66.4517 89.3431
61.8192 65.1559 49.8707
48.2257 49.0761 76.5629
21.6992 56.8661 62.1373
62.7471 87.9479 79.7438
43.0242 78.0096 85.57
47.8311 104.533 60.8432
53.8808 67.2318 44.9844
37.5546 53.9396 80.2944
46.0805 93.37 58.2229
24.0138 83.0771 76.0674
57.5542 98.454 75.0971
19.0228 61.4898 77.1769
28.5087 70.4964 75.4131
46.5977 72.9229 85.5942
61.5054 93.51 81.2028
58.7217 93.7702 67.3052
44.0629 92.5813 89.2403
34.0192 62.6626 82.8045
62.4322 82.6795 75.4429
35.3754 50.8497 62.4242
45.9383 108.299 66.0188
64.1067 99.4452 71.3676
20.9272 60.7214 68.5349
52.2271 70.3669 82.1203
59.2997 58.6342 80.3716
50.6991 80.4533 81.8481
39.2447 77.2676 53.9421
54.7126 77.2847 57.6067
60.2039 100.561 80.5961
59.326 67.8875 53.3305
64.0044 59.9606 67.8174
26.1043 75.3517 85.9012
36.3527 57.5269 46.3054
58.2587 58.187 64.4172
25.1596 89.0028 65.3212
36.0064 52.4171 53.9453
54.6766 52.3285 62.4978
34.8286 73.602 87.3834
26.9361 61.2887 72.9647
35.32 81.4613 91.0771
57.4986 72.8615 49.6018
24.6054 94.9846 64.0957
68.5893 86.7711 79.0626
19.1074 92.2363 71.4073
34.3611 81.1838 66.9936
59.5531 82.5412 81.7966
55.554 61.5602 83.9852
56.6985 76.6916 80.1662
40.1232 64.6159 87.1999
65.3106 78.4423 59.3046
22.5961 96.9393 68.7124
37.7255 79.1935 79.5297
26.1999 53.3762 62.6144
38.8606 86.6182 75.2076
52.9948 85.6575 82.6736
19.9863 92.8259 60.3087
62.105 94.0353 73.8558
19.9251 69.5272 60.7696
16.0872 91.1126 66.7261
