ply
format ascii 1.0
comment Created by Open3D
element vertex 1025
property double x
property double y
property double z
end_header
40.6 360.241 121.579
27.6867 321.376 116.402
58.7669 246.064 69.5496
71.2019 333.324 133.321
87.5252 83.2247 119.247
58.3861 118.629 100.777
42.7791 268.237 122.608
29.1147 69.0194 115.825
35.2306 255.52 90.5397
49.2022 154.872 46.5268
61.0186 124.242 110.88
32.5202 143.017 51.4698
65.5034 48.6846 86.3483
75.3007 224.432 99.1948
36.5754 261.923 111.52
85.2727 92.5835 189.172
29.152 255.89 112.977
62.7768 371.545 111.067
60.6463 46.185 95.216
70.7286 37.8789 142.883
34.0912 337.153 147.733
29.4124 87.8155 125.922
65.5272 132.793 31.8776
30.3286 115.998 43.7358
70.536 283.246 108.141
32.8637 244.549 89.3848
55.783 260.158 74.4959
65.8571 232.848 91.2523
68.8673 313.318 103.087
53.5214 138.277 155.722
83.798 229.584 80.1329
96.5431 87.9915 80.4491
26.7201 84.7939 143.069
56.1431 297.068 98.8196
28.2397 64.3857 122.646
96.5842 115.822 154.572
44.2604 97.7869 79.5934
39.3903 54.8696 102.372
68.6585 282.198 132.627
26.5475 238.156 122.322
72.5691 155.708 146.718
65.1378 302.27 128.292
43.7807 151.783 62.7788
52.6637 126.169 28.9523
34.6387 259.968 123.086
47.6076 147.988 73.1354
40.2149 68.0593 81.0336
61.3946 361.406 96.6996
109.216 221.531 134.186
33.8658 229.985 127.909
39.1813 76.172 78.066
41.6229 150.939 49.9786
58.6591 155.874 45.7808
53.2788 114.877 107.595
67.2676 304.152 114.04
36.5991 113.335 142.919
28.8034 250.511 99.475
97.3499 125.704 157.07
81.6776 157.647 97.3303
52.694 344.791 84.8014
83.9312 155.703 85.8125
41.4157 50.9575 112.801
78.6516 85.9243 158.288
104.598 68.4698 125.594
56.6543 158.562 56.3415
43.6499 332.268 86.2322
25.5808 245.608 109.992
57.0583 104.816 66.6402
71.9167 321.732 103.901
31.7888 132.586 69.2798
28.1694 248.863 124.622
31.1533 92.124 118.733
45.7721 299.046 146.575
64.1985 155.811 59.6776
48.5478 130.088 152.058
96.9187 249.083 151.358
45.5545 370.358 121.819
58.9246 236.663 82.1098
59.8225 277.589 136.758
101.81 266.219 88.8373
28.6653 122.048 55.9434
111.349 53.1417 145.039
37.9269 295.292 133.801
42.0469 147.637 40.276
86.958 75.3336 35.9316
39.8517 89.8783 97.526
80.3916 277.462 90.7767
65.5159 105.65 61.4003
73.1466 148.902 106.696
80.127 280.315 161.015
39.2676 85.0068 77.999
94.0264 128.273 172.978
46.8452 106.577 93.0043
88.0329 46.629 172.495
62.0049 133.04 120.301
55.2265 123.772 119.697
107.035 51.6195 158.086
61.3958 141.506 158.561
91.7483 160.246 87.7084
111.633 62.6258 98.4257
43.9742 230.067 115.696
39.0735 343.098 93.7114
32.7712 101.6 151.594
30.1257 93.1748 146.191
51.2172 113.25 95.2864
57.1747 150.597 71.4095
51.817 231.624 108.629
27.5802 325.894 105.293
57.1903 68.207 63.7358
74.6124 226.936 86.1813
95.8013 157.953 76.0555
101.366 152.886 144.636
30.1275 136.39 40.8166
40.7194 101.838 106.779
72.5807 153.706 54.1935
92.8647 120.445 169.6
98.5667 87.8124 175.249
28.7542 91.5319 153.358
71.4317 114.643 38.9117
100.217 61.9186 172.928
92.5523 79.4086 127.444
27.5816 76.7478 118.105
34.9206 100.985 117.495
61.8728 149.222 37.2491
53.0142 155.474 63.9449
67.9757 37.695 131.943
32.8008 83.3794 99.3507
41.1158 121.352 148.082
38.6552 348.007 134.59
70.2571 151.726 44.8464
101.021 163.361 122.093
27.8592 311.723 143.96
112.951 37.6233 77.4179
101.554 216.787 104.552
39.9803 52.0479 128.442
77.1856 142.491 46.4567
85.0098 162.385 111.352
53.8098 356.859 90.8635
43.2441 111.885 68.1679
69.2045 363.008 137.198
73.9222 322.785 115.157
39.5922 107.724 59.5844
99.7033 141.187 157.904
52.5776 295.769 135.17
48.9299 106.729 81.2794
102.713 258.488 122.99
91.2021 80.9178 136.276
62.8497 123.233 94.7288
54.7764 43.2109 114.244
33.0807 97.5333 128.37
104.975 257.989 86.2401
47.158 63.022 78.4084
101.671 126.186 149.532
114.67 33.6574 110.62
52.6008 314.539 92.2252
69.7783 78.906 47.3606
42.1377 95.0514 86.4897
84.2238 88.4309 111.556
46.8411 110.155 104.291
94.1971 153.878 153.747
79.2136 157.036 118.335
25.7446 313.238 121.937
82.873 241.795 68.4527
40.9289 73.8472 166.538
93.5127 86.93 147.445
101.322 212.931 137.165
40.9584 97.509 94.0519
88.8614 48.8385 56.8833
77.7191 36.9466 149.326
108.003 155.999 92.0445
31.1885 67.2842 145.161
94.911 143.169 164.368
55.927 293.182 124.709
41.7696 131.757 30.6708
58.8825 143.756 149.443
49.0758 120.641 126.184
35.3 260.375 101.388
43.3031 104.249 48.9887
51.9571 117.443 70.276
63.4759 131.225 111.606
66.8082 139.45 112.869
99.8591 160.979 85.144
71.842 36.3275 92.2197
61.5778 320.61 157.352
86.9101 34.0316 79.4959
66.1713 336.927 155.376
33.2474 109.067 51.2623
87.0435 94.3415 32.7993
92.7311 102.371 183.399
96.8286 162.552 132.836
114.02 223.745 119.59
96.4933 88.0138 31.5062
56.3259 302.328 105.677
27.9878 67.6632 130.763
67.3683 56.1998 69.2869
83.2259 69.8988 41.1404
33.1244 61.4981 109.848
106.488 155.364 81.5745
54.837 58.1804 77.5236
46.5874 137.855 75.386
72.0447 49.6366 69.8913
47.617 61.8719 159.207
116.348 228.247 110.184
60.6519 60.0791 71.7561
47.2931 114.268 176.997
114.086 238.72 120.641
27.746 127.764 42.695
72.8305 222.526 112.446
41.5384 363.549 106.785
37.7881 107.148 129.727
37.0307 89.3113 88.8376
33.2773 303.061 148.404
105.941 249.603 83.8397
107.809 228.398 90.9823
95.5769 76.5636 183.31
78.6171 155.848 107.226
38.7632 122.872 69.1711
80.4686 48.2164 65.24
94.967 40.4837 64.1112
64.1575 130.362 73.6722
110.359 149.469 101.948
43.4137 103.988 100.074
36.5813 96.1058 101.953
114.612 64.3073 61.8346
64.7022 38.9868 123.816
71.2323 344.426 139.352
94.8293 107.348 150.697
31.5517 301.242 137.997
52.2406 69.5363 173.719
76.0529 56.1699 178.925
29.915 63.8422 138.167
71.3833 277.413 97.177
57.3516 137.344 135.723
65.7249 129.935 91.7767
95.8439 112.407 145.8
84.4145 99.11 125.052
76.5405 47.0001 75.294
79.2963 65.3596 47.3471
39.0043 140.495 72.942
113.027 71.7325 61.7658
53.2834 147.634 34.1687
62.1879 127.717 102.742
35.336 99.0918 161.409
60.4623 80.1242 183.958
49.2425 157.762 55.152
35.4964 338.604 104.517
72.9889 112.435 57.3874
98.4331 120.106 130.996
46.0529 357.835 92.7025
61.9506 232.585 104.518
62.5671 37.2844 109.721
105.674 136.968 137.983
70.8698 33.8023 104.397
69.5784 71.1069 51.7265
66.1117 134.703 99.854
114.913 34.5109 119.098
50.5245 66.2503 70.0602
76.3192 72.7164 45.1935
110.251 148.376 86.8473
70.0279 85.8954 190.073
64.2283 142.903 167.507
46.2386 49.3578 103.389
102.39 68.4261 96.7506
35.1049 142.814 40.3928
96.4238 22.152 109.649
71.9954 136.512 89.6983
34.6117 108.868 155.74
87.7263 155.857 79.0143
58.2808 106.723 51.8589
31.2142 101.268 144.19
84.5709 26.5457 131.818
49.5373 130.235 144.802
63.1152 145.47 138.333
47.8991 94.3583 68.2237
89.9037 63.0213 42.5242
73.037 65.3282 56.4127
64.6396 93.0137 46.1157
69.3563 34.6534 113.111
104.156 240.339 146.996
48.8435 56.9156 150.434
55.5609 108.903 74.1119
69.7823 153.686 154.546
107.028 159.186 112.298
47.812 124.861 139.652
102.863 88.244 64.9781
47.9448 50.1992 139.396
70.2224 74.1468 186.875
39.0541 106.095 121.7
85.2082 101.095 189.507
57.3501 41.4138 121.484
100.571 71.8855 103.425
87.5563 284.121 109.998
96.8059 93.3613 160.137
108.158 39.6939 69.2816
89.9125 124.657 179.449
79.8888 45.8998 171.429
32.3472 81.9359 160.149
36.4528 66.5918 154.514
47.6993 141.101 32.2446
110.247 146.512 121.295
32.74 69.6175 96.8823
44.4425 106.511 113.418
71.317 33.8608 124.857
95.2051 93.6778 152.662
28.5306 89.268 137.122
34.2155 58.5978 134.976
98.5399 94.7022 167.48
32.5898 307.708 105.138
97.5585 24.144 96.7559
66.7555 235.534 79.4906
74.9517 54.5011 62.1447
59.2475 123.054 180.822
65.8542 150.376 147.267
35.3234 135.685 33.7215
39.523 260.642 138.621
101.368 133.42 156.239
90.6212 101.588 113.687
40.6423 308.955 97.4455
96.8463 133.293 165.674
76.7721 148.316 96.0433
30.3693 85.4472 114.331
47.1452 118.917 170.459
102.738 132.59 142.507
54.689 74.9943 179.24
83.604 129.065 182.243
102.918 211.566 128.234
110.783 242.783 131.757
35.6652 332.174 158.152
74.5273 232.963 78.3685
90.8155 218.14 99.5044
97.9745 274.666 90.239
77.3284 93.0394 39.029
82.2702 58.7709 50.9964
85.4126 281.786 95.9961
46.9133 349.481 87.8831
45.2671 292.5 140.473
35.2561 231.923 108.725
43.7475 116.69 133.821
35.5674 74.3678 89.9034
88.9246 163.678 135.047
42.1095 119.474 140.602
68.3915 150.504 162.197
34.3968 61.9928 100.51
111.785 225.977 101.084
78.961 27.6946 118.435
31.6459 310.97 155.302
51.5343 131.469 161.169
45.4326 111.894 124.412
79.7514 161.395 130.552
51.1674 83.5512 58.9735
38.1118 90.0733 107.848
78.2279 79.9792 41.1692
60.223 41.4896 103.876
106.019 85.8911 34.2889
80.0095 158.242 151.549
37.9965 310.348 159.639
63.885 143.053 127.552
112.202 71.9308 50.1842
51.1042 269.576 144.113
70.7191 51.7729 172.277
34.8134 72.9143 158.219
58.6693 122.454 69.1759
52.6797 97.252 184.706
49.327 102.162 72.9863
113.443 235.391 128.984
28.4244 79.4049 150.144
34.1906 55.9744 116.97
67.6497 351.654 103.135
92.1773 83.2309 91.8661
98.6661 71.8951 174.588
61.0036 116.164 85.3806
38.1743 351.359 113.297
96.91 29.7501 147.454
27.4083 236.368 110.621
82.8486 35.1133 157.066
109.51 63.5028 117.805
102.792 24.9975 124.904
115.2 241.314 100.878
47.7354 58.6273 85.8121
95.3368 23.11 125.949
97.1883 74.2609 121.268
32.9645 55.364 127.663
76.3517 126.888 58.7347
92.9512 26.0951 139.262
66.014 53.0422 77.9775
67.0753 138.465 106.2
44.3767 124.972 152.334
92.4867 115.311 132.15
58.6845 139.719 30.7912
64.584 104.25 188.731
42.4651 240.402 81.0434
56.8422 105.277 186.123
113.843 237.954 112.734
110.525 28.0385 107.556
81.9061 30.7595 146.006
45.4548 86.8927 177.309
47.8996 123.629 74.5634
43.096 254.343 79.2219
113.488 60.6699 90.1152
64.8323 323.063 146.814
105.954 238.26 83.5685
68.744 152.444 139.601
81.3696 79.2061 171.737
47.9654 276.503 129.439
84.1106 25.2016 124.036
92.7327 279.485 93.5504
46.2219 99.8385 55.087
31.0639 322.608 95.706
70.5747 130.371 182.784
114.807 56.7666 117.682
65.6033 363.75 104.909
54.0858 88.8863 185.111
67.4495 149.357 132.015
95.8098 33.233 73.3543
118.295 37.9089 102.828
54.5442 117.697 28.6706
95.0511 84.9157 164.385
52.8906 336.75 165.567
65.0808 123.051 29.7614
64.9633 56.5343 173.187
37.0698 101.206 169.566
49.2569 235.16 89.5266
111.243 109.764 37.2875
111.238 152.639 112.474
92.6246 114.197 175.186
90.9717 95.6734 100.877
51.0025 92.2681 59.9009
101.94 128.943 135.424
41.7753 101.829 175.404
54.1263 127.039 130.116
69.5586 338.546 145.439
90.4276 90.5172 139.108
57.1473 351.818 156.272
74.5765 151.872 115.389
32.3436 141.545 62.2488
88.2202 40.0077 165.576
70.4346 359.546 126.545
97.0512 98.6954 174.063
108.232 151.702 126.439
78.7006 286.833 117.739
99.1685 74.7781 90.8903
96.3154 50.4781 53.0592
63.5362 114.884 33.9157
64.7627 349.429 94.613
103.224 124.679 115.649
40.8188 53.3877 136.484
40.3959 321.342 90.738
96.5353 117.728 121.926
43.2718 314.988 164.766
87.7173 88.3271 100.761
66.892 140.094 75.9367
50.3428 298.698 111.274
91.343 300.357 157.51
31.0312 125.268 33.3649
79.5157 217.167 150.443
51.1867 114.843 120.536
88.9897 113.315 183.459
60.8355 63.019 65.7964
103.021 25.024 109.569
55.7993 74.806 60.2233
58.1726 61.4329 171.527
98.6691 29.4266 80.7573
86.8925 148.178 167.481
71.5823 120.154 189.55
98.6515 258.816 77.3868
34.1193 251.995 135.978
72.9825 141.627 100.894
105.39 25.0399 100.363
36.7173 65.6456 87.5642
107.74 232.594 142.36
88.3449 85.3222 189.634
36.3736 59.6409 93.7404
98.792 116.812 114.625
80.7301 86.515 37.1027
53.8153 313.758 127.962
81.6494 115.568 47.99
34.835 86.3609 166.325
101.895 274.377 102.111
64.1156 63.0852 178.348
55.4585 366.054 147.441
113.873 247.831 116.895
65.5488 124.323 185.392
56.3734 48.5855 141.166
84.9704 95.667 117.053
41.4455 105.999 39.6345
88.6669 164.258 118.706
36.7594 349.777 142.546
46.4648 294.006 126.622
71.9365 64.7696 183.616
74.1051 132.223 35.4129
75.8785 159.724 138.741
58.4103 280.129 120.216
98.4382 34.6102 154.609
70.8337 86.6248 44.1733
85.9323 42.0025 66.4333
81.347 40.4757 73.3888
85.3672 217.334 113.76
70.9067 350.195 145.689
94.2048 78.0326 98.1148
107.803 135.901 112.717
72.774 41.3683 81.932
73.5276 49.0781 166.252
110.346 87.4808 59.084
104.86 96.0555 68.3607
37.1794 147.568 61.0565
115.935 37.2352 127.379
116.564 235.728 105.561
31.6007 95.637 157.379
93.9928 111.27 119.311
102.882 132.559 104.563
72.6462 132.011 77.6683
84.9091 162.029 124.58
86.5299 136.962 176.633
44.0443 78.7396 70.9257
54.9405 226.1 120.198
49.4636 45.204 125.073
44.075 111.477 171.215
77.0572 30.5557 135.067
84.5121 25.3642 105.509
95.2704 148.962 159.334
41.1914 129.359 73.4671
98.8194 102.95 157.08
68.3471 285.248 119.959
75.2213 297.549 140.677
97.4539 119.326 145.086
67.3898 255.382 66.4837
44.0477 54.8365 143.547
77.6048 28.6385 125.934
84.7746 27.3117 138.88
61.554 136.531 128.744
58.324 130.316 125.841
62.4275 272.907 106.899
100.466 72.392 161.877
98.9886 123.584 140.221
99.9616 96.5966 78.0302
39.5283 302.49 154.34
101.659 118.351 108.422
110.381 143.92 112.187
83.2795 161.345 142.646
59.2988 56.5122 84.0039
76.8328 104.284 192.234
50.2633 372.804 111.623
43.1901 337.35 163.924
44.2534 116.362 162.064
96.8713 98.2868 87.0533
83.3824 52.1967 178.817
50.4387 99.5642 60.7372
36.5062 106.196 162.98
35.5683 332.043 94.4184
74.2697 144.344 87.9503
73.065 135.08 69.9601
69.3487 137.686 178.238
89.1958 23.0817 117.563
63.1966 132.282 177.906
90.4531 282.588 118.077
65.1681 351.843 149.392
51.7821 44.6645 105.781
94.0112 76.1521 106.773
91.219 138.317 170.506
54.8734 52.4351 88.2302
49.2272 64.8901 168.229
50.8468 56.2523 157.205
48.3104 303.723 158.595
101.68 79.7647 77.3109
37.0089 59.9435 143.391
71.2156 93.4603 42.1396
64.9201 318.188 138.125
69.6605 146.908 113.735
35.3426 72.3 149.521
76.54 29.9316 96.9479
103.628 155.749 135.514
75.7803 159.492 126.17
48.0649 111.443 113.995
101.05 96.8312 32.3837
106.173 61.4076 160.205
77.0136 41.7518 163.565
96.3355 80.5732 84.6473
82.3177 259.636 68.7852
77.4866 29.529 105.047
41.978 221.847 132.141
54.6978 270.946 112.871
87.4016 154.261 69.5399
53.7733 136.38 144.434
59.1102 68.6725 179.25
34.8331 96.4936 111.421
70.3005 96.7213 191.709
100.877 147.672 151.284
76.6159 143.589 66.7151
47.3036 310.159 162.755
102.098 23.2393 117.36
53.4758 46.651 135.165
61.8248 86.6075 188.604
113.464 30.0291 98.9957
58.3933 141.876 142.135
83.2303 99.2035 36.9359
114.078 53.9938 60.4379
101.925 31.8718 135.162
113.923 41.0438 134.341
62.9663 317.059 94.208
88.3704 105.293 120.899
104.549 70.912 85.27
49.1059 233.756 98.0428
43.1334 121.72 158.217
89.8369 97.0135 108.358
117.876 51.5748 88.7063
58.0763 230.589 148.851
100.381 113.312 85.1867
53.8734 118.399 114.436
100.964 163.715 106.754
75.8574 124.892 66.4861
78.5197 129.86 46.2006
60.8733 94.8576 188.308
62.3861 343.945 89.2367
64.6052 147.982 71.9197
117.297 47.9431 127.493
109.377 74.6275 69.9068
109.666 79.926 63.3385
39.3379 93.0112 171.889
84.0878 78.0229 190.78
113.545 85.407 46.8918
102.732 64.5704 164.988
118.681 46.7469 97.0402
98.7575 77.0526 168.654
30.5772 238.179 134.899
94.6453 59.8545 73.5009
41.6635 108.91 166.573
106.746 158.302 123.934
89.8204 108.651 127.66
75.8658 306.658 147.534
43.4249 89.8584 73.8716
54.0701 116.349 182.214
71.0517 145.086 172.171
87.9829 283.859 101.639
41.2934 83.3924 172.865
93.7371 98.5047 148.006
102.754 134.684 119.713
111.921 78.4237 54.1541
116.374 34.4747 90.0413
41.7352 49.5899 121.271
58.1502 92.3957 53.1377
88.8591 287.967 152.603
79.5149 152.268 90.0127
88.1007 235.621 74.0981
103.627 75.8333 35.9869
98.822 104.933 32.4957
102.195 54.3041 168.276
70.576 118.169 70.996
97.2195 108.248 96.2367
80.1088 147.933 74.9228
76.2505 152.123 152.964
97.8439 222.057 151.158
47.6409 45.9695 115.98
101.743 65.8394 40.1512
75.7562 125.249 38.6181
61.1698 113.315 185.375
57.1671 51.9954 150.181
56.689 266.418 153.14
68.1393 228.831 105.278
105.764 63.8634 152.435
109.498 38.2072 142.347
32.3055 120.006 64.2365
108.245 139.123 98.8982
84.8683 154.779 158.432
90.1976 24.2192 98.7278
25.6363 78.1049 134.306
60.2903 106.702 35.6051
57.2017 82.5664 53.3245
45.8809 125.556 163.531
116.939 57.715 65.814
44.672 94.4816 177.608
89.3536 30.6112 149.299
44.1954 67.8962 164.447
100.205 105.243 86.2455
55.0763 112.492 85.0529
56.6841 304.187 152.488
47.6647 104.533 64.8939
63.1587 122.731 83.9352
64.765 71.5971 183.704
34.0238 235.36 95.7054
49.0757 250.649 147.973
57.5622 140.075 77.2836
117.6 46.3765 78.0346
41.0095 356.996 98.4111
98.4697 80.4633 33.1855
116.195 51.9224 133.357
48.4869 245.72 73.883
76.5311 93.2877 163.451
88.7242 85.8533 33.3058
56.7726 310.961 158.102
90.3445 54.9713 49.0376
115.985 56.3688 102.287
88.4576 163.651 104.033
73.5898 119.915 46.9942
74.6638 243.157 159.437
74.4436 141.915 38.9202
65.1739 289.549 146.209
75.1358 152.6 162.13
111.94 246.618 122.831
93.6737 240.928 73.1799
38.1741 111.006 135.789
78.1446 149.321 59.2992
59.2719 46.0831 147.01
83.8782 262.178 148.959
110.79 31.4273 84.4862
68.4476 47.1181 162.095
44.7117 263.578 93.2993
56.3772 256.198 153.208
117.295 55.0667 81.8393
60.1889 42.3289 134.58
96.6208 251.242 73.0617
110.777 142.472 92.5136
109.972 128.752 77.5005
82.0286 52.0189 56.989
39.5617 327.184 162.507
61.1151 359.236 151.673
91.4142 266.156 75.2835
55.8258 334.578 85.282
48.6239 225.285 124.053
98.6051 125.588 164.367
99.1343 79.7777 160.643
32.2929 99.4369 137.45
70.9315 152.93 126.872
39.1451 116.555 151.522
116.107 59.5083 108.728
114.458 57.0092 126.013
86.2275 242.025 158.545
58.125 100.239 60.538
109.113 71.4729 75.9618
43.1894 56.3572 90.972
62.2048 97.8665 52.7712
102.07 121.912 122.421
53.1081 82.9173 180.753
53.2627 59.9072 164.87
57.2939 51.2812 156.121
61.9729 294.473 154.002
53.2974 99.4885 51.4853
36.3589 79.1554 166.606
56.4078 137.467 164.049
107.306 137.614 125.464
98.5213 25.7071 132.554
105.439 84.8015 72.5897
110.801 28.0858 124.474
59.2608 136.376 171.641
115.467 45.8226 70.917
115.015 63.7229 78.813
105.871 120.689 83.8257
83.7927 292.437 168.656
87.215 99.7414 135.878
114.276 90.6681 51.5532
91.2772 103.302 100.629
117.817 49.8152 120.137
80.7431 272.239 78.4864
102.947 47.3183 164.951
78.8864 144.627 174.038
81.9826 38.8942 80.2446
70.9888 101.299 41.0027
110.017 219.971 107.766
94.8441 284.291 105.284
110.358 138.63 83.4379
98.21 154.959 68.4567
69.6714 81.6727 158.815
110.337 64.2678 109.815
95.247 50.1922 174.729
108.956 61.3101 141.922
116.534 43.9806 115.483
83.9057 254.93 158.619
91.2056 164.617 96.6529
101.975 70.5646 154.583
103.634 105.472 77.4448
67.5141 108.227 43.6917
67.2525 124.593 78.9285
84.1921 27.7971 97.3963
105.581 128.916 110.915
92.092 112.004 139.952
107.132 149.996 73.2009
119.122 42.5793 86.2408
50.2844 369.212 100.917
69.6456 251.661 159.652
80.4838 150.583 165.755
96.2659 158.378 145.685
110.682 45.9436 62.6972
97.6318 58.0514 44.9351
102.96 141.423 150.427
41.8242 80.1128 83.8054
94.3194 238.913 155.406
101.554 269.061 115.944
105.012 41.5724 148.417
80.4087 29.5722 88.5402
97.1179 212.792 114.621
59.9139 103.1 41.8132
56.3455 43.4324 128.454
73.1258 350.501 139.129
101.463 27.3108 87.3537
34.6673 111.009 37.8859
49.7739 122.88 133.27
49.8595 107.877 181.701
28.2198 73.1824 146.851
102.219 125.655 129.01
77.4258 214.849 124.384
113.048 63.0412 53.7103
66.4607 221.869 117.719
118.607 49.5794 111.016
97.514 75.3656 131.686
107.306 129.557 123.92
95.7093 107.138 170.386
53.9585 307.102 98.4847
104.085 125.448 103.559
88.8629 211.616 122.364
96.8656 68.3787 179.967
90.9107 24.0379 107.785
109.287 111.026 67.5348
112.898 91.9876 39.1846
94.6728 71.5797 36.4268
109.392 68.7616 42.8349
69.8462 109.161 190.52
46.2393 48.0201 131.755
108.87 61.7388 125.455
34.5786 109.4 148.588
102.769 68.9194 147.54
107.064 66.2812 134.167
84.2347 23.6577 112.035
50.5477 109.595 33.004
30.2338 74.1414 105.628
96.337 86.466 155.418
93.164 105.257 158.316
108.113 27.6864 116.782
41.8598 367.2 114.148
91.4769 93.6361 93.5506
89.3321 36.0575 70.8948
93.9506 213.768 146.193
117.847 38.9807 95.1971
90.1768 33.8643 157.367
69.0864 104.58 50.2696
48.3559 79.5201 176.279
64.0876 55.0436 162.146
35.0044 92.6412 164.862
114.992 98.3578 46.3095
81.9461 137.374 59.7445
67.1054 329.709 97.9367
95.721 275.278 120.71
79.041 136.695 180.391
67.374 286.246 169.091
101.884 162.397 95.7521
109.079 57.415 50.6781
76.7773 112.313 191.218
40.4877 60.448 149.159
45.5275 72.8565 172.891
109.503 32.3576 137.573
61.3954 75.2674 54.5132
66.4981 44.636 153.277
68.3423 264.734 155.781
36.3313 299.287 120.793
115.053 54.2438 95.6156
59.6783 340.644 162.118
88.8286 60.0925 182.638
74.9996 79.7909 191.592
76.4628 139.612 76.7568
65.77 364.919 145.145
89.6076 269.419 130.883
91.8142 114.199 167.716
31.2515 326.058 153.532
95.4911 90.8223 87.788
30.5417 84.833 154.686
110.624 78.7712 40.9548
64.7813 271.806 151.066
98.1284 279.997 112.134
39.8323 80.67 92.1133
83.7006 126.239 52.5781
65.4256 66.5434 57.4574
78.0891 76.2316 158.524
54.6967 131.712 76.9328
75.5326 28.9719 112.467
103.974 123.846 97.1889
88.9047 159.148 149.859
55.2429 317.961 164.706
38.6295 320.757 165.315
105.892 213.576 118.164
96.823 42.515 166.617
49.0577 78.0385 64.6418
93.2553 84.6285 184.168
94.3 165.846 109.492
91.0839 275.373 82.3699
64.6774 81.7455 52.0249
78.7857 124.805 187.342
103.768 141.304 144.071
60.6873 300.089 143.534
91.3215 28.2149 88.8031
30.6269 66.6111 103.548
71.5631 298.893 171.489
102.966 71.8274 135.034
108.25 59.7363 134.641
47.6398 330.613 167.667
62.8568 48.9359 159.69
42.3176 64.5115 157.655
42.829 327.568 120.669
28.8287 306.59 112.26
106.263 48.5745 55.5106
101.037 72.258 114.249
71.2138 149.5 68.0063
102.221 39.9912 65.3302
105.232 66.9407 142.101
72.8977 264.216 70.1793
61.8518 298.161 117.072
47.7406 348.023 159.052
101.232 86.0533 167.437
103.19 27.5172 140.213
47.9255 51.9582 95.5177
54.2449 127.728 174.657
98.7396 79.0483 176.091
117.746 40.4579 121.34
111.805 252.883 98.6464
69.0334 59.7029 60.2321
87.0104 117.53 41.9391
83.9401 114.764 188.624
51.6475 128.367 168.354
107.563 44.8339 154.205
85.7393 226.166 153.426
94.546 105.598 106.616
99.043 45.1489 57.7313
106.534 145.713 135.657
102.091 121.09 91.2204
120.249 49.0936 104.164
68.0289 227.224 150.952
110.886 98.3447 35.2487
104.689 254.347 129.256
74.3414 209.853 131.71
76.9695 266.536 150.629
92.2375 29.3383 80.5734
70.2136 313.851 125.894
115.9 59.4959 72.2805
94.3437 102.657 92.148
106.753 115.648 77.9724
35.4967 105.811 139.62
97.5346 79.7071 153.018
111.847 46.0919 146.811
111.696 100.948 63.7596
80.0953 141.515 52.9214
38.3965 343.457 156.367
60.7783 277.044 113.095
98.3698 117.52 101.996
39.2633 115.825 30.6461
114.035 241.422 93.3065
85.6099 65.7723 186.552
107.992 57.8992 150.592
104.019 34.7793 149.15
104.577 69.3089 107.664
60.9264 328.349 162.329
51.5353 324.087 86.1478
83.3245 133.9 50.6948
114.229 125.101 50.5493
80.156 87.8734 193.332
70.3899 147.959 121.675
110.039 32.462 130.175
37.7126 123.952 27.8824
98.2525 75.3072 142.032
48.1401 321.969 167.832
94.2529 79.0128 145.095
98.2095 114.606 34.8819
89.7518 23.6049 125.873
102.617 40.9803 158.274
114.664 45.1056 140.025
79.9984 284.163 146.169
103.455 54.448 48.4518
69.001 133.214 83.4226
94.7601 166.028 119.76
86.6658 250.291 68.0115
107.339 26.6279 92.2436
114.201 57.1663 135.74
99.1285 255.359 134.168
62.5012 148.071 158.715
87.4846 222.258 86.6766
48.6022 100.557 178.626
97.9549 150.303 57.8906
79.1256 69.4242 188.475
89.7161 126.525 45.2756
77.8399 144.656 82.2272
88.1299 141.47 143.59
87.2822 143.108 54.6236
86.6027 306.815 159.867
66.1472 243.833 157.898
91.8859 69.0836 185.271
104.61 31.8307 75.8091
71.6919 244.932 66.1867
86.4194 148.977 63.3842
110.76 67.0359 85.585
101.974 113.997 97.3253
96.3111 56.9976 177.916
76.0153 237.821 70.8966
115.569 125.92 58.4833
50.9041 51.4407 146.846
108.036 129.432 41.934
49.3539 100.888 41.4196
80.6359 305.734 165.46
97.5152 124.363 38.3703
89.9584 135.045 51.1238
78.877 105.271 38.6317
98.1488 64.2946 69.2675
112.466 95.712 58.1431
85.8806 105.528 33.8799
103.839 229.051 149.872
72.22 95.3115 171.238
104.228 136.772 45.7307
82.5404 142.774 65.7194
105.953 121.182 38.7207
99.0994 102.711 163.849
60.7372 246.032 156.821
32.255 77.9204 92.3308
111.766 144.306 65.0794
54.2573 278.713 123.37
62.8597 284.709 116.703
85.7514 305.343 146.395
95.2274 111.438 110.505
104.967 150.489 65.0356
97.4769 220.511 90.7516
111.08 137.558 51.5301
82.9846 269.983 133.521
83.0061 291.536 143.28
104.434 145.899 53.9711
99.2951 139.904 48.9163
96.519 132.694 42.7117
56.8551 338.564 142.758
63.9065 231.554 149.538
95.52 54.9763 74.6676
93.7063 144.665 55.1256
34.2685 324.957 160.448
