ply
format ascii 1.0
comment Created by Open3D
element vertex 287
property double x
property double y
property double z
end_header
36.7294 137.919 68.9984
36.2027 136.538 97.8696
24.0002 76.1341 106.107
32.263 139.273 90.3525
37.1429 81.0684 52.9544
30.3503 131.698 90.05
33.0771 134.774 78.9398
26.4406 96.3863 95.4231
51.8148 139.138 101.522
11.4502 121.584 89.3217
47.9156 93.8711 102.16
22.7716 115.92 84.074
19.2777 128.481 86.9355
33.313 51.2072 70.971
25.9043 119.134 96.6238
43.9318 142.196 104.544
37.5294 58.44 98.5654
36.5205 88.9727 80.3302
23.6598 85.4013 67.3669
35.4445 95.3974 76.6663
26.5685 123.137 86.4749
36.3295 144.589 99.7623
55.7432 152.263 89.2436
28.7753 70.4051 61.7109
31.6849 110.687 97.2899
38.9156 84.7997 62.7083
32.9134 59.1901 69.0636
21.984 61.6353 97.0679
27.9401 83.1291 101.973
35.7315 81.0386 106.551
38.5523 157.41 89.298
23.6316 125.349 96.1961
39.3247 63.4827 103.082
43.6713 82.6312 98.9967
22.2963 93.6788 87.9849
25.1836 71.0957 109.574
15.1624 71.3624 75.4074
21.268 62.6866 90.1539
26.3988 129.749 78.1832
17.5932 90.3772 71.1996
17.2421 82.4175 77.0328
43.1797 156.34 76.7091
36.7018 75.1563 112.308
39.7141 94.997 110.388
22.6331 56.4913 72.6926
28.9798 64.47 66.6241
46.0692 89.4296 108.144
37.48 112.025 106.306
27.9426 56.4746 69.5759
40.3163 118.031 106.99
23.7338 104.264 62.1309
33.5163 119.873 101.944
36.7324 102.529 113.163
52.1841 45.2561 85.008
44.442 147.94 94.4381
9.6159 82.2575 83.0075
26.9389 111.544 66.3916
22.051 70.1685 69.9261
36.5056 104.367 58.7036
35.6427 146.194 84.2167
29.8911 53.1531 93.4238
27.8054 48.7984 71.6596
23.8221 102.94 84.2365
46.37 138.486 110.966
22.4155 63.8837 72.2685
39.1776 151.429 97.9857
15.6597 82.4971 67.4666
53.796 114.274 92.1776
43.1755 50.7743 87.1542
29.8217 91.5863 102.723
61.0391 130.68 102.065
49.6742 154.01 98.9513
19.5725 97.4536 74.7401
25.4395 56.9126 91.9631
22.7775 105.323 71.2444
25.233 119.084 72.8661
39.038 69.6853 108.156
42.4139 77.3882 73.4832
39.8032 80.1614 79.7068
18.0227 118.382 86.3161
29.4241 133.081 71.2197
24.2046 108.341 98.6821
41.9745 161.609 83.2602
33.5995 146.622 91.7548
20.5351 67.7921 61.9045
36.8308 122.835 65.6757
30.8761 51.7391 86.3241
20.5171 113.478 92.0561
43.4801 132.33 102.589
16.337 68.3003 82.7255
17.4114 55.0581 82.7539
36.4306 83.9388 72.1863
20.9297 67.279 99.0732
17.3009 90.5763 78.7704
46.1052 98.788 108.008
38.3363 93.0104 68.1171
46.2541 44.2318 72.8248
39.5223 125.218 73.3919
32.9613 153.134 89.2399
51.9876 84.3242 104.101
38.6343 145.874 72.5513
21.0919 104.997 91.6721
57.0448 42.9366 79.0055
59.9757 145.705 98.7007
35.3531 54.6938 91.5861
66.2483 126.546 97.9471
38.1316 127.67 99.6784
24.4901 60.503 106.39
39.8595 150.521 69.1622
52.2802 123.146 107.569
22.9109 59.4638 79.9696
33.4552 127.468 103.189
42.4979 113.642 113.372
54.0219 73.6544 75.5578
35.0786 43.9296 76.1054
29.9852 79.1567 114.394
32.1106 142.277 78.5456
39.3498 57.5934 69.4078
37.078 103.167 107.22
66.5891 137.721 102.197
59.409 118.558 91.1303
32.1265 68.0836 108.455
30.9151 113.199 75.129
16.8298 102.683 67.2491
13.9243 115.389 81.6444
23.2239 83.3144 87.6135
41.3312 102.859 89.5534
46.3987 65.9528 105.626
54.0428 99.8793 88.1282
19.1777 106.161 79.2971
32.681 88.473 114.674
46.314 112.202 109.227
51.8977 51.2829 71.9314
21.9841 79.3608 72.9949
49.3059 97.2767 111.959
17.181 62.8961 80.489
41.3776 82.5826 109.022
28.8541 121.774 64.0247
20.6899 73.1568 99.5307
30.65 115.839 106.055
46.5166 126.939 107.74
24.9192 76.3628 66.4084
43.6102 73.1996 68.2744
54.0619 87.5645 85.1633
55.3638 67.3255 87.8634
35.8758 122.58 109.31
48.1449 69.5702 102.113
63.54 151.513 103.79
67.0793 118.399 94.5813
25.1575 54.4556 81.5395
17.4667 69.4357 89.2878
24.1437 91.9005 66.8788
19.0311 76.5411 89.0372
27.2354 100.386 103.559
43.3544 81.5977 104.365
36.2939 46.7085 89.1352
60.3845 138.726 107.604
44.9424 122.061 110.216
41.4298 152.899 83.3179
34.9447 106.799 84.5875
46.8933 74.2832 76.7164
54.6854 97.5686 104.556
43.3257 41.9848 84.267
46.895 69.1931 71.0871
50.5937 57.0916 67.5352
21.8969 97.7278 68.5896
46.7685 105.801 110.103
52.435 108.337 106.054
30.7162 83.6479 107.904
25.2471 110.516 89.2853
58.7022 90.5267 94.0723
34.1545 62.0724 105.882
58.4171 100.222 94.6186
56.8435 119.169 104.375
50.458 163.847 85.2188
47.5554 66.9722 64.4347
29.7807 51.188 79.6386
39.203 86.3223 113.423
27.6612 84.4597 61.1774
19.784 54.5731 89.1588
28.9898 59.3401 100.306
24.6005 143.041 93.5052
61.5028 52.3515 70.1331
36.765 76.8925 64.6503
20.2744 98.532 81.8996
33.0109 81.605 60.9931
56.5847 106.784 92.3636
40.7324 142.657 79.3708
33.4097 98.3223 69.8964
15.05 101.203 85.5011
30.7283 72.8217 110.466
56.4245 44.4688 71.2519
34.2823 110.754 79.1377
48.6934 62.2025 70.6866
33.372 54.4423 100.28
38.6496 47.7072 67.6497
18.9191 89.177 84.1214
45.4508 158.966 94.0876
38.8184 70.0992 59.7913
28.2182 140.192 83.4112
62.5292 48.9971 76.8414
34.6149 91.9744 103.136
42.5718 40.1526 77.1644
32.5179 100.255 103.567
25.9735 93.3396 59.0526
44.6974 91.7554 114.277
10.502 65.0277 80.6185
62.8784 125.609 108.086
55.592 102.171 100.735
26.5387 129.924 106.762
46.88 75.0654 97.4137
37.2845 88.8328 107.153
15.814 79.491 82.9326
47.4177 67.7438 85.5881
37.4183 95.2289 62.2949
65.3231 77.9389 82.6784
42.0978 64.4485 95.0679
49.8145 155.032 84.7775
31.8653 44.7891 79.9992
19.8642 71.9602 94.1133
53.3004 53.5011 82.8597
23.6791 83.9369 94.5303
65.7754 118.373 105.267
50.579 157.521 90.3136
19.3163 98.4984 61.3673
58.7986 63.3392 69.2112
63.0272 60.6009 73.8179
55.2927 92.0124 98.8414
25.2614 51.6578 87.3536
45.3973 146.017 70.6949
32.9846 105.726 72.5046
29.5719 102.397 69.5633
37.8536 44.7459 71.6578
43.3634 74.6959 106.459
42.169 59.3074 91.4169
32.7639 62.1705 58.1018
31.2917 99.9538 61.8502
41.9839 102.923 111.266
26.871 96.7241 65.6293
33.6091 124.616 114.781
29.6731 77.0173 59.6301
68.7833 124.109 103.81
44.5334 126.734 116.136
52.664 113.782 106.459
15.0264 108.742 76.1391
42.9965 50.7898 71.7185
35.4207 88.3689 61.1523
48.5303 60.8387 82.962
42.1195 94.4372 87.0619
57.5805 62.2189 80.6285
53.0918 70.9097 93.539
47.4017 66.526 75.5663
50.1184 117.398 112.775
45.9847 68.623 94.4932
42.9099 58.5072 85.6458
42.0853 60.4361 58.2505
54.6809 80.03 95.2537
56.7975 68.6219 81.8848
56.3456 58.4319 67.2115
18.4959 105.416 100.982
65.6099 73.9189 86.7117
55.6875 80.3829 100.959
37.0311 60.9611 63.1619
58.399 110.171 96.5908
35.7259 46.5594 83.602
31.3826 90.0126 61.1111
53.375 87.6367 91.7769
56.786 67.0646 74.5193
51.7719 74.8498 91.0213
43.417 61.2975 68.2839
61.2422 56.6213 78.232
42.3267 73.6728 62.2876
40.7598 65.3679 64.3903
56.1819 51.2622 86.6301
35.0034 72.2814 57.695
51.9077 93.7428 87.2354
47.6189 80.319 82.8458
26.0717 126.419 102.414
36.9125 120.37 77.1159
45.0641 63.9164 88.6655
45.3359 149.661 74.9562
55.7705 78.5352 86.6319
60.1683 106.104 105.614
36.954 70.2862 116.381
64.7416 110.447 99.9545
49.9967 70.6042 79.8094
47.5063 75.8314 103.471
