ply
format ascii 1.0
comment Created by Open3D
element vertex 174
property double x
property double y
property double z
end_header
6.35199 107.349 35.4494
31.0608 135.117 52.1256
16.2425 125.602 56.1175
9.76104 84.4265 96.205
25.2859 122.765 35.3848
11.0264 79.2315 88.7045
11.0188 52.55 115.685
18.0259 120.901 62.4642
22.8839 92.7264 31.2223
29.2623 66.915 141.034
13.1752 95.9313 129.08
46.4809 83.5366 99.931
8.24727 116.189 30.3238
47.2322 117.082 71.4157
7.8413 36.4323 115.203
13.2718 52.5045 79.716
11.3973 64.3543 100.811
46.6036 48.179 115.578
43.8715 39.802 129.597
39.0389 84.5051 59.3451
19.7034 75.6206 47.0973
14.5751 69.493 119.437
22.8983 112.861 100.203
13.4165 82.7406 129.917
23.6562 30.4376 122.605
37.2142 126.956 55.5146
44.0363 71.6611 80.3799
22.4813 139.495 48.6183
11.0264 94.3263 119.478
33.5823 62.3304 71.4284
28.754 83.5021 38.8816
27.4376 72.2729 110.057
24.114 37.2886 102.632
20.9178 24.6192 99.0453
9.91089 124.645 33.1189
36.1359 70.1008 72.6667
31.4584 126.537 45.1144
9.66835 45.4634 121.252
14.3401 33.4295 124.509
47.0267 60.9957 123.948
14.7295 135.055 53.4202
39.1477 103.563 41.9361
13.8123 64.8519 82.4081
12.4378 132.256 40.3619
52.1964 94.4753 55.5241
30.1729 116.119 119.613
44.8428 70 100.414
26.8075 104.943 32.9621
46.2924 98.4592 68.9503
47.858 47.1206 96.3908
43.7672 95.4583 89.0664
21.7079 115.504 123.704
11.5815 86.0078 59.4756
37.3223 119.364 47.1283
38.3823 128.215 75.4825
11.4326 30.3804 93.7624
43.2676 113.464 54.3239
23.2683 129.325 79.3161
14.8711 94.076 29.8016
45.5806 63.3407 92.3646
46.6822 69.9285 109.928
13.3597 63.3709 113.893
51.0025 107.872 63.6833
53.421 60.8563 94.4779
14.1424 69.7526 93.005
42.2216 33.7374 122.592
38.6753 118.087 80.8743
10.4208 49.9839 92.1845
48.7934 74.8306 93.4109
47.6117 73.1578 144.047
46.7814 61.6852 102.323
44.7806 120.66 62.5877
13.7936 92.8402 52.2745
9.23015 97.4738 40.6142
41.1913 76.7188 114.883
32.5632 30.0621 97.9423
10.5608 38.3347 87.3537
31.3248 111.045 37.8193
30.5572 135.577 75.4418
48.6705 104.757 54.4926
13.8373 58.7082 87.6519
47.7571 91.2202 47.6506
35.7913 135.35 64.7101
34.2339 82.6214 77.5567
42.3984 108.037 78.0695
7.44802 37.4162 105.251
47.7915 82.7285 89.3581
34.7525 94.6179 36.8609
32.3046 111.374 98.1183
48.103 38.7346 110.069
32.6069 24.7589 91.3191
47.7809 62.8391 84.6683
13.9971 59.6905 76.7758
43.0261 54.6391 78.2173
11.406 76.7473 107.88
12.5091 33.1114 108.899
8.40166 37.2886 95.9621
42.2775 102.511 98.1641
20.3039 57.9835 70.6379
44.1543 54.0615 94.2318
47.9345 37.517 116.92
29.4677 105.445 147.178
42.8789 83.3723 150.189
24.2586 50.3684 72.0333
37.1118 28.4632 109.047
45.0646 35.1452 101.359
17.0716 49.0312 73.9656
46.5143 77.1451 126.316
8.26697 45.0178 108.561
34.7801 88.0133 65.3678
21.1945 89.491 67.7138
45.0399 91.3535 116.241
29.6276 36.6932 129.289
39.4902 28.876 101.99
28.0117 26.357 117
11.3301 60.4861 107.006
47.6759 51.3417 101.457
38.2937 28.3124 119.015
9.74274 87.4257 32.0984
43.6808 124.674 70.7614
10.7803 46.4565 82.6707
34.3491 92.737 139.169
23.018 26.2269 88.4695
8.81018 102.386 64.7476
42.0922 72.9656 151.295
34.0797 55.0608 71.311
46.7958 82.1425 135.423
23.7385 66.5919 68.8911
38.4516 37.4612 99.9077
20.3088 90.0406 119.034
28.4988 141.256 61.3324
17.107 25.659 108.259
19.0246 35.2722 113.877
32.6098 83.4087 60.8223
27.5462 90.9866 120.41
50.4067 75.6215 83.0617
48.9551 55.529 108.533
28.3264 74.9986 125.123
20.9942 140.527 61.998
24.1477 57.4889 150.084
34.3386 32.5277 124.552
40.2191 65.0618 74.1224
25.2387 133.609 41.5589
11.6255 118.005 46.3806
30.6361 77.3925 152.375
49.935 54.2954 88.4568
10.8591 50.8557 107.635
27.6102 68.4417 104.714
45.317 88.4055 82.8458
17.0447 27.1644 119.353
45.8766 49.6838 84.1691
16.789 127.88 32.8449
39.4845 106.911 100.043
25.5404 31.0631 110.471
50.3115 75.155 135.483
32.1167 95.3863 143.39
16.7917 111.412 78.4129
41.8874 83.3723 81.1191
17.0463 36.1497 100.614
28.844 94.9319 115.815
30.3366 47.6019 143.476
44.9459 52.6581 141.009
25.4274 78.7849 118.912
29.2822 114.113 131.649
47.8286 90.4334 87.7405
15.5789 102.918 74.5254
23.8442 81.0666 60.552
27.6303 85.2964 76.2147
27.1527 83.2466 145.577
20.3723 98.7266 72.9235
35.4955 58.4355 149.12
30.5893 24.3352 109.022
23.0337 77.7612 101.402
23.5252 88.2388 121.974
