ply
format ascii 1.0
comment Created by Open3D
element vertex 249
property double x
property double y
property double z
end_header
51.0271 147.824 67.5375
64.2441 73.805 114.639
27.4728 84.9446 97.2524
55.0804 102.925 77.018
29.5595 88.1341 87.956
30.2417 61.0784 57.4808
29.6811 90.802 129.174
60.4736 113.549 59.5329
36.1667 60.8562 120.739
40.4984 142.931 82.8705
21.5993 55.4024 71.2492
51.1766 46.331 46.7919
51.6146 82.3864 91.2433
45.8779 92.7065 108.327
39.3642 102.129 38.4843
31.0862 36.171 78.4616
63.2535 102.762 137.44
62.5064 43.1074 73.2701
33.0018 36.019 69.4944
66.4879 142.687 79.3607
62.469 146.601 93.5736
20.5139 49.1182 99.3372
57.5791 148.403 78.0806
35.2335 83.7196 110.674
48.5931 53.054 107.521
22.0974 70.5449 72.2934
41.1939 111.164 40.5233
56.1846 67.9995 46.2774
37.23 54.7458 106.243
38.212 132.759 87.0982
46.9843 107.318 77.4462
36.616 139.697 73.9994
63.0911 94.3541 138.181
41.8425 32.791 71.6115
59.1196 69.6727 71.4117
33.0155 83.5681 59.7597
43.9646 130.401 99.944
58.3145 138.404 118.439
51.4594 87.0861 28.0928
18.4223 80.221 78.0252
59.6073 73.4912 64.9601
65.3876 120.859 124.095
56.1868 57.4373 125.046
65.3584 61.4569 115.776
48.8931 98.2844 145.305
19.0889 82.6225 89.0068
42.4587 88.7879 100.717
29.4782 51.0736 115.953
19.3917 72.3917 97.8779
62.6962 127.297 109.878
45.9847 148.443 88.8509
65.7324 123.747 65.5897
50.4821 109.377 101.409
39.8534 129.031 66.9156
19.8081 60.7458 104.563
42.6289 92.441 88.0265
42.6285 45.3938 47.6704
43.5526 138.082 99.6316
19.8032 62.8411 89.871
62.8539 85.0663 116.185
61.7394 122.254 97.4613
64.5781 125.533 89.0216
24.9702 78.5132 105.15
33.5457 46.8029 49.7725
32.4369 63.3176 49.0423
48.8256 62.1778 123.875
46.2371 146.694 76.2275
24.4653 65.0777 126.836
28.7854 74.1631 115.607
60.9718 81.4727 109.009
39.5351 145.699 69.6173
63.7892 134.202 99.5149
47.0235 137.27 118.333
61.3899 114.347 106.91
54.1393 92.0495 60.1979
23.2329 63.4891 114.904
60.5758 125.566 55.4783
38.9186 114.055 118.915
34.8971 52.9803 44.1929
26.3494 80.2898 128.885
59.7413 110.458 71.1859
40.77 128.785 116.428
47.2449 45.4858 95.2149
60.2269 131.414 126.173
50.1644 100.425 99.4443
48.806 37.946 55.4452
59.8252 114.925 92.2915
59.9097 110.6 84.2313
51.5783 85.3679 143.845
62.9245 148.024 69.9827
22.4237 47.7612 74.9376
46.4269 113.785 65.5223
28.045 51.732 55.9331
62.0114 63.6109 73.9826
40.0184 100.565 142.599
57.4462 75.0864 138.028
66.9019 133.034 78.1778
44.6977 91.6674 144.548
56.6754 66.747 83.8834
64.1126 46.7715 100.067
63.9316 53.2275 71.5903
60.629 81.0107 56.5024
64.7136 82.503 122.912
28.0842 46.5443 62.5619
49.1754 88.492 77.139
60.7264 142.57 107.933
35.3187 140.275 60.9872
62.8702 106.193 51.2362
46.3815 109.731 143.722
44.4872 145.517 59.3581
27.175 41.7659 101.049
62.568 114.754 50.1945
59.0557 44.4835 59.0339
34.0507 45.7972 102.381
53.4354 92.2885 93.0294
47.6787 145.419 101.02
63.9758 111.538 133.064
45.9907 81.6616 139.323
65.788 135.5 87.8244
62.0103 49.8792 63.431
65.7312 140.182 68.9251
17.4833 66.128 81.2108
55.4546 91.7092 144.53
34.9923 126.53 127.575
64.276 58.4552 80.2522
36.2235 75.8063 38.7192
43.2238 86.8805 30.4331
37.5933 92.1579 73.6336
59.2895 62.8536 57.4455
62.9446 42.5427 83.6736
40.7069 112.101 48.4939
62.0736 54.823 92.4225
64.1879 103.349 121.913
58.1614 96.0277 53.0098
36.762 110.198 136.529
64.3691 91.9094 125.64
34.1185 39.9635 57.0069
53.8126 97.6483 69.6111
62.2485 84.6456 50.7708
59.0841 122.173 135.031
57.3645 76.7181 30.647
50.7412 33.6149 69.3693
58.8769 83.7139 141.745
64.9494 117.387 72.801
58.4201 105.031 63.8641
48.2214 56.4143 35.2888
57.6432 38.2748 68.9603
40.7755 64.8359 34.65
45.9263 118.684 76.4178
25.3397 41.1138 74.7092
59.2054 80.4527 64.1774
27.3246 83.5134 65.772
45.4587 117.168 93.0285
61.0627 65.2013 102.713
19.3791 62.171 73.2109
52.8151 55.0851 41.7074
49.6441 103.757 90.5279
63.9926 85.4917 136.418
52.2809 147.47 96.0358
59.1693 109.434 100.951
60.5604 91.8002 109.865
66.4002 123.261 79.0707
36.4655 96.3603 49.3185
26.7562 43.9061 69.1576
59.831 50.9511 117.387
40.837 66.7434 122.992
36.4047 60.6765 39.1687
64.246 53.2804 108.379
52.7286 68.4071 134.797
20.1308 53.8435 80.7899
33.8133 118.652 132.061
53.1557 51.5097 116.217
35.4688 103.105 130.124
21.9462 91.1402 70.1857
48.5227 75.8326 27.4007
21.2529 51.7675 92.2011
48.5354 112.582 90.5348
53.3055 123.438 37.0533
65.7745 49.1042 86.5472
57.3158 51.6531 51.7504
62.9966 95.0742 40.4894
28.8364 39.5664 86.1804
39.8578 84.7773 128.033
37.4952 84.874 141.949
57.3976 43.201 107.151
38.0796 97.2071 119.994
51.9429 75.7934 81.9093
61.2417 78.7936 36.7164
37.55 39.2677 92.4032
56.0218 102.327 144.481
54.9028 65.7721 32.728
61.6722 57.8038 99.7149
58.7297 124.216 46.9652
23.2934 95.4219 75.0877
36.6236 85.8798 35.6756
59.6491 87.2024 32.0941
64.22 120.267 116.491
64.4182 133.251 65.0528
44.2626 125.137 60.3282
47.7343 70.1048 130.08
56.1163 81.0098 99.6232
29.1681 66.7917 133.384
34.5655 111.819 125.491
23.1231 44.1586 91.625
51.4682 148.237 80.317
29.0881 70.0672 63.5474
56.7019 68.6084 93.5039
33.3289 82.5375 48.2445
52.5889 117.896 141.344
54.5234 42.2745 54.2241
45.9928 64.9574 30.7953
40.1773 78.7606 32.9537
48.8044 134.583 127.71
41.5506 104.219 62.3336
53.3508 102.132 31.7154
42.9693 35.1792 83.9792
22.0211 46.1742 107.37
55.396 74.4399 96.3406
58.0994 38.6025 94.2458
59.0021 118.671 42.9894
38.2895 103.97 50.0641
30.5959 80.6008 121.84
39.2235 91.6803 32.4395
61.7499 91.3774 47.7788
62.5296 69.0172 108.02
35.8042 76.5894 128.465
57.0895 111.21 141.927
63.3681 85.0106 40.5177
32.7256 81.023 137.312
57.4509 99.7462 59.2058
60.5537 60.0479 64.6369
55.0262 86.3146 66.4173
51.716 128.708 134.346
23.5357 54.1826 123.64
36.8035 98.0522 135.925
40.9947 129.09 133.195
35.299 83.4034 42.2028
38.569 74.852 138.966
31.9456 97.1539 56.7525
47.5802 124.48 138.428
40.4198 120.069 138.121
48.4333 35.8517 86.1126
42.682 72.446 134.369
40.9881 52.0274 38.3932
36.1896 133.64 71.2686
34.1986 74.2716 45.7901
69.8921 53.2275 108.503
62.1 79.528 130.678
62.3927 64.6453 125.196
