ply
format ascii 1.0
comment Created by Open3D
element vertex 191
property double x
property double y
property double z
end_header
30.3161 72.2598 84.5594
39.4757 104.458 78.2972
22.4135 96.7908 73.7232
43.8787 71.4782 86.4187
22.6128 86.6748 45.5345
47.2608 81.4789 92.9422
26.1504 52.1638 96.1128
41.2442 85.2742 112.636
39.6953 50.7483 91.8244
39.7282 111.263 38.3447
49.3752 80.2162 84.4624
24.5734 65.7707 90.4186
21.2643 93.1221 66.7503
36.8973 64.1243 107.462
25.4589 97.026 60.0506
28.088 51.0043 110.442
22.7516 60.4984 95.2518
11.23 81.2459 58.7782
30.3284 103.003 48.4544
47.7526 81.5137 107.146
34.3462 75.5127 103.97
26.878 71.0806 94.8289
34.7818 45.0005 92.7648
64.0176 88.7562 58.6307
31.2794 48.1998 103.431
31.5657 56.0316 67.7809
52.9184 103.96 62.2769
46.0746 75.7966 111.641
35.5666 90.6094 110.496
36.1668 107.404 48.9946
54.0294 110.145 73.4111
39.2246 70.5419 77.3356
40.3049 54.2743 85.6151
17.7026 88.5627 62.3089
58.39 99.8041 43.0379
28.5031 61.9956 78.1839
52.6125 100.046 78.4775
34.2491 57.3622 114.18
22.4792 66.3201 66.5739
36.5709 71.471 119.228
33.1477 82.5305 92.0154
39.2057 94.5274 87.3613
42.4716 69.9488 113.681
45.8397 109.694 45.325
53.2342 105.173 39.4024
31.459 110.88 55.7775
43.9758 85.1192 84.8528
28.4384 100.145 65.2363
26.1579 69.6754 74.2639
43.3721 88.2895 95.599
37.4002 87.8251 101.539
15.92 87.0049 50.1202
62.2666 106.729 67.6744
55.5303 109.584 60.6405
23.2346 62.9171 107.67
39.3059 78.1462 117.78
29.1697 100.469 72.2685
30.2944 82.4277 83.3685
31.4272 54.4234 82.5719
30.0841 77.1889 110.803
60.335 88.3932 48.8697
54.6929 98.0305 58.1292
26.9815 95.06 81.14
39.7698 97.1135 100.226
30.824 64.4278 86.0966
40.9574 104.717 69.334
34.5999 105.085 68.2926
33.4766 100.556 32.6341
50.5757 92.8288 90.9709
24.3805 93.468 42.3925
36.6445 67.272 85.8782
45.9973 73.3917 76.4928
15.8807 81.2643 67.0976
23.5594 74.7997 70.2614
23.4771 101.88 43.1233
26.5192 78.2329 89.5711
32.0662 66.1042 113.663
22.3444 95.5317 52.6187
31.6978 96.652 97.9931
46.9897 101.255 66.0423
16.702 84.9963 85.0053
27.5355 97.7386 88.3312
40.3113 62.5393 66.8714
44.4807 102.659 33.9946
38.7515 61.3736 76.2587
16.1424 79.9044 53.1788
27.428 77.1717 98.1137
48.4693 80.9822 61.1389
38.2545 89.0106 94.0646
24.5252 86.8808 79.2344
32.9766 104.203 60.641
38.378 110.037 63.9089
63.7947 96.2899 48.7873
45.5606 87.7814 42.4094
42.5368 75.626 71.9009
43.1408 56.8709 104.425
50.4531 108.915 52.2204
29.0051 92.0835 32.7659
28.4151 100.657 53.9405
25.4885 57.6115 110.933
29.7687 64.8701 63.7389
17.6703 94.2405 58.9351
58.5405 94.4832 88.2009
19.5362 78.1388 74.4445
26.6729 49.5691 85.1138
37.4722 101.412 85.9014
20.4255 75.7655 52.6502
26.6957 58.3972 87.5682
32.8387 89.8504 96.6553
33.698 54.0312 92.6781
48.2626 80.4477 76.7213
48.0646 93.7922 72.6776
42.3472 105.49 58.735
20.8915 94.7362 81.4369
35.6129 54.6959 78.956
23.2419 73.7884 79.9699
28.28 87.7889 91.34
44.1999 95.9563 93.2138
27.5947 89.3194 84.3639
46.0617 81.4205 100.103
52.6966 87.932 40.1578
29.0492 67.0927 105.63
45.4023 102.354 80.782
56.1119 94.3115 62.3164
53.0387 92.9241 79.1495
37.808 102.117 62.0792
24.2576 68.5326 100.335
58.1437 87.0406 59.2475
64.6469 96.3066 56.7493
53.4563 95.0386 37.0701
23.8732 75.4996 63.3189
17.6979 85.9665 69.734
30.6001 96.7945 40.9932
25.0358 79.3317 80.6225
50.2502 87.2347 82.3773
49.9179 83.1645 49.6778
42.2522 83.0605 105.914
32.0454 80.9231 102.277
35.6746 71.3062 69.8606
32.5595 73.7974 53.682
35.6643 92.9926 41.0776
18.4445 77.6382 64.626
48.7695 80.1356 68.7122
50.8983 87.3324 104.991
33.0796 72.7334 58.8792
45.653 103.944 74.0745
51.2506 88.3058 98.2782
38.4978 101.231 37.4975
18.331 93.6154 47.5383
38.9529 65.576 61.4825
16.3743 87.547 56.3132
27.201 73.5851 59.7528
39.5596 74.7664 57.0853
27.8442 101.377 79.7643
37.0105 72.2832 110.814
42.9629 80.9066 65.651
53.8956 94.7339 72.3114
30.8524 71.6819 66.9567
55.4768 87.1381 72.4711
57.615 76.3262 62.3541
54.298 81.7568 55.6597
23.0581 71.7501 56.461
33.0097 91.4292 88.9491
41.0907 95.7124 32.6154
34.4893 105.019 75.3686
43.0348 106.516 52.0478
43.3282 97.8633 84.277
48.3148 72.3993 104.654
46.6849 86.9836 66.1995
34.1783 94.7979 85.2373
29.3378 88.1649 42.2512
27.329 77.4837 50.0771
39.7659 80.5612 51.3223
33.4785 84.4993 46.472
53.2673 90.2377 65.9231
46.4057 94.3892 81.5961
34.0308 65.163 73.901
18.414 89.4524 76.1805
32.79 101.359 82.3133
39.2034 104.971 42.4328
18.7713 83.8811 76.4586
36.737 73.9879 63.3481
41.7003 72.8372 66.3614
57.5661 98.7932 51.4591
29.3256 53.5783 90.7391
27.3054 71.7999 106.367
37.5315 79.185 110.04
17.6181 78.8403 58.9408
44.8948 79.977 56.8108
53.1123 82.6593 63.0106
54.1205 81.3942 73.3027
