ply
format ascii 1.0
comment Created by Open3D
element vertex 575
property double x
property double y
property double z
end_header
86.4575 175.059 115.185
40.0033 155.533 159.943
22.682 181.947 164.188
35.7508 136.221 119.879
21.2162 99.3592 102.656
55.732 156.055 99.9604
12.6522 103.593 171.557
47.208 109.307 124.581
19.4227 125.991 196.651
74.0598 162.637 147.348
63.2351 99.2577 103.463
17.82 119.877 186.242
21.7863 121.456 118.025
41.644 128.884 73.9136
33.0633 206.35 156.626
47.5756 148.505 105.278
62.5887 193.481 142.18
31.4676 204.232 166.326
98.5542 127.751 259.783
31.8217 138.581 184.606
117.182 126.059 249.221
29.811 129.775 126.886
47.3477 104.221 115.389
18.0553 112.561 195.596
36.8364 96.1883 106.008
72.4916 134.221 176.973
41.9714 144.588 119.761
21.2839 108.264 121.411
80.7485 96.7711 200.03
18.1159 172.12 136.484
24.073 134.535 171.053
91.1462 183.795 115.864
65.366 135.277 132.214
37.0215 143.153 197.219
38.537 134.486 111.192
52.2676 69.9302 207.045
16.5938 98.5193 181.851
22.0043 115.407 96.2903
53.0531 204.449 159.111
31.0432 142.069 168.739
64.1872 193.151 166.262
36.6634 121.668 76.4451
42.4726 163.391 124.745
55.5295 143.517 83.6895
64.96 159.507 100.155
99.6336 187.173 127.457
96.3617 89.7334 255.528
56.9178 106.441 110.925
17.6502 117.64 108.16
85.1658 100.48 234.548
50.9924 145.714 95.762
64.9203 178.3 163.64
78.7058 144.045 89.1065
48.8335 155.069 147.3
56.6491 140.248 161.855
60.5637 135.037 218.855
38.9629 108.658 129.32
85.1246 166.266 114.706
108.546 97.5583 262.487
83.9307 104.326 210.54
78.926 129.079 93.9485
79.4812 109.82 244.554
29.4457 117.389 83.5915
23.106 94.2403 196.817
27.6689 127.272 115.759
72.0852 125.405 80.051
77.7687 174.545 153.576
136.346 99.171 145.232
49.7334 129.062 67.0687
17.8789 181.205 139.267
14.906 86.679 170.378
108.768 187.628 119.481
15.7999 110.25 179.649
58.1389 153.725 184.467
28.077 108.512 79.3026
73.4644 152.36 87.9212
22.7375 129.049 207.347
39.2445 68.892 181.5
130.256 166.843 99.3343
58.7002 152.827 88.7273
26.6386 134.759 160.515
14.9717 109.242 107.033
47.1107 185.154 136.994
18.1026 188.882 144.169
105.555 97.3443 150.05
114.168 99.0753 121.069
29.9714 106.694 126.709
76.3895 127.696 183.814
95.0661 136.887 242.84
48.4092 152.344 115.18
80.8444 123.673 164.246
90.0617 153.544 111.384
72.0185 75.2998 197.83
33.172 96.1761 115.355
66.9505 151.923 180.474
17.9636 175.755 146.327
98.1347 100.48 151.111
42.3316 149.529 180.8
44.057 135.063 100.55
17.5125 127.116 163.606
19.9851 167.805 155.472
71.8821 143.923 177.615
100.259 102.758 160.688
64.2498 77.288 214.847
103.889 106.665 170.726
88.9071 132.036 234.543
20.9563 91.6719 188.044
92.1359 110.42 164.789
48.7813 137.816 84.0741
138.267 137.001 92.1496
27.5794 75.6568 178.942
124.036 113.031 254.623
10.5496 116.461 106.134
75.8526 152.155 160.714
53.2248 166.353 154.991
39.6037 183.534 137.369
57.6459 110.681 70.3609
81.5772 129.005 114.452
76.6547 133.031 124.397
65.6769 155.26 88.9714
19.5097 165.415 141.306
24.0607 99.6876 118.602
49.5506 135.79 73.8554
63.0695 122.74 176.381
51.1654 172.611 131.049
40.9213 199.702 147.953
71.4111 146.373 122.882
46.2677 95.7859 170.778
69.9639 119.012 186.426
43.3401 144.596 110.539
63.5633 88.1723 219.826
22.4016 103.336 89.5893
96.7101 100.639 141.913
37.5289 100.384 165.044
50.2083 174.553 176.194
96.3423 127.607 185.127
16.7493 115.239 119.248
27.5135 95.1036 110.487
105.519 132.674 228.075
44.3432 100.635 75.6753
27.6467 180.878 178.471
114.087 98.8783 248.638
121.934 121.673 189.671
29.5507 88.1189 198.888
71.9412 148.835 189.191
13.5962 115.609 169.127
37.0575 137.949 159.16
84.9852 101.212 260
47.261 120.376 66.3234
90.0173 105.293 137.804
71.9709 152.708 118.564
122.036 172.4 96.5338
92.072 159.839 103.866
81.2959 154.485 130.98
78.6753 104.089 219.855
80.6037 139.59 97.6761
63.0543 112.178 187.121
72.1893 185.426 155.633
36.7743 95.2396 96.8186
93.8505 168.738 101.714
65.483 139.235 166.457
42.0791 118.566 226.508
80.701 119.267 242.137
66.0234 105.941 114.212
42.999 104.435 220.685
19.7709 100.981 191.562
90.4929 117.55 171.628
114.986 103.301 233.198
36.8354 75.0222 200.106
49.3973 148.561 166.396
27.6949 172.231 178.615
113.117 115.082 256.092
41.0762 140.716 129.467
59.4976 175.744 180
22.0096 85.09 182.291
43.3976 206.396 160.158
31.472 125.329 102.325
47.6704 112.857 224.792
52.2893 104.869 227.132
98.8867 102.186 266.383
108.189 130.102 253.888
43.3722 136.738 77.2048
113.642 166.876 91.9107
59.1013 200.461 151.256
66.9499 70.6737 192.348
117.574 111.704 183.745
81.57 110.832 234.465
47.9883 149.282 123.407
79.6325 137.528 189.667
31.5442 180.202 134.349
82.584 135.462 132.148
86.9992 107.658 149.713
21.1739 168.288 129.564
20.8562 81.5779 167.243
26.2696 118.726 129.614
18.0838 187.342 153.927
55.9422 93.3136 225.438
56.9287 120.917 228.767
117.785 181.243 114.186
83.9511 182.589 128.405
53.1074 96.8801 179.707
53.0475 168.742 169.67
36.8326 193.242 181.009
22.6715 157.425 144.942
58.0901 117.439 127.721
76.8382 83.2513 197.169
120.978 116.474 248.291
59.5054 112.632 121.224
37.7867 99.138 214.53
111.934 106.591 262.359
29.4364 154.33 168.47
76.5449 119.706 93.0257
42.1226 131.588 92.7088
82.2523 128.827 243.03
129.179 155.982 90.3081
91.3195 187.04 127.23
113.906 130.82 193.078
55.6453 152.555 164.613
87.257 111.495 141.25
49.0966 102.038 103.746
92.5119 104.879 153.726
18.8763 90.505 163.22
106.247 104.75 268.024
92.3719 124.745 258.623
81.0283 150.711 102.206
29.089 78.3339 164.954
39.3727 147.414 169.548
16.9736 121.474 174.362
32.8405 122.243 92.4102
82.5206 118.182 210.125
121.597 149.239 181.519
106.273 90.4987 256.62
74.5405 148.967 109.149
74.8172 133.008 152.587
72.0334 158.139 99.9515
73.5756 94.9338 221.287
94.0261 177.197 105.826
122.135 110.204 239.699
69.898 107.18 225.03
117.972 115.314 239.252
93.8946 91.307 243.424
27.0816 190.031 139.328
15.3296 93.3813 173.575
34.0711 125.694 223.556
61.4387 149.591 126.11
21.6194 122.59 104.487
80.3393 120.223 103.522
50.0426 152.003 186.232
52.046 66.4183 196.574
20.181 129.347 177.412
21.7881 197.501 149.243
17.256 119.106 205.304
72.6009 182.129 145.437
83.1553 160.156 121.557
76.6798 153.101 138.007
21.1348 163.57 165.846
26.5609 149.03 149.953
59.5462 163.821 142.717
41.7165 113.238 67.8773
122.906 96.0269 145.315
44.192 187.223 183.829
90.4131 120.792 120.757
125.963 173.854 112.318
38.5614 137.066 222.654
30.1286 109.588 157.837
108.325 118.422 186.473
69.9621 192.426 147.691
28.5572 171.533 126.905
94.6991 138.265 189.146
88.4179 132.241 247.866
88.5848 113.536 129.871
38.6286 105.006 72.7806
53.0145 96.9487 96.1571
29.2782 201.83 147.312
38.8795 102.062 117.957
29.1582 155.1 133.643
119.95 99.8715 241.482
49.2731 158.397 128.986
147.131 146.392 108.867
100.201 184.899 109.086
61.6677 155.323 173.498
61.4076 89.6107 178.129
97.9743 114.245 174.893
67.0467 105.556 82.0557
60.7102 69.0169 186.059
77.2582 140 164.809
44.264 178.739 182.333
127.646 97.5029 152.286
87.5932 146.534 185.174
53.8528 99.1091 75.1779
54.52 192.828 140.343
78.6458 132.317 163.868
60.8196 170.228 151.921
78.3087 143.219 118.419
82.9999 118.622 254.257
59.5431 158.814 108.777
116.554 95.3297 140.197
27.4543 190.988 176.487
63.9032 96.309 224.698
71.1161 76.4004 207.577
80.9342 143.239 107.516
72.762 81.6744 189.365
114.891 95.0076 258.309
69.4907 126.723 130.605
68.6595 186.64 139.246
49.6768 126.247 167.406
76.9832 137.263 82.3614
58.1915 141.868 205.94
98.1775 95.3539 263.628
134.098 119.581 184.213
77.9748 134.032 144.026
80.5428 122.138 233.532
82.8339 124.108 134.507
48.4986 108.023 69.3307
13.9022 107.332 113.966
96.0154 102.63 129.965
81.3019 132.099 205.241
119.595 97.3209 156.745
77.379 156.962 109.564
116.114 104.863 172.496
14.781 111.693 159.904
68.6883 147.561 170.946
69.8265 115.268 125.426
88.6973 130.283 124.482
71.6842 143.816 200.002
51.3028 154.34 175.292
60.6341 71.9917 202.766
131.299 144.912 87.8047
81.3867 137.087 112.794
68.3239 157.411 108.906
80.9339 169.707 126.854
79.7146 121.526 149.445
51.1097 68.3299 176.885
60.7456 103.922 76.5132
111.238 100.442 164.844
70.2212 113.898 83.2897
121.015 162.429 90.4336
103.204 99.5331 126.415
64.5056 66.0797 205.959
55.6119 137.752 136.037
100.745 188.607 118.084
81.9167 111.179 203.718
107.048 138.011 193.708
107.603 111.438 176.928
62.9635 201.403 161.64
49.1404 134.03 226.262
59.969 151.125 194.042
107.934 168.985 152.518
115.871 147.296 88.0082
76.3352 118.589 221.19
49.7573 84.3845 167.804
107.705 133.679 247.303
121.756 152.366 87.5029
98.256 136.548 252.357
78.105 88.3726 207.454
80.4795 150.879 174.775
62.757 130.96 169.576
49.4196 145.591 200.382
80.3178 179.95 146.093
64.4583 120.924 227.188
20.7244 101.332 156.617
82.4488 175.435 162.753
47.003 74.4559 170.242
47.1701 118.447 137.022
65.8163 118.92 73.4827
24.9929 197.295 160.705
104.276 89.3521 247.138
23.6135 131.008 187.471
34.4859 123.069 159.946
122.387 178.084 104.101
102.47 164.76 94.7135
31.0641 108.639 220.679
50.8901 93.7926 85.6759
157.759 123.751 136.944
96.0871 133.471 112.496
31.2861 98.0651 155.252
85.0702 117.331 161.54
79.2205 118.65 118.893
44.6584 173.021 126.922
36.667 200.702 174.619
122.18 100.913 257.065
109.964 185.184 110.12
112.358 96.3415 155.923
81.5989 141.171 173.794
49.5031 111.685 180.192
55.3164 202.068 170.955
126.183 104.526 172.123
89.2561 144.301 121.323
66.1167 81.3116 182.819
28.4722 83.1548 192.057
148.871 131.931 97.7392
75.0212 142.57 155.908
86.5923 112.599 156.236
59.2626 167.905 131.916
90.7329 95.6588 255.198
76.149 143.853 146.248
102.841 169.404 170.433
38.3674 175.569 130.452
69.735 91.6261 188.232
114.773 134.591 241.319
63.3249 154.421 118.483
77.564 169.382 143.982
80.9325 120.141 195.568
69.1169 159.949 116.471
58.895 139.446 70.265
149.5 140.698 101.432
63.0084 98.1142 86.7484
69.9946 86.5697 223.926
59.8622 76.6113 176.576
109.55 173.745 95.5163
67.1781 185.321 171.308
80.8736 131.264 103.875
136.708 99.776 158.806
98.2478 180.423 146.316
49.2746 195.786 146.744
71.387 126.958 220.25
85.2126 99.2436 245.883
90.3624 107.232 267.207
71.7501 103.168 98.1344
44.603 64.6881 191.592
77.4494 85.5589 215.569
16.5179 109.543 98.8144
74.7881 106.713 108.643
77.1325 112.313 195.006
46.9038 139.662 161.689
155.681 118.737 152.363
101.243 177.251 100.152
109.803 131.267 236.422
122.35 122.38 93.1228
71.2763 135.78 209.986
36.641 81.2125 191.605
97.8729 146.59 103.27
103.086 120.148 266.187
48.1435 99.8837 85.6477
38.458 72.0932 191.346
37.4118 83.385 162.56
31.6008 115.851 215.924
96.3677 175.284 164.362
27.125 131.022 216.344
108.404 123.19 259.71
94.4827 150.799 188.729
119.314 122.746 241.829
95.4475 95.8767 230.39
62.3663 122.232 131.418
153.751 134.62 107.633
61.7197 126.346 67.4692
113.044 116.127 265.261
122.726 120.361 231.081
113.189 115.717 99.381
64.1029 144.423 131.492
29.8018 139.013 205.668
48.9843 120.397 231.638
86.3903 128.092 175.472
107.528 132.245 96.3008
72.2958 113.87 88.6864
65.1849 196.06 154.799
63.2399 153.497 165.606
109.803 143.021 92.0787
138.802 154.987 98.8515
59.4297 146.182 172.286
114.452 124.773 94.3515
78.4367 147.776 167.176
81.4496 118.722 111.583
109.57 89.8449 239.641
85.7579 93.832 237.834
45.6228 70.5376 188.196
44.793 204.745 169.411
22.3737 121.175 156.159
105.64 121.057 102.175
21.1287 167.612 174.646
80.0143 176.626 133.418
100.114 164.223 181.128
76.4167 104.26 102.21
116.11 179.2 123.402
106.304 96.519 136.79
99.4185 112.097 268.848
89.2589 164.069 178.321
112.715 180.959 101.967
35.1944 96.0301 86.2202
99.7547 156.833 96.7979
96.1198 132.149 229.037
86.7295 138.741 179.827
135.585 153.842 92.1443
104.052 146.225 193.273
36.5975 119.014 136.243
126.113 98.6803 162.892
46.7653 126.892 138.301
82.9524 123.599 142.144
80.7745 166.627 169.307
103.177 144.363 96.7361
50.5164 197.229 178.785
145.345 99.3775 143.655
33.7234 146.962 152.508
114.797 96.6898 129.896
79.2236 142.083 137.919
56.584 77.7253 218.811
138.721 97.3703 132.686
27.8691 88.3512 156.524
54.1747 87.0511 174.831
130.347 121.572 92.5659
76.4543 113.852 109.212
88.2188 121.244 225.107
102.349 175.368 156.76
123.328 139.139 145.686
117.811 135.3 89.5293
70.0034 101.146 91.8691
55.5584 156.444 118.94
86.3703 182.184 151.599
111.018 157.776 151.938
37.7077 70.8884 171.07
133.036 136.796 180.789
71.2934 116.395 118.339
126.4 134.213 88.631
94.9144 158.268 185.677
131.032 112.605 98.7901
89.6727 171.883 171.23
133.452 97.8288 123.883
34.1514 171.757 126.752
105.355 96.3072 230.935
141.65 126.379 92.2857
151.177 140.979 117.286
116.905 142.23 193.29
24.9988 152.792 156.425
99.5974 106.003 116.709
105.676 157.829 185.749
120.591 174.409 121.701
58.0377 66.6622 191.892
37.4828 184.602 184.531
113.306 110.418 223.415
46.679 95.3909 76.8552
23.0081 109.859 214.217
104.531 139.538 238.501
133.416 164.719 107.987
62.4842 179.497 134.167
94.4823 116.099 262.324
62.6893 103.636 227.933
121.369 110.037 229.915
69.8846 145.313 72.5344
84.7637 108.334 255.827
109.893 155.846 90.5584
76.2759 166.141 164.66
112.187 183.194 128.143
126.478 132.811 191.955
88.1294 105.973 226.548
76.832 167.091 134.085
111.384 149.951 189.685
96.4817 103.275 223.368
134.614 100.616 114.389
100.018 112.717 263.421
134.393 108.464 177.695
115.433 117.588 225.641
133.299 137.711 138.133
99.4601 125.739 221.162
93.8767 180.142 156.549
151.236 121.598 101.336
58.2502 206.882 122.897
22.4857 92.6036 155.591
120.728 110.974 99.758
141.693 98.7896 123.301
105.785 103.6 223.85
121.219 95.8998 250.873
125.749 142.922 186.141
104.854 94.8063 246.631
78.5905 175.014 139.976
142.78 146.563 94.136
93.6581 113.996 116.437
126.064 96.3917 135.509
88.4719 180.007 158.657
130.128 166.971 116.082
106.437 184.674 130.014
31.6051 82.1954 187.028
33.3012 158.232 174.449
26.6251 105.384 217.611
53.9633 147.95 172.504
123.26 97.1047 129.46
