ply
format ascii 1.0
comment Created by Open3D
element vertex 463
property double x
property double y
property double z
end_header
46.656 135.626 106.464
24.5016 168.779 221.699
23.1707 226.391 162.301
58.0483 147.935 161.103
16.7175 137.255 198.388
29.9293 184.118 130.01
59.4731 98.8376 210.754
80.2796 139.632 142.687
36.8005 246.063 182.306
13.3249 153.173 205.014
29.7476 226.751 216.203
32.2524 217.353 156.638
23.4791 233.121 209.108
39.8374 195.906 211.25
70.273 210.549 117.329
80.3161 188.755 149.158
48.7917 133.075 118.733
72.9542 143.314 156.183
71.5259 134.28 146.124
30.0734 184.815 118.829
17.0176 163 192.794
17.1726 158.342 200.085
87.4102 158.296 145.032
19.8842 228.681 185.051
31.8874 112.894 231.467
22.9065 175.39 198.13
15.4689 150.877 193.379
50.999 208.654 180.247
28.4625 125.755 222.748
62.3737 212.17 131.286
27.9149 131.987 187.292
88.2377 162.898 137.322
27.363 227.566 194.027
32.2178 117.787 213.603
74.3753 142.948 187.507
17.812 224.391 203.194
55.3559 138.462 146.844
31.9985 172.669 115.205
43.3726 127.92 250.113
30.699 204.839 186.373
15.284 224.817 213.688
42.9465 142.522 128.292
17.902 219.737 171.375
69.2862 125.7 131.837
13.7755 143.586 209.34
64.4434 152.286 188.09
32.9898 150.002 69.1311
84.9616 179.697 143.929
22.2565 129.312 196.112
47.6894 198.155 216.556
86.6326 197.443 120.727
32.6517 179.761 109.38
14.6253 216.409 208.835
29.5426 158.17 80.0768
21.9703 174.779 229.149
83.9567 162.323 152.777
58.4048 129.641 102.499
75.0996 178.242 162.16
46.2566 234.502 191.093
39.724 164.614 74.7613
40.4658 216.31 209.249
30.8287 189.309 207.687
80.9269 204.265 127.363
60.1043 162.587 188.693
30.9678 106.504 108.056
92.0749 155.37 207.568
42.3454 240.481 190.029
67.4669 158.347 163.812
91.4362 170.248 219.004
30.3215 249.677 171.806
65.0186 180.378 184.176
43.7963 114.91 233.227
57.0638 134.379 184.216
72.1016 203.753 140.478
60.0682 129.502 135.012
76.8012 203.599 105.184
46.4909 219.845 189.041
33.7737 173.15 184.988
54.5682 173.657 180.007
43.5083 213.974 156.438
22.3184 214.113 203.459
39.3847 146.65 108.949
26.9825 119.039 223.459
91.0269 165.249 205.979
30.2172 215.399 219.405
16.2165 167.726 202.321
23.5302 212.008 168.848
26.1811 163.318 180.273
49.6789 192.503 207.36
50.9223 211.371 118.903
33.9512 150.877 252.684
23.3767 222.586 221.245
37.3704 227.999 210.501
62.6947 135.24 149.103
49.8218 139.959 179.458
44.3594 180.624 180.087
29.3619 244.631 178.44
19.7339 155.696 184.436
89.895 168.094 238.107
35.1628 166.183 178.516
15.8278 167.063 214.621
26.081 219.145 185.393
70.4158 116.852 245.436
88.099 179.295 116.528
18.4264 216.893 216.427
48.5602 238.85 182.37
55.4258 208.25 167.65
81.5696 149.131 151.088
40.7731 174.761 75.2652
69.3365 195.538 222.744
86.6509 115.883 233.116
31.936 170.502 126.512
54.4364 197.678 223.939
40.9577 172.126 63.7304
68.3237 148.703 114.237
89.7724 146.72 204.019
54.9054 232.775 168.912
22.7235 161.59 74.5731
73.1639 129.588 247.809
70.619 191.917 233.43
24.2768 210.958 212.156
39.5968 210.748 189.513
66.4903 105.589 232.483
78.6348 196.958 144.331
66.3676 202.805 100.144
41.8996 202.774 116.947
65.1069 123.539 247.601
91.0652 158.865 197.397
55.6261 144.81 181.791
69.7988 193.376 212.675
36.448 202.244 177.612
82.0532 135.964 126.895
73.2597 187.206 158.039
35.8229 156.546 122.149
94.9305 160.408 214.712
31.5078 250.126 163.34
49.3528 234.953 161.245
30.1217 205.05 172.651
37.3105 135.537 180.304
64.4536 139.943 253.97
91.5951 122.236 204.871
43.2282 202.512 174.448
84.1333 200.458 110.571
39.2212 252.531 168.08
62.9642 155.66 175.819
32.8445 138.398 245.555
31.5521 146.33 201.084
46.2772 226.271 156.063
35.8667 177.947 145.118
52.3301 153.725 185.846
29.5292 243.352 165.693
34.9964 165.021 57.691
45.104 190.123 188.284
17.7856 161.961 230.499
40.1813 151.097 94.8015
85.9365 170.188 144.783
40.3192 191.529 103.824
32.662 208.962 194.959
92.7508 146.724 230.022
39.0581 235.75 156.539
22.8019 165.312 64.9949
38.9976 113.314 221.002
56.9458 187.963 199.195
94.1827 157.298 226.739
33.0257 225.908 206.124
65.3007 162.62 250.832
61.1675 174.609 192.429
22.1447 143.258 236.426
75.6598 208.912 123.883
27.4378 157.42 248.014
72.2881 209.795 132.89
43.3282 151.908 254.862
19.8075 140.428 188.486
23.3852 222.478 178.6
30.8701 209.252 161.154
61.7987 125.895 117.08
79.0031 120.744 244.355
90.2327 126.353 229.543
84.5611 145.262 193.605
40.4288 150.319 134.007
24.1817 182.794 221.803
74.5476 106.856 236.014
61.4339 155.678 84.9903
35.7299 225.712 154.732
63.5058 208.239 107.871
37.0087 96.2201 112.082
39.7783 221.998 193.435
35.0091 193.726 82.5926
47.3366 180.778 161.976
61.4288 187.412 85.6937
76.3045 152.465 186.403
41.5863 170.303 157.86
55.1972 209.259 111.026
30.5525 120.395 202.843
34.5072 110.056 119.234
46.0468 165.624 176.566
58.8091 196.721 207.452
67.6638 110.937 209.85
37.9467 182.887 186.51
31.7755 213.442 208.282
80.3905 144.4 246.696
26.3042 122.537 235.728
64.169 107.606 115.033
24.5941 137.518 226.792
24.0741 236.39 189.63
60.2183 116.813 108.799
26.5865 132.522 214.613
45.2702 141.923 98.4386
63.4679 193.706 200.009
52.3829 140.904 90.3086
36.2416 219.561 217.225
79.831 175.134 205.11
71.8919 141.556 249.048
75.3476 187.337 222.339
79.1561 110.294 213.416
53.2283 203.886 149.279
63.5854 96.4839 112.683
53.6124 164.611 165.4
38.7351 194.373 222.497
83.7522 174.285 152.91
94.302 169.45 228.781
23.9127 169.902 189.603
88.6174 185.728 103.294
21.7597 165.391 208.824
50.495 241.916 173.463
31.6111 190.506 227.057
39.2529 149.715 174.959
31.1516 128.737 243.734
83.8974 118.106 217.086
75.1676 191.712 205.764
49.7808 103.972 209.361
28.5058 235.019 160.71
80.671 166.716 197.337
84.6318 178.621 214.261
37.7739 162.641 145.337
46.6951 106.697 220.086
50.4899 132.684 130.717
81.3768 133.597 106.09
28.3701 144.633 239.677
78.1229 154.973 160.333
20.5914 207.96 180.844
34.0234 170.021 195.644
86.5654 176.09 128.592
86.485 149.396 141.296
82.2788 121.042 236.621
49.2706 174.532 191.745
66.6809 195.051 91.0382
59.0042 182.748 246.343
48.6667 183.041 190.427
63.6303 188.345 161.698
51.4014 151.452 85.6251
54.7007 109.047 240.151
60.2426 197.522 216.53
54.1855 158.591 174.676
72.6348 106.253 221.29
25.159 232.408 199.822
47.8967 195.665 154.58
41.2822 153.008 191.752
37.9445 117.035 240.749
56.4234 117.767 249.439
59.5386 165.73 176.088
65.0246 170.862 165.988
38.1947 108.716 94.0132
58.0374 196.752 157.864
38.5052 192.959 203.869
40.217 164.297 193.827
39.2465 188.988 149.79
25.0824 179.75 205.556
49.809 111.618 202.256
43.3099 204.602 163.211
63.6132 114.707 192.051
51.1031 148.865 258.14
85.041 145.633 119.075
34.1099 99.7865 101.235
49.6174 199.923 103.134
80.3121 168.768 159.506
51.0735 142.995 253.153
41.298 118.188 96.9985
42.4569 205.681 184.78
34.7415 198.253 125.908
74.4958 153.654 248.48
55.0767 133.95 139.945
92.7248 138.397 218.18
57.2393 208.354 140.403
10.463 183.252 62.606
78.4448 188.428 214.353
72.2684 121.129 195.795
42.4765 162.362 186.112
50.0474 193.011 234.19
55.4869 193.169 91.7773
43.1148 187.632 197.872
22.7188 135.87 205.209
57.6314 185.871 189.614
42.4013 165.35 252.801
69.9331 197.83 154.103
9.81645 190.625 85.3838
90.1138 153.694 105.572
48.7893 102.919 227.461
21.0304 157.608 239.629
86.7353 124.101 194.156
24.8212 136.636 235.795
61.9168 195.279 228.942
20.0612 218.031 189.457
80.7865 142.934 96.3527
80.6093 179.287 88.501
43.3814 95.6668 121.373
85.6853 152.079 124.485
29.5402 140.195 182.101
34.8174 157.412 114.547
67.9196 102.845 210.873
19.7504 152.226 230.651
29.3129 149.002 177.593
66.984 185.751 193.261
59.3471 190.944 239.784
35.5586 148.203 193.776
49.2327 148.495 154.185
45.5886 143.448 188.894
55.0423 171.418 84.4143
22.5292 234.778 171.627
45.9796 195.756 196.176
37.5152 157.428 68.0909
54.2219 222.782 186.341
26.377 167.599 238.384
45.6031 208.377 127.144
53.2386 227.547 174.52
44.0477 96.0061 95.1346
17.2752 183.931 55.8277
84.9876 154.825 242.729
79.121 194.711 95.7946
47.2684 206.07 138.313
61.3088 116.47 199.945
41.4348 199.421 110.618
75.482 131.28 191.98
48.7697 151.389 173.674
42.2028 226.005 200.269
73.2695 165.362 164.816
24.5101 126.234 208.932
37.9401 173.665 100.454
56.7113 129.088 250.569
14.4856 194.845 69.2041
66.4491 134.207 87.3346
37.1435 172.595 83.0162
41.0695 193.347 231.606
62.6145 105.959 220.472
56.7726 222.034 178.526
21.7593 153.542 71.6758
79.1604 166.495 187.128
22.7853 239.424 175.915
47.2565 116.65 243.643
82.0761 161.818 250.333
44.6218 161.863 90.1115
56.3724 125.685 191.387
48.8178 166.617 189.337
42.7228 246.381 177.235
75.8226 174.581 190.006
44.0374 112.741 209.103
31.985 197.838 71.6313
42.4074 185.284 242.929
34.0451 125.733 236.31
50.6497 204.357 174.164
66.3414 136.791 183.365
27.3718 168.67 246.309
60.0257 214.046 182.471
27.8288 166.869 196.191
51.5238 219.827 166.722
87.4996 164.153 124.759
28.9884 191.654 91.1402
65.1101 208.15 144.803
44.9431 119.117 120.711
78.3982 181.972 199.801
56.0975 101.417 94.2451
18.9001 141.333 226.456
34.2379 164.62 82.9585
17.7965 158.797 219.259
29.9821 160.805 204.11
22.3165 226.097 210.754
81.5598 119.431 205.055
88.4304 134.183 235.192
59.3311 212.019 122.361
71.3406 177.144 253.017
71.5377 184.625 244.091
91.68 175.109 245.92
37.7273 123.122 202.807
31.9815 184.924 197.567
27.0013 185.595 213.988
43.1466 244.105 159.951
89.6454 182.082 223.926
72.5357 162.819 182.358
89.8882 123.246 217.008
15.8946 198.509 84.779
37.4984 134.205 198.479
63.0904 153.581 256.182
24.0759 157.324 204.3
90.7704 177.395 234.063
88.3891 131.246 208.882
58.1603 104.638 232.932
26.9031 207.303 179.98
54.962 227.978 161.323
43.6 120.659 197.035
34.0604 139.901 252.604
27.4244 154.599 66.0936
82.9308 165.541 86.2536
85.3109 188.701 218.314
20.1017 134.261 229.416
37.7637 110.684 210.643
78.6832 117.351 194.319
50.3483 212.985 187.239
80.5623 129.84 199.151
50.3914 121.422 189.889
23.984 150.62 214.257
56.3582 171.57 253.053
83.5229 153.673 191.801
78.5041 157.49 195.22
74.0468 132.598 96.309
67.6532 172.535 193.599
45.5117 101.302 215.284
26.9035 180.117 236.355
52.8213 90.3878 103.582
85.5805 172.519 194.11
91.1758 157.792 237.199
29.3521 180.818 230.171
36.9434 161.668 103.503
58.8411 138.84 89.0023
78.759 130.767 123.846
23.9986 201.581 72.4665
90.7872 183.518 214.707
57.0978 179.277 166.227
45.3565 178.786 94.0648
44.4702 106.837 128.101
85.2153 185.917 136.186
31.6092 178.474 193.75
43.3028 165.387 66.8119
19.1023 177.825 95.6061
26.3637 129.08 233.135
25.0746 197.636 79.6154
30.4485 191.767 126.663
70.06 167.789 257.093
66.648 150.208 251.109
65.2071 125.465 187.518
34.3201 174.279 243.75
34.7041 153.394 60.188
19.9971 195.546 91.4524
82.0369 186.901 225.55
33.1913 239.076 191.709
55.5604 106.682 196.138
52.0207 134.604 254.621
67.1425 145.976 84.0637
74.0708 146.116 86.5926
81.1194 170.96 256.048
80.9978 174.58 246.329
22.1483 196.117 63.3246
51.4115 112.425 91.1221
46.1635 244.98 166.891
64.4566 163.855 79.7163
83.9235 193.017 130.06
29.9662 199.102 87.3421
48.5578 87.3991 112.59
28.4212 190.307 58.1145
21.7837 240.262 181.908
18.1338 229.105 211.14
40.1941 175.644 250.267
50.599 105.694 130.784
66.4917 110.642 248.119
