ply
format ascii 1.0
comment Created by Open3D
element vertex 216
property double x
property double y
property double z
end_header
53.85 5.76862 82.4648
36.696 78.2586 55.9267
47.9683 107.118 70.0586
37.8472 68.6314 68.2979
49.4014 100.035 56.2789
47.1724 90.7908 64.2663
42.8918 69.5393 42.9677
65.7628 100.361 47.8134
52.2511 106.139 48.9092
42.968 92.8238 51.2087
54.4189 88.3088 65.7125
55.2785 63.4157 75.6744
82.6489 21.7724 110.333
45.5437 11.2853 83.6763
43.6222 18.4773 93.8751
56.7347 10.107 99.3768
62.3205 94.2371 35.3211
51.582 74.3115 75.9576
47.686 34.802 62.9385
60.5346 106.583 90.8202
70.7571 62.3433 58.8182
89.8666 32.5489 106.992
93.2604 45.08 94.1203
59.1961 32.6925 56.4919
61.4778 109.297 44.4528
86.1883 38.3562 119.724
63.2342 120.733 81.3808
99.9831 100.189 61.8444
96.4572 27.8485 74.8346
44.5273 28.0491 96.641
44.2539 85.3566 46.3973
21.7448 51.1365 56.0294
63.4551 58.4376 63.4749
30.0275 57.7308 53.2958
95.2295 36.241 95.736
63.6382 7.72132 85.7955
33.3872 64.1042 49.3984
48.2806 98.6439 45.9625
102.799 55.5571 139.918
50.1493 102.732 82.949
58.366 123.047 64.8158
41.099 44.3277 59.5412
82.9237 30.5008 130.195
94.473 114.84 50.2937
78.0565 18.8383 83.5391
87.4124 22.2136 75.9888
53.928 94.1755 86.3704
62.0114 84.8662 59.5766
102.84 27.585 135.958
68.8672 28.084 54.0573
87.937 108.48 87.0342
95.3336 60.3176 122.496
60.6967 6.14921 72.5924
35.822 71.9435 48.5582
79.1605 96.8842 85.3134
67.5328 76.7531 56.2507
92.0319 40.7895 144.91
89.2606 96.5123 80.9649
50.5442 93.406 40.0797
34.7137 50.1693 68.2986
74.5576 120.226 78.4088
67.5936 68.8339 51.7989
74.2287 51.3172 80.5066
71.5435 18.6079 57.557
52.0129 81.473 83.6347
71.049 124.13 64.6949
96.637 112.673 62.2223
94.6636 34.869 72.1343
81.3278 49.0738 133.261
88.8008 60.8711 127.993
48.952 86.5589 79.2428
69.2908 40.9107 54.0291
99.1822 61.8251 129.481
51.2163 109.597 79.332
77.1088 85.9416 89.1197
29.3095 63.2519 60.4002
41.1795 77.718 69.2352
54.0362 93.8206 49.9385
62.7491 113.316 86.5964
90.8534 86.3026 50.1003
76.0008 15.1165 90.4303
46.9914 87.2456 71.0035
59.8603 56.899 52.772
58.0647 123.181 74.3734
56.4563 116.729 70.4667
93.8084 82.7759 63.5405
78.8995 77.0174 45.7459
45.0169 64.6104 73.9087
101.112 48.2747 143.852
85.0175 55.0877 122.834
87.3884 75.7036 60.8964
34.8747 53.5897 46.3768
81.2155 72.2871 54.2755
94.9835 24.5366 95.5959
47.4514 95.2663 77.2587
74.3441 63.7987 70.153
33.6166 58.3196 65.6972
53.8289 115.782 60.9949
96.6794 40.0338 83.844
82.9283 117.29 81.5747
43.5781 51.6693 68.0121
86.0488 32.0505 58.8017
53.102 54.2418 67.3796
87.776 28.3957 139.011
101.321 37.996 144.772
89.8336 82.1272 70.1273
79.3775 76.7703 64.8515
77.8668 117.014 86.298
44.3537 77.398 75.562
55.4355 117.844 78.3768
30.8321 44.1402 66.7424
66.2887 77.6835 65.0988
80.8274 18.7839 65.9287
70.0937 105.631 92.6512
59.3372 71.8546 78.8658
57.8756 94.9693 55.7079
40.626 55.1908 42.5782
59.8492 27.3878 114.165
53.6699 92.3157 80.2923
66.567 75.0537 38.6987
69.0319 124.393 78.8207
95.7485 58.46 141.372
97.2941 41.5528 114.612
60.7716 14.9968 107.918
72.1033 68.7212 46.2954
53.3888 18.4776 62.1268
102.667 103.03 54.0074
80.0178 66.7864 65.5841
67.8745 65.4062 71.6556
48.9327 55.1408 42.4482
50.5074 110.264 55.5905
51.2565 77.9139 40.3061
107.529 38.534 132.704
55.3533 114.047 84.986
64.3158 37.9801 111.309
95.7473 48.3378 114.573
103.236 31.1095 125.519
75.5076 70.8535 67.6068
94.6275 30.6216 117.058
73.4646 111.814 89.8742
94.3313 89.5981 59.4983
66.2314 74.7691 85.4511
89.4229 50.6255 143.484
49.3799 47.3776 59.5283
83.6461 79.4368 79.1963
80.8599 101.54 93.8024
94.6437 26.1164 138.66
83.2491 98.4246 41.3953
64.7176 10.3197 63.6964
78.5305 81.5302 53.9407
107.056 54.2897 121.723
84.541 48.0321 65.8188
89.7792 20.4374 98.1862
59.2538 116.043 49.2726
92.6983 44.5975 79.0986
79.7052 33.0833 117.259
75.3397 108.204 95.8219
43.7094 48.3946 53.0818
91.8469 98.3707 46.3136
78.9709 25.2871 55.4192
39.7367 88.8807 65.4579
109.297 44.899 121.353
89.1151 46.4484 115.115
61.2422 86.8018 89.9709
86.6427 80.8307 52.0623
108.762 52.6961 128.13
71.1558 66.0821 78.2878
88.0251 34.9635 142.311
86.0239 44.4207 142.814
27.0117 46.9021 55.8821
70.4368 25.384 118.84
89.2091 39.6817 67.254
32.9794 40.386 59.8098
92.1232 106.555 41.3865
51.283 23.3482 108.493
79.8781 91.3862 39.4469
75.0115 96.5642 39.7695
86.5753 102.221 87.2794
105.833 54.6057 134.656
94.8221 104.152 76.8971
80.8877 84.2761 42.5099
87.2906 54.6693 88.8699
41.8242 92.3411 58.5976
82.9043 111.674 91.3489
64.567 66.9097 80.9014
68.6313 113.051 41.8234
83.738 40.5322 59.6452
96.6855 105.332 51.9975
55.052 37.7224 95.029
88.5743 111.562 79.5373
96.5886 112.397 71.0777
69.9534 49.9963 66.5677
86.4926 51.9997 76.3677
87.9718 58.1657 141.431
98.0054 26.5157 123.141
91.0857 25.7074 126.854
83.2606 116.284 46.0531
72.0047 104.456 38.4704
84.2235 52.1539 97.2285
43.6411 100.309 70.5266
87.4455 86.8691 74.6967
70.0476 125.031 57.7631
78.9459 56.0241 90.2581
75.8711 97.4538 96.2775
99.4713 34.9523 114.356
101.603 51.5103 114.783
65.5472 50.9006 73.2636
87.3699 19.7078 90.6625
83.6462 105.985 40.9053
75.7873 122.535 51.2831
71.7097 51.1987 73.773
75.1987 115.805 42.0937
91.3986 115.509 75.5887
66.8271 98.9441 93.915
63.4495 95.0168 93.5381
84.2869 75.396 69.3212
