ply
format ascii 1.0
comment Created by Open3D
element vertex 817
property double x
property double y
property double z
end_header
42.8717 159.416 87.8524
22.2256 111.938 130.885
51.0688 52.6732 94.3466
36.4194 216.64 198.669
48.6806 70.9493 96.7026
62.4417 33.3589 154.924
65.2499 69.9606 137.625
46.0384 26.7761 132.257
39.9414 123.729 101.505
56.4898 27.8559 139.277
17.9154 182.042 107.635
58.5175 158.691 128.914
18.0242 75.7632 38.6688
52.7422 82.3324 91.2322
26.3126 178.302 178.959
37.6791 47.7269 161.656
19.0464 190.817 116.457
34.4613 50.5257 152.861
23.479 81.1922 148.481
54.1191 136.858 109.303
21.3891 183.542 95.6224
49.346 117.133 184.085
41.6648 196.406 76.028
57.1278 204.917 195.995
23.8563 214.203 99.7745
39.7234 118.701 177.849
98.2523 95.6777 127.39
23.76 120.936 132.197
42.7221 82.6957 186.93
82.7504 83.7124 121.78
48.1281 123.755 96.0941
41.8382 130.892 110.799
81.4577 187.06 84.1478
33.8194 64.0957 171.239
72.9311 57.7386 101.431
18.2753 74.2477 130.396
28.0796 107.578 107.684
34.9249 167.195 157.533
52.9667 160.789 79.1883
60.3705 135.841 102.134
39.7226 128.938 169.712
80.7344 168.921 115.592
83.3147 65.9282 92.66
42.1018 192.344 66.3591
52.6813 155.495 117.288
38.0827 209.79 203.791
52.901 79.1672 190.653
101.902 191.016 80.1611
73.2538 68.2314 106.857
79.6793 84.3501 147.356
48.341 200.804 68.3042
67.3645 60.3454 111.928
22.0049 204.874 100.439
61.3492 58.8266 125.902
49.9274 195.61 59.6585
99.5198 122.739 128.769
78.3554 131.337 169.875
69.7489 81.0645 127.124
63.1859 141.725 111.853
61.1504 51.5916 179.524
75.24 158.464 119.208
63.2506 49.6646 129.336
39.1875 29.3329 125.82
57.1733 38.4015 168.62
36.3089 114.534 100.556
44.0054 36.297 155.168
92.6008 139.983 110.169
18.7228 84.6806 133.149
32.3569 173.362 191.424
56.3884 61.9134 86.0088
79.9162 188.741 64.965
62.5405 172.539 194.672
50.4453 36.1529 161.388
23.968 181.982 87.0755
18.5064 173.506 102.517
32.2658 80.6253 178.917
37.3817 103.48 102.228
43.0172 97.4041 99.5786
85.3566 117.981 153.747
22.863 97.9781 27.185
44.4901 86.3218 99.6047
19.9468 78.2067 139.776
68.6938 80.2479 187.63
44.7128 156.45 102.926
22.9106 87.729 143.578
121.114 132.429 79.0616
72.3955 169.866 62.4988
64.5038 34.4198 118.343
48.5543 178.663 125.241
52.9924 81.4637 66.6081
93.9929 177.287 88.5806
53.7288 152.317 108.493
138.138 137.209 61.4385
57.586 28.6548 109.17
83.4302 77.8735 108.868
30.4195 92.7856 108.016
78.1103 154.067 106.566
80.9285 69.5159 75.3302
48.1975 166.959 71.267
95.1543 188.831 89.0388
78.1731 108.772 176.468
47.0123 157.505 180.225
25.3022 104.426 31.9297
66.0353 129.377 92.9612
28.3736 166.31 178.618
22.9358 68.9037 53.8064
54.6569 129.381 98.899
27.3496 175.535 82.1483
60.7223 91.3886 82.1699
60.3787 196.874 201.348
26.8372 206.255 153.611
67.1467 50.3846 167.865
25.749 125.437 151.207
74.6098 125.836 87.7896
101.571 104.07 129.298
25.4121 98.1384 155.266
34.9186 133.848 134.724
102.864 115.821 101.026
32.225 217.864 162.418
18.477 78.8068 118.021
59.6578 196.45 54.2289
29.9944 116.929 107.373
68.6752 94.5666 189.129
86.1485 131.501 159.397
43.3819 34.339 143.832
25.7241 166.506 115.773
29.0245 71.3849 168.569
122.633 150.5 64.3984
24.2058 55.8815 130.942
48.104 220.669 200.526
36.0958 179.284 126.372
57.4619 167.115 144.218
41.4268 182.424 140.668
29.464 103.086 23.1866
42.5858 28.3726 116.884
144.524 162.946 52.7036
82.9187 120.246 165.812
76.2354 214.964 163.769
102.073 112.027 118.858
56.4506 134.328 166.232
70.7915 47.893 107.351
46.4684 157.769 123.325
22.8971 105.818 116.901
57.4307 69.3894 35.3171
59.0737 43.2768 91.146
71.3205 142.084 108.133
68.3048 72.2593 183.105
80.5376 137.457 98.8167
138.733 143.745 56.3918
80.7738 198.757 59.4587
18.7418 92.0428 43.8991
84.1355 197.457 87.3378
19.0557 203.043 108.986
33.3362 58.3217 44.3816
48.3149 60.7359 48.5925
35.0667 108.97 179.405
27.3612 185.504 151.095
38.4874 67.0682 183.003
73.61 68.931 147.018
18.8571 84.5417 48.5644
20.7036 101.189 37.5607
25.1862 167.237 101.675
67.746 41.2639 93.0942
21.3148 79.8073 57.4855
74.8396 50.2618 85.1141
73.2735 108.896 184.977
50.6302 28.9551 148.956
44.7363 45.2771 172.924
64.5423 40.5998 165.517
107.253 143.881 91.3948
37.6002 160.751 121.882
120.129 144.199 66.5814
53.0515 103.63 27.9186
33.4431 187.016 139.129
82.26 60.296 81.7056
36.8584 56.7467 174.828
34.2807 221.98 85.7942
21.279 188.288 184.762
50.4115 66.3262 61.5675
20.6069 191.634 105.199
23.6906 173.52 92.3533
62.0989 64.736 123.032
48.6248 102.105 190.838
32.8453 107.559 46.9571
62.6465 33.359 142.885
62.5523 80.342 192.087
50.0865 61.7801 187.185
61.1062 158.563 172.473
79.4194 143.85 149.431
80.4738 161.522 110.58
68.9117 117.179 86.3627
61.7687 74.8506 79.9736
72.3472 192.343 119.556
54.1927 208.449 63.6272
56.8025 54.0785 86.336
98.8755 176.726 105.709
29.0733 218.185 185.851
96.1336 127.959 98.3285
46.7261 44.3485 104.893
97.9074 97.9853 85.0641
133.626 165.569 62.8466
73.818 131.671 98.7102
55.948 139.382 118.952
26.293 194.507 184.241
39.9547 74.6659 106.25
29.2547 168.751 185.917
59.7223 117.045 185.871
42.0593 99.6131 60.6671
33.4217 89.0154 182.43
91.0258 209.531 83.5957
152.01 139.546 58.6949
23.9573 102.372 45.9435
63.827 82.2424 42.1766
135.149 131.336 70.4912
40.428 41.733 148.144
73.6722 145.179 124.634
56.0181 172.226 58.5551
33.4 101.462 181.996
50.0165 215.81 166.724
50.1829 205.01 203.121
22.668 122.496 143.537
27.8591 69.4896 60.2067
27.149 91.4819 21.2986
53.9738 186.902 112.598
24.5865 81.4518 162.094
35.7337 41.7081 114.812
81.014 69.5005 101.28
26.0077 55.5366 138.433
42.493 227.27 171.363
58.0825 85.6732 84.8417
81.1767 182.652 74.3121
41.7257 103.883 23.8868
83.9402 212.907 62.3479
24.388 55.4754 118.731
149.332 145.725 53.4395
57.8868 25.2205 125.845
32.6619 62.4425 33.2713
75.2288 177.66 151.027
90.1414 213.606 74.0471
124.939 135.232 69.6742
67.252 138.9 140.98
80.7599 142.615 107.114
53.7988 69.9544 89.5882
92.1319 85.089 110.309
43.5818 179.714 63.8673
56.3877 228.45 66.7165
59.8503 205.495 56.4111
72.4112 183.125 56.7126
45.3304 219.309 162.737
48.733 34.5651 108.104
22.4052 87.2881 27.3688
32.3071 49.2847 144.421
23.3154 64.2697 38.8499
74.8458 203.091 53.7742
44.324 106.931 50.3581
27.0215 56.163 146.542
44.7636 234.179 82.5683
32.3196 130.966 124.928
73.4942 79.477 136.324
30.6643 112.293 171.257
47.9958 137.685 153.395
58.145 102.949 36.9637
82.3776 147.964 128.874
43.4549 107.203 96.2223
56.5764 211.732 190.673
30.4149 119.527 168.015
40.6811 98.6382 184.664
93.826 79.3986 83.4942
146.485 168.322 48.123
20.9424 67.4975 135.78
114.06 137.432 76.4764
79.0083 192.006 162.587
48.5033 132.24 172.243
29.1401 129.809 142.109
44.6979 161.97 129.933
33.152 86.5214 19.7063
22.2093 174.5 119.61
66.063 234.892 88.2351
53.73 168.376 188.163
33.6447 39.0734 128.28
84.6641 189.341 94.4604
71.2373 104.584 83.5117
62.7272 91.8015 49.3964
36.7678 229.647 89.6985
26.3234 62.0185 49.6441
24.9063 218.365 157.81
39.961 155.47 163.211
40.8221 109.861 39.3988
73.0525 197.272 150.591
31.6629 200.581 199.88
58.2994 148.353 97.4382
62.0102 94.3063 41.2717
58.9637 219.279 195.711
62.3857 152.265 114.857
25.922 211.073 168.021
59.7758 73.046 51.4824
36.9332 68.8774 25.0178
41.1428 162.704 188.085
109.715 142.238 83.7082
145.032 177.155 48.9953
74.9278 76.3277 74.1184
33.4123 102.504 56.4972
170.372 159.655 52.5442
44.6634 210.94 179.342
96.6557 161.695 83.813
86.6755 187.889 101.826
47.0643 173.398 65.7003
39.3785 184.835 120.652
130.842 148.41 58.9381
56.4473 136.618 131.082
25.3366 75.9396 26.2982
91.5197 91.2474 119.876
34.4887 130.199 159.682
69.5527 138.808 154.81
65.2955 48.0731 85.3445
61.5587 163.42 154.866
49.5176 93.0862 193.082
59.377 77.801 58.8951
47.6596 177.669 195.182
54.3586 54.0885 181.749
28.1679 46.9268 132.264
103.309 112.412 109.73
99.4024 133.065 118.22
71.8992 69.3524 172.964
31.7688 166.349 125.432
25.1397 114.432 156.581
55.9107 158.975 180.508
39.3797 219.846 176.132
83.2941 174.413 109.027
34.4378 168.064 194.504
70.8377 91.3912 102.446
61.6337 64.3457 183.373
82.3367 174.376 99.7871
173.009 169.826 53.5912
21.1483 105.437 139.48
68.8606 233.149 173.145
34.1765 161.74 188.432
96.9171 129.156 145.753
51.954 193.418 207.068
37.3506 74.935 182.45
59.2297 96.6719 191.699
83.2898 85.3471 132.536
40.9704 153.488 186.551
103.775 121.428 114.08
37.0639 195.462 114.772
58.1944 92.2856 26.5786
63.9397 154.868 154.29
51.3281 125.515 180.026
65.3436 39.2739 130.719
141.302 186.863 59.464
29.019 219.953 92.5881
41.5271 60.514 56.9383
61.6938 154.935 181.828
138.136 152.574 56.2163
26.1514 176.584 188.642
34.5759 158.651 181.473
65.7583 225.415 150.147
66.0948 216.171 195.575
39.8586 135.349 152.201
91.2414 220.333 85.6998
89.2925 71.0494 87.9036
83.9824 222.734 70.7597
61.1251 77.2095 32.5345
25.6393 118.966 118.342
54.5093 64.9639 53.2312
69.826 58.8037 166.282
19.2433 177.329 113.859
49.568 107.53 34.4926
69.9098 46.7963 154.806
63.9786 108.013 85.8503
33.8235 164.356 108.494
74.3472 78.5494 173.628
39.9932 221.353 162.38
174.667 192.382 91.8913
64.1552 142.346 122.283
41.0263 92.2206 186.945
40.9299 151.265 173.431
54.9414 96.918 56.9883
19.8273 90.2816 32.3232
53.0227 156.869 152.558
101.669 92.6224 93.3715
158.354 159.751 49.0781
68.9405 210.34 53.8994
86.2312 147.005 141.923
81.8447 97.7442 75.8413
90.1948 204.432 90.7264
164.608 153.343 52.2077
42.1484 111.208 184.522
44.18 76.1979 68.3571
155.182 152.379 50.7178
45.41 51.0701 180.716
128.58 139.527 62.636
91.811 203.349 107.531
50.2609 150.385 99.8273
80.995 177.139 85.4776
70.0044 60.9212 146.925
142.819 128.09 77.0976
34.8117 134.418 145.223
82.1079 169.179 86.0736
162.719 187.199 56.2311
35.1037 170.284 130.097
98.1956 197.559 91.309
76.8948 229.798 70.3301
67.6181 137.255 99.3347
46.4132 147.279 179.171
46.7477 63.0937 98.2614
45.246 87.2361 68.586
161.771 142.013 58.6315
56.8284 146.619 180.943
26.1845 185.25 166.273
83.8074 111.579 78.6971
53.4155 220.477 186.009
78.8733 165.922 78.4806
18.7847 194.554 180.984
82.1069 174.948 121.014
89.6466 146.186 117.91
72.6268 59.4724 78.0556
144.864 133.746 64.5439
41.4064 135.487 160.767
25.9427 91.4368 60.0115
73.1393 197.918 169.456
21.2932 204.68 175.356
52.2865 150.967 89.4918
99.4794 154.789 91.4603
48.69 225.097 183.29
68.9364 169.459 158.406
38.3795 226.569 181.728
69.0637 158.755 179.848
29.5038 222.355 102.134
56.7379 201.718 101.063
45.174 186.345 59.9283
85.2937 201.802 68.8111
42.7968 68.6261 103.469
60.6792 124.39 181.69
116.934 185.463 71.3331
99.1017 94.9698 109.597
49.0783 64.5661 34.7812
52.1077 232.346 72.9353
63.1493 206.13 189.869
46.9432 212.977 205.617
95.0264 184.6 98.6155
53.5495 199.037 203.319
96.1278 139.937 122.906
74.0732 228.39 167.834
38.6138 165.172 83.8323
61.977 178.278 53.6497
81.3162 181.558 93.1056
157.842 221.196 82.8557
48.746 147.494 168.639
52.1281 183.298 54.9586
35.8664 83.6868 68.1355
94.2107 86.0278 133.998
109.453 199.926 77.544
37.2381 180.845 202.415
102.858 181.28 75.8452
70.0439 39.1431 100.491
32.6706 58.672 162.691
96.5189 163.259 93.5097
48.6939 95.2785 63.1144
58.4408 162.246 96.095
70.2401 176.116 56.5689
29.3858 183.156 77.803
52.0551 91.0304 90.1915
96.4163 194.945 84.2278
33.6029 94.1868 64.0624
171.502 143.046 62.0558
154.856 189.42 54.3207
38.8901 227.801 99.8452
54.3518 70.9721 187.674
159.105 130.247 77.3725
61.1136 194.946 184.128
70.8683 151.783 87.7144
38.0027 162.082 100.785
134.044 187.952 65.9759
61.7992 85.693 56.4964
90.4043 85.0339 143.918
88.5329 100.037 76.7599
26.993 67.882 161.322
40.9108 173.079 192.694
59.6297 210.543 134.139
87.3941 225.13 79.6936
72.2444 149.935 96.9582
22.1233 200.73 116.445
69.3824 161.004 69.484
85.8277 87.6545 75.3613
69.4802 158.301 126.325
38.8993 218.205 80.3688
49.0337 162.627 187.651
95.6505 84.1701 97.9789
48.9006 208.84 74.5928
116.066 162.858 68.3067
21.0897 193.961 154.183
22.3793 96.5808 139.965
80.1823 159.121 88.6619
73.3259 180.24 163.262
65.7668 221.946 142.954
60.8749 132.628 173.108
52.0967 160.237 145.832
76.226 203.037 113.837
46.5173 114.549 92.0285
41.1163 60.3529 38.2521
35.2598 98.1993 20.4187
98.6027 99.8662 117.804
36.0951 80.1048 19.7913
54.2716 172.057 196.59
33.3498 198.553 91.6735
163.487 146.521 53.9473
23.9612 211.383 109.658
28.7684 206.462 187.229
48.2731 137.786 139.96
51.0698 184.621 152.78
39.1349 37.8284 136.945
26.7059 129.118 134.872
40.2838 218.688 105.245
78.0008 216.239 150.078
68.3233 156.973 171.976
46.0998 198.418 205.375
72.3838 164.395 169.497
59.8996 178.571 145.1
145.975 154.98 51.4714
46.3843 82.623 18.7107
115.136 206.189 79.2042
62.7953 194.283 106.55
45.4446 136.652 131.694
67.7776 228.042 63.7194
43.4502 188.509 114.065
25.8398 199.659 162.34
57.5276 212.389 167.314
25.7972 102.628 165.932
61.6978 105.105 104.933
63.3947 165.702 62.5241
64.4996 218.964 58.1869
67.3056 209.321 180.875
26.1192 178.11 126.13
55.1138 201.655 152.741
58.4329 109.535 190.189
183.166 160.555 60.8854
72.6745 188.235 174.027
66.5751 151.11 166.539
89.9126 78.0892 96.8965
47.5108 215.563 187.795
59.2062 186.599 52.5982
130.828 129.739 76.436
35.5795 214.429 108.548
71.1818 229.847 178.234
22.4027 200.909 182.257
64.7363 162.483 185.704
147.14 131.514 70.0655
56.0777 87.6196 60.8845
76.0387 186.248 155.382
51.3183 229.184 96.0627
23.3408 53.4353 124.202
49.9882 188.994 138.24
57.2047 112.449 87.7901
28.267 125.576 159.055
31.9718 210.683 112.552
87.6588 185.214 109.481
61.717 94.3664 32.7943
62.5975 147.868 173.518
45.2369 200.631 128.871
29.1985 177.587 160.205
33.7084 60.7052 55.6634
37.1356 107.6 29.6746
24.6313 69.5954 33.0024
68.5981 101.174 115.127
154.421 132.552 66.9365
81.18 229.423 79.0179
74.1931 208.083 172.114
58.2996 121.08 90.2773
35.7589 220.688 154.468
38.3719 212.594 176.543
68.2612 174.209 149.155
68.5596 80.7289 76.5282
72.3805 166.455 130.542
36.9223 159.979 174.998
165.619 178.796 52.6734
142.323 219.403 73.4284
75.2063 218.492 59.3758
49.7369 219.328 98.531
31.7633 203.133 136.63
55.0344 229.182 184.692
70.3814 53.7812 160.183
72.8816 191.098 54.0904
25.0424 190.314 175.244
33.8716 195.273 192.497
162.868 136.689 63.9274
102.043 155.419 81.7018
57.8965 220.515 63.5854
30.352 220.192 170
72.8421 165.134 177.962
43.6538 226.895 159.976
49.7498 169.986 141.322
116.757 132.923 85.855
98.897 135.244 134.396
46.6136 188.772 206.508
63.4998 162.511 147.465
65.3144 182.35 153.79
48.9802 71.2753 66.5639
44.796 155.576 153.51
40.3028 87.864 18.2275
129.558 220.71 85.5006
34.8629 189.206 199.562
64.8032 196.822 167.29
53.1548 222.199 159.241
41.0478 226.874 190.66
83.0416 103.732 146.535
57.0912 177.126 128.143
54.0435 206.415 181.952
156.949 217.891 69.4766
74.3296 223.973 183.321
32.791 181.834 196.315
53.6762 103.782 47.3847
38.446 170.912 76.2698
154.556 177.745 46.7531
50.045 177.882 202.69
33.4743 214.079 143.052
30.1431 42.0812 121.918
62.45 173.291 149.154
70.7918 190.257 156.921
56.0049 227.586 176.872
65.0705 68.0423 78.0889
30.4011 224.822 179.087
71.0286 215.719 101.75
66.9653 190.1 144.1
44.5795 191.779 141.536
26.1472 211.69 175.661
90.7659 195.317 116.098
67.2124 41.8074 150.072
47.4661 172.045 132.434
177.968 160.456 55.6921
45.4141 227.43 74.2389
61.2892 204.857 176.894
34.8405 73.5433 67.1524
169.139 140.427 69.2796
43.6997 161.387 146.387
95.5033 140.314 142.687
32.896 165.539 93.947
44.5146 233.763 92.5326
70.9119 225.174 191.777
128.768 218.903 77.0056
46.3468 154.137 93.3898
56.8643 221.502 173.576
161.103 212.515 65.3047
58.159 38.131 96.9055
61.2279 172.704 133.651
61.637 154.573 77.9902
70.8461 171.598 181.277
28.7544 211.602 156.781
57.2947 148.422 166.513
63.3113 230.119 182.682
46.4932 214.599 196.995
61.704 202.225 168.474
42.4161 172.455 142.646
87.771 205.736 75.3596
62.7087 191.196 156.38
74.0254 224.849 94.887
146.746 211.087 66.2512
111.332 159.246 110.301
38.3468 156.597 154.836
150.795 223.283 94.1752
102.341 167.644 108.788
27.8227 189.324 121.532
59.3129 223.402 164.617
63.7063 185.121 184.286
158.317 183.272 49.1945
71.707 76.942 117.212
70.1097 99.1489 108.407
31.0475 201.314 116.332
42.4941 190.393 200.933
72.5679 231.509 80.0466
44.6169 105.558 187.593
79.4906 96.82 158.499
87.4756 92.9609 143.787
31.2909 212.803 178.674
50.8211 223.179 193.143
40.65 204.102 109.758
50.5845 203.796 137.174
43.1888 170.812 200.89
64.7025 178.147 190.21
45.733 137.736 125.367
31.5216 109.838 36.0731
22.8017 193.988 194.464
52.8237 211.624 174.557
83.4326 163.82 94.016
68.2093 148.845 106.177
92.8119 213.462 90.4466
26.4158 211.773 145.003
169.161 136.537 81.2095
98.8513 193.691 98.7302
23.0972 204.034 168.261
81.4943 215.985 105.281
29.3037 195.555 157.413
123.742 173.856 68.7695
33.9188 225.507 187.868
51.7237 76.7077 24.0818
73.756 226.505 151.382
113.819 173.385 70.2095
72.688 211.039 138.858
77.6528 223.201 165.92
63.1797 217.245 132.493
54.1047 138.619 159.621
124.995 129.916 86.9657
68.2476 187.977 164.658
110.195 150.373 75.4563
77.8121 175.803 166.403
73.4758 219.173 177.627
68.1711 185.941 191.646
53.9773 193.202 140.802
65.2896 227.567 166.934
88.8667 198.712 98.4194
50.7039 224.354 166.704
50.2858 150.281 159.461
169.496 185.654 56.9954
157.924 168.297 48.0626
25.5138 187.986 195.012
75.3113 178.679 176.903
47.6485 216.51 150.674
70.5305 161.532 155.766
55.4647 161.197 69.817
29.9373 201.299 142.948
70.3061 180.391 179.652
116.402 212.846 92.1776
98.4056 170.024 82.2777
66.2088 92.909 108.437
57.5569 175.656 140.699
65.6087 59.3906 80.3207
45.0461 217.498 74.8371
61.9281 216.468 141.519
27.2205 194.417 145.18
51.8614 207.012 129.447
63.5617 96.2786 102.276
75.5856 155.78 83.2221
69.1106 214.04 148.647
180.884 150.352 69.0362
74.8185 170.893 174.358
77.4354 168.816 160.198
37.8815 219.077 191.95
94.8267 111.763 83.438
22.3027 63.6393 140.014
134.587 127.476 85.6613
52.1443 88.5363 17.4047
86.586 204.265 117.765
123.357 165.781 66.2611
38.3516 201.143 132.623
108.672 176.365 71.0718
55.0253 191.264 147.247
46.1526 212.26 136.334
72.0719 174.472 132.496
57.7865 148.995 159.365
74.9656 181.632 171.708
66.5643 206.29 170.425
81.2291 104.406 155.725
71.7606 193.379 177.106
25.1695 191.092 190.086
66.8497 202.265 145.068
102.704 156.782 100.731
62.1887 230.091 173.14
185.207 163.828 70.5445
41.6124 219.907 150.169
75.1233 206.694 157.897
180.862 169.463 59.5524
56.7502 44.4507 175.717
39.324 197.436 138.108
172.417 150.115 56.7083
22.5434 70.7861 143.697
39.0227 176.913 198.917
56.9431 201.875 142.617
78.0876 88.0605 74.5472
70.3251 159.371 165.832
65.3826 220.292 98.2612
98.3864 164.403 102.945
177.434 144.083 72.626
79.3375 197.183 122.668
183.753 157.147 66.6537
55.0106 35.6202 103.245
72.2306 225.35 160.029
36.9702 192.695 205.225
64.0499 227.297 95.5087
67.5454 180.54 130.346
67.7521 107.048 108.331
150.248 127.548 77.331
178.978 149.414 61.0897
54.8169 217.044 138.171
59.5162 197.267 144.534
179.08 184.573 60.3205
84.1337 211.801 111.904
66.6996 186.753 121.395
122.448 194.634 70.4401
165.477 204.738 63.4584
103.294 200.758 79.7403
120.895 214.012 80.847
87.1393 185.843 118.972
149.056 217.784 109.27
66.2413 196.698 180.706
90.2542 217.12 103.723
64.1773 149.794 87.5814
70.0917 232.895 157.908
61.8646 221.201 170.066
82.771 223.006 96.8932
66.2186 181.006 147.192
182.736 155.156 76.7665
93.0781 119.981 148.725
42.3421 43.5788 166.902
100.168 171.889 76.5244
100.501 113.686 89.9983
111.225 169.053 114.952
149.608 126.524 85.6661
38.0692 92.3115 19.0056
83.3032 119.867 83.4543
48.8789 184.718 157.26
100.403 192.917 105.344
167.794 194.574 60.2208
166.41 133.061 72.8925
155.731 198.858 61.5891
67.9499 137.337 147.428
81.2094 112.765 154.959
63.0344 198.619 143.073
