ply
format ascii 1.0
comment Created by Open3D
element vertex 87
property double x
property double y
property double z
end_header
19.9906 61.6336 86.7297
29.5548 83.7732 104.086
25.7567 90.2485 70.9577
12.9555 77.7908 82.0509
36.0946 78.2482 71.284
25.9187 81.0244 92.4153
16.8579 73.129 71.7942
47.3536 76.8729 100.538
34.0215 93.2652 63.8857
10.0608 65.1954 85.1275
14.2377 87.4701 87.968
28.2945 81.995 64.2832
36.4603 96.7087 102.427
23.9002 91.8497 109.156
23.9113 55.2928 96.0029
30.0698 102.726 72.6342
27.0487 69.2014 110.222
7.18468 74.902 85.6778
38.1715 98.0386 80.796
25.2751 104.201 98.3709
35.7213 92.0879 109.977
12.7528 83.2121 102.606
14.7626 95.9582 88.4051
19.3799 85.7054 108.943
28.073 86.5817 78.2616
31.9813 75.0327 99.6957
48.8855 84.828 106.717
30.0208 96.9697 98.7777
32.3537 110.767 96.2429
14.4739 66.7834 97.1879
12.3577 70.2508 80.3654
31.1486 107.44 103.151
14.9468 66.0933 75.918
27.5988 102.854 84.6289
17.7186 71.1494 85.3936
20.2107 93.2601 102.062
21.2838 92.7645 82.1524
23.6884 93.7407 92.1712
29.267 70.6136 82.6019
26.0581 100.14 105.58
17.864 95.9748 94.7959
26.4993 75.5909 70.4204
24.5069 66.1603 93.9743
37.2991 65.332 109.071
30.0964 73.5786 93.0067
9.18717 90.4536 83.0662
32.236 100.637 89.3508
33.0446 62.1119 99.346
31.4916 86.52 94.3832
30.4069 67.4918 92.8416
29.6419 80.0696 80.5901
35.9346 90.4743 99.9388
37.2963 86.8875 107.152
37.0823 95.7975 71.6164
39.3466 88.5617 121.393
31.2355 91.6929 95.8357
26.2561 75.8845 116.133
11.7937 80.3367 92.3989
35.2579 103.324 117.241
32.1353 71.8876 118.282
20.9937 101.947 86.8497
45.5717 82.6617 116.878
38.7879 73.9848 102.227
18.5731 75.7502 106.019
19.2546 80.834 113.165
11.1594 75.3643 100.923
8.558 83.9309 94.9592
22.9458 69.7585 88.2768
14.4239 63.5503 86.8106
41.7151 93.2564 116.99
37.9111 104.652 105.881
14.3537 75.2909 94.9235
28.1242 61.81 101.47
15.1422 61.4194 92.3905
24.0678 60.2776 102.879
37.292 67.1727 99.3263
26.9222 104.787 111.052
30.6426 60.6589 111.129
39.5548 72.643 113.791
40.0376 88.1348 73.2276
46.3538 72.5393 105.897
17.8566 70.0936 78.5064
37.4095 78.6686 100.245
19.6148 68.328 104.179
18.1493 88.9304 100.074
40.6129 69.9527 106.688
31.4202 63.1839 106.865
