ply
format ascii 1.0
comment Created by Open3D
element vertex 91
property double x
property double y
property double z
end_header
56.1406 89.0315 105.517
13.4355 130.946 111.052
81.4027 141.959 108.736
74.8251 106.315 86.7832
56.7574 157.766 122.135
39.9046 152.497 135.693
82.7307 113.622 104.556
34.204 153.054 122.37
79.2521 152.858 137.993
20.5448 90.2161 89.7495
78.673 143.17 121.866
65.6482 154.776 127.116
11.2869 105.223 112.426
78.8499 115.603 117.08
74.0739 161.816 136.833
44.5516 135.486 103.345
87.688 173.741 138.648
78.5245 133.439 121.214
63.9119 155.312 114.393
45.1666 157.929 125.724
73.4303 150.59 112.899
55.8881 103.233 120.301
78.8951 167.996 145.091
28.6554 83.6302 92.044
77.1275 104.55 100.377
16.1179 125.249 100.131
28.5075 130.454 136.426
52.4766 156.695 133.329
61.8011 135.252 97.0104
84.1965 125.526 103.873
82.6731 133.252 91.937
80.7222 126.616 117.294
42.9661 117.855 130.276
49.3224 155.219 115.372
63.7393 147.551 104.993
99.3703 168.61 128.566
32.7522 85.6556 107.739
40.427 148.784 109.983
37.968 82.1427 90.5045
17.4631 134.892 129.528
52.3919 141.308 142.49
22.6796 92.8694 113.275
66.5878 138.661 136.01
32.9069 134.332 103.911
77.902 113.763 80.6439
58.773 150.311 138.185
24.8993 148.026 125.395
11.1622 101.397 98.1411
65.8571 100.637 76.0157
45.493 83.2493 100.139
54.2588 143.167 106.04
38.5192 87.2236 78.8059
66.8176 96.6372 89.7605
40.9338 144.222 141.554
66.8541 92.1188 95.4491
54.9966 92.1026 78.7495
72.6893 146.123 129.822
13.3155 126.905 123.45
83.1135 164.707 121.96
17.3853 142.64 120.848
33.3688 114.755 130.233
76.3219 141.526 96.3904
20.3062 121.122 92.0621
28.2047 141.831 135.914
49.891 117.779 81.9437
64.1349 116.436 124.7
61.4842 98.1718 113.378
84.7245 155.084 124.698
17.065 102.992 86.2267
95.4313 165.738 141.387
68.8631 99.0059 109.178
27.3726 97.271 120.198
28.0298 93.0115 78.5854
54.2208 121.841 93.2979
40.3976 108.258 71.475
20.1573 89.5305 103.306
42.8071 133.588 142.203
25.3859 111.984 127.486
81.7482 122.904 84.0294
48.2196 83.1169 87.5609
35.929 100.846 124.387
49.2622 97.0009 69.0678
73.2982 105.035 113.632
24.1784 104.151 79.3728
23.9493 141.144 109.787
62.0557 106.238 67.5675
56.4124 113.697 70.7334
47.9743 118.417 93.7569
66.6209 122.811 80.4145
54.3253 84.6014 90.0213
55.0686 105.244 66.4642
