ply
format ascii 1.0
comment Created by Open3D
element vertex 86
property double x
property double y
property double z
end_header
26.2661 69.2806 101.218
29.5204 78.4563 99.4471
36.0584 61.7363 105.538
32.5211 73.4885 84.7648
37.4721 95.1142 78.6512
31.2191 84.3743 93.8013
29.1163 103.988 80.6903
25.9355 67.7374 81.2472
33.1544 94.3047 69.5561
19.6063 83.4666 73.8747
23.9734 100.299 70.6734
36.3023 76.5479 112.486
23.3452 66.0797 90.9942
30.2048 94.1207 81.8117
26.3596 92.0254 73.6081
22.077 72.243 84.2672
16.0601 67.6735 88.8146
14.4013 89.7141 75.5416
10.2317 75.978 79.6063
36.681 76.6111 106.203
22.521 78.239 94.9816
27.8597 61.6501 98.3158
21.9195 93.9381 65.5584
26.4819 90.6106 95.2447
21.9919 87.9209 67.9585
33.5066 85.9627 68.5899
14.2781 97.3856 83.9252
31.2576 70.3071 112.246
28.473 59.6745 89.6876
32.0289 66.0381 106.96
38.3751 91.1543 85.7471
37.9157 77.1241 95.6193
17.4288 76.6517 79.9014
45.1064 82.3783 88.0995
14.491 91.2735 100.88
26.0766 78.7348 80.4972
17.6272 101.455 71.8277
16.9623 85.1453 94.0872
11.8403 93.2184 81.7948
19.7423 88.4668 108.521
37.7851 80.0073 78.5711
15.9578 90.2976 87.1337
22.5292 62.359 99.4188
35.9121 93.1183 95.1126
22.103 107.548 79.0881
25.4195 90.0954 104.836
34.6542 94.2333 87.6954
48.2348 78.5414 92.0933
18.5285 100.22 79.8805
37.1459 65.7842 88.9856
32.1275 78.4956 74.9961
45.5094 79.0925 73.9621
18.4599 112.089 97.877
26.2976 81.6176 108.547
27.2265 84.4705 67.4991
17.628 78.6065 89.5596
18.2801 107.423 86.6148
18.8856 86.9295 80.4058
28.2353 104.485 89.7233
14.2513 101.22 91.1973
24.4685 78.3626 74.5858
19.0889 93.6203 91.6729
42.0257 68.9936 85.5331
27.8346 91.1344 64.8121
29.3273 57.55 101.042
29.7527 100.095 93.8803
35.9396 82.6256 86.8451
9.33107 76.742 90.1317
46.8307 73.8133 86.3415
23.8524 90.4513 89.5324
27.2377 82.1589 73.1017
9.39041 89.3965 88.3375
21.6251 95.8509 72.9303
22.5509 94.5951 96.1107
32.4015 84.0063 105.177
18.3337 100.863 96.6499
32.3367 87.9318 107.166
19.6337 84.3065 100.009
31.4568 36.4708 73.6881
16.9712 74.5997 84.951
31.8653 74.2305 108.216
26.7405 70.9071 93.291
23.4628 101.052 96.3686
18.0498 78.579 100.772
28.6223 94.8541 97.8306
8.12589 82.9403 96.0113
