ply
format ascii 1.0
comment Created by Open3D
element vertex 375
property double x
property double y
property double z
end_header
23.8294 117.886 150.505
41.2216 115.45 100.509
51.1113 63.8618 150.689
44.6425 78.3883 161.126
37.9211 104.078 168.342
70.3163 126.428 117.195
65.0519 111.593 158.798
27.1312 101.265 157.971
26.5302 133.126 138.085
89.0656 61.8059 106.3
30.5205 111.282 113.502
40.896 109.769 107.553
82.5505 66.5943 54.0345
18.633 109.591 131.604
35.1576 140.57 123.658
84.1671 72.0721 66.5686
57.8641 114.372 165.013
33.3042 87.0113 122.803
73.1763 88.2643 133.442
62.6542 97.1945 168.361
49.3 110.495 96.1367
62.6205 130.274 138.774
42.9648 101.298 111.349
82.557 62.714 63.0584
75.8903 46.715 125.066
88.8122 70.7248 109.257
63.9547 105.168 165.166
70.5414 118.55 118.054
41.0976 126.905 158.505
53.3402 99.102 95.3754
42.913 56.0535 167.829
21.5277 71.7362 197.821
25.3082 38.4261 218.382
58.7469 29.9106 188.932
66.0949 44.8752 124.238
74.8059 63.5348 93.9867
33.1226 71.5543 177.371
60.1858 58.6633 101.817
21.9488 65.8193 187.536
45.195 142.083 125.999
48.0614 54.2342 147.131
38.9741 84.4587 159.375
32.7247 92.5067 159.329
34.9772 61.1006 129.983
63.1847 77.7701 91.696
32.6024 46.5432 226.185
45.2913 77.4424 114.334
22.5866 39.0433 190.215
36.8587 139.183 132.085
25.6313 107.875 121.513
38.0322 118.309 164.464
39.6091 93.2699 167.865
47.9994 100.361 102.251
61.486 124.148 85.9058
98.1343 46.7661 64.8743
44.8271 139.666 134.645
81.8686 98.3009 111.703
90.6016 66.9467 74.804
55.273 141.281 122.422
19.4905 100.651 147.732
49.0057 96.929 173.715
88.4967 63.4057 116.627
37.6126 136.215 141.777
87.5181 96.1633 96.7332
50.7103 72.3813 199.915
44.1104 70.138 217.9
65.0088 49.9941 109.923
40.8478 140.351 112.873
23.3027 101.692 128.119
105.963 43.4046 71.4988
77.8666 121.708 91.3559
65.7434 127.447 128.614
28.9867 84.0763 153.375
59.7261 51.0948 145.294
43.7786 19.2378 194.76
65.1887 119.249 149.684
40.3838 131.888 150.592
49.872 90.3766 100.755
84.3463 65.9097 127.953
67.8445 106.439 132.977
59.6011 89.4182 172.654
73.1215 97.5052 81.948
18.4897 95.7925 141.395
26.0829 67.2242 180.268
70.6586 59.7588 157.292
69.0067 70.6386 92.9439
49.2489 141.606 114.306
63.9688 134.441 92.3946
106.508 89.2556 59.5867
40.4821 53.7663 132.96
38.3889 95.3536 115.068
26.6615 73.5363 138.442
64.4301 120.251 140.447
44.9505 74.796 208.102
52.6055 128.602 89.4355
34.731 68.1612 145.375
70.3732 126.824 89.303
58.8587 46.4686 131.193
45.5336 52.187 139.176
45.904 84.3034 110.058
36.366 59.6384 170.646
26.2175 126.888 146.979
31.0077 114.328 158.521
48.2282 72.4235 108.373
66.7714 105.223 81.7563
32.3476 131.05 147.913
94.0595 53.3919 71.7261
49.9928 66.9303 210.086
31.3152 107.024 163.125
56.532 63.1092 199.764
35.5927 77.1431 214.349
89.0413 79.8015 97.0166
70.0643 92.6983 159.376
53.3106 140.697 133.146
20.0796 118.424 133.957
56.8557 66.4345 100.672
48.9555 69.8527 160.407
91.3627 66.4096 43.5773
83.6092 106.226 98.0425
109.784 70.2404 72.9977
87.7311 89.169 59.5065
45.0115 60.7341 223.149
46.0433 137.234 144.947
30.3719 96.419 121.343
28.7362 61.1271 225.45
79.493 71.9896 133.553
43.9175 111.029 170.798
61.7834 122.058 156.669
73.7604 82.604 85.1627
85.7814 66.6617 97.9586
32.3872 122.774 156.71
64.1609 137.264 122.397
34.8715 103.299 114.369
51.9696 53.3925 167.935
75.8146 72.5657 152.771
89.26 79.63 47.9605
87.1469 79.6607 106.525
29.5185 30.498 212.753
34.6021 70.531 125.19
28.7031 137.229 126.814
59.6062 56.2383 173.487
78.9247 56.4593 145.995
47.6817 51.2123 122.087
21.2246 109.649 151.724
61.421 58.5765 184.171
81.429 105.964 107.758
17.9463 114.703 141.728
29.888 137.629 112.918
49.264 40.5477 168.984
40.6794 80.8669 202.875
21.6001 41.8877 213.455
21.7527 93.9113 130.709
49.563 65.0248 108.313
62.7693 58.0266 159.078
56.8177 54.6584 154.958
45.9625 92.2569 107.258
22.6579 76.0788 205.653
40.6845 59.1489 144.882
81.1266 90.9397 84.2371
88.751 53.7066 61.2653
104.144 64.9037 76.9337
17.8987 104.375 138.012
22.116 90.0093 152.105
53.9205 120.115 88.9831
65.0033 115.32 130.262
19.4485 48.9661 191.177
81.3057 61.1573 135.757
51.8721 53.9385 113.232
51.832 87.4266 172.491
55.0792 62.9971 173.423
73.6907 88.9844 147.881
46.868 73.3328 178.885
24.0315 55.4994 224.056
83.5328 81.3249 58.4687
32.1589 80.8897 194.185
46.4193 25.8974 213.422
61.2581 39.7288 195.183
38.0473 130.515 97.9113
49.0562 31.7572 218.273
76.7227 106.571 82.578
58.5506 138.035 137.602
59.146 28.3089 199.57
46.1501 87.4872 167.201
30.5966 76.8981 148.567
49.7019 28.0784 175.842
70.712 97.4103 149.163
23.2744 48.385 219.514
65.4374 82.3534 168.528
23.8034 66.5299 217.898
33.1565 116.309 105.094
88.4382 82.33 69.2433
86.2179 74.0736 47.2325
39.214 80.792 191.76
27.3911 80.5695 201.85
17.2774 49.2878 207.615
70.0864 133.192 111.172
78.53 56.302 99.9798
61.2904 49.1052 187.947
88.2168 75.205 72.7928
71.7017 77.4036 161.015
56.7384 46.9477 170.549
78.1637 74.1018 88.7161
67.9602 45.2833 131.815
66.4989 86.3923 86.6117
108.699 72.5799 43.7106
47.8205 75.633 187.025
61.5732 99.1672 85.6813
20.8209 123.66 141.886
112.738 76.9962 68.5396
49.6103 47.8082 129.737
21.7532 85.3589 134.176
25.7812 123.072 114.127
64.2937 52.7694 152.876
40.5601 74.5261 118.878
29.6555 25.7653 196.382
36.7292 21.8223 200.71
71.3678 54.2156 151.918
71.7838 49.3506 144.127
84.4118 54.5274 109.42
31.4586 126.552 105.011
30.7896 67.3287 219.736
44.7562 37.1707 222.967
48.0582 22.9965 182.647
57.8515 131.926 148.443
23.3048 134.187 126.307
112.179 82.3307 59.0545
54.8113 74.9921 101.385
31.0886 26.8607 187.26
19.2661 40.5693 199.427
67.7778 89.3074 167.028
24.2067 73.3814 212.371
118.996 46.6379 60.7477
71.9903 114.152 82.9075
59.2047 35.9566 203.656
37.2267 20.2918 191.955
77.9584 74.8874 142.677
83.4974 103.086 87.8819
75.4396 80.6318 148.306
50.0744 50.9698 222.262
19.9311 88.8763 140.354
39.9885 39.4416 171.14
55.9436 67.9314 183.071
44.0069 123.848 94.0487
70.0592 85.0495 154.258
49.336 105.88 173.255
55.7926 31.3049 177.81
61.2408 87.4229 91.3062
68.91 120.713 84.849
37.3317 22.9564 185.377
90.3995 90.2409 67.7233
54.5881 48.0358 118.853
89.4799 87.2703 102.699
68.2813 111.908 144.111
43.3324 29.8344 175.325
39.801 83.3676 116.028
79.0697 49.3071 115.368
70.208 46.1946 116.34
58.9813 107.508 86.033
57.6543 53.4919 107.6
73.0325 111.167 122.518
40.6285 59.2705 123.579
45.8588 63.1534 116.207
70.1771 98.0686 133.945
47.2423 118.078 168.161
47.1876 78.3443 195.847
56.9349 89.4026 95.6684
21.1919 65.0981 208.244
57.2481 103.869 171.938
103.343 63.0372 42.814
57.9459 140.069 99.9263
19.5115 61.4719 197.85
57.6697 114.321 86.1608
33.8072 25.7151 208.281
49.6158 21.3566 189.618
21.6443 119.365 122.3
46.3175 22.042 207.489
90.403 87.835 51.8837
18.6981 48.4488 214.707
51.2852 59.7239 216.031
72.3815 50.606 106.03
116.885 59.7768 73.268
65.9874 45.8022 139.18
24.9528 32.6174 196.309
55.5547 71.6479 165.506
37.7046 71.5809 219.89
77.3117 110.493 114.908
95.9506 86.2017 48.1379
66.7823 138.227 102.959
53.5793 49.0165 146.927
115.814 56.4937 52.8172
118.678 63.4863 58.746
61.627 70.2665 95.0787
35.1937 65.8162 224.892
18.3646 52.2127 197.077
28.6711 45.7927 179.07
56.666 78.2501 170.512
50.5495 131.371 154.504
43.2261 50.5374 227.134
36.7903 30.8382 176.869
52.4709 82.6436 101.491
114.895 75.8565 55.0804
77.1998 65.939 147.163
27.1593 29.3104 206.021
26.7598 45.8487 223.657
26.1178 75.5155 190.58
61.7967 141.35 112.308
76.9512 121.875 102.415
18.8395 57.1025 207.246
32.5414 42.6533 174.124
27.1444 86.8912 128.019
39.0954 41.16 226.599
85.5047 91.246 108.385
63.1696 66.517 163.054
65.7536 73.6655 166.044
40.811 48.2098 169.182
85.2503 77.3824 90.2533
43.0749 66.6337 152.028
54.7999 23.2611 194.457
37.953 59.1104 227.55
32.4754 82.8307 204.769
120.464 47.9107 67.7271
67.5628 58.692 97.6159
29.9927 69.6353 131.05
35.8966 29.5124 215.669
87.0889 90.4582 90.3879
94.9792 78.7655 79.138
30.8864 62.3627 173.578
58.7805 39.9267 178.084
56.7766 64.7728 190.988
21.4875 126.845 126.42
43.9438 66.4731 172.099
84.4685 77.2702 118.549
118.691 66.3578 65.2671
86.3879 61.5764 49.294
108.953 84.3422 66.4017
53.5008 123.317 162.317
56.8535 31.5006 211.358
79.4283 115.599 100.092
54.7975 62.4928 159.668
110.093 48.9963 54.1301
98.9603 92.4626 57.832
50.8407 42.0169 222.226
35.0561 53.3638 229.228
108.782 82.9231 50.0753
100.987 57.6145 75.4976
55.7726 48.8552 212.309
35.1516 77.7183 122.279
103.552 81.4986 76.7442
59.4326 44.7504 121.401
70.6961 66.643 162.567
37.3526 81.7239 208.556
22.5889 52.6178 181.903
39.4961 31.8249 220.706
106.274 44.8353 60.8594
73.2019 127.767 105.454
95.9156 87.6527 73.0657
36.9351 78.3371 182.518
21.7155 33.1252 203.507
97.8362 71.5059 41.13
31.9255 36.8324 177.531
28.9164 74.329 216.85
77.1037 50.256 136.872
111.584 50.4744 77.7346
60.0043 45.3618 181.247
52.7398 22.3914 204.615
99.4961 48.3466 56.1362
22.0369 59.0567 214.379
120.962 53.082 74.2882
58.8946 46.1967 138.864
84.0827 75.2558 54.1936
47.1592 137.822 96.4555
98.9677 55.4336 46.6172
67.8535 104.871 153.062
101.051 81.3552 43.9875
85.5565 53.7698 123.538
