ply
format ascii 1.0
comment Created by Open3D
element vertex 443
property double x
property double y
property double z
end_header
41.2304 221.658 58.081
48.3404 71.5151 108.649
83.5433 63.0326 171.862
64.8795 38.7649 154.112
31.543 139.075 97.7378
66.1924 91.7651 141.189
80.043 109.32 152.701
68.7317 140.589 176.352
72.0776 51.2491 107.854
45.5505 78.5035 120.152
54.2218 93.3729 59.0244
74.0381 24.1607 112.228
89.2092 104.944 173.475
80.2276 79.8409 158.492
23.4032 143.695 94.8022
47.6099 60.1899 112.941
45.7565 157.224 94.1399
46.0167 219.207 122.098
54.7959 59.1857 130.518
45.2848 42.4778 89.4694
68.6963 45.9565 160.48
41.8508 49.3049 79.3366
51.2545 52.8129 104.442
67.4199 32.2606 144.873
50.4 64.6736 95.1733
53.7528 42.1243 153.429
63.492 64.6721 173.399
38.0015 211.033 144.61
71.18 101.683 144.44
56.0383 27.9104 102.441
59.9477 172.671 147.018
39.698 200.144 139.677
80.0979 47.7438 148.361
76.4873 51.0338 161.538
63.1405 130.738 90.0405
46.1374 44.9586 130.618
68.004 60.9924 107.693
80.6317 100.832 156.486
79.5605 135.691 133.305
62.6675 223.695 125.764
81.0252 147.193 128.892
79.171 38.7925 142.801
70.4957 23.4466 123.45
65.6211 168.845 158.814
59.2214 56.4811 168.415
58.3569 75.6926 113.03
49.2191 49.5966 118.325
28.0037 191.08 67.7835
69.5087 51.1465 96.5302
57.8638 31.6608 138.787
59.9432 170.827 134.372
63.8766 68.9682 99.5744
76.2709 41.958 108.365
27.6302 202.105 87.9481
89.3403 105.497 187.245
50.2416 44.9315 60.5285
27.6869 212.169 57.7934
47.703 163.176 79.8357
56.7633 34.9101 146.902
86.62 95.0742 191.148
46.6383 35.8194 78.7588
25.9499 201.863 66.4513
51.3779 209.998 114.669
90.7848 131.766 177.557
26.4783 196.358 55.9926
48.2934 48.8124 96.361
88.2603 80.7391 176.798
44.9497 203.781 121.29
42.4427 167.308 66.3038
26.0091 147.574 105.411
54.986 52.8478 63.1428
76.1191 196.759 144.212
34.3313 170.711 116.619
65.4874 68.2183 115.207
36.899 237.295 152.877
61.3887 25.2278 128.864
26.5325 152.945 116.179
44.2777 242.618 131.921
71.8304 112.471 141.42
44.8185 193.687 135.767
72.3128 129.153 183.269
38.5004 174.299 126.151
58.0718 74.1379 66.5382
37.8347 222.032 141.7
30.4578 91.4697 106.544
48.1921 228.504 118.964
42.2033 64.6304 132.054
86.1268 78.331 186.888
39.2136 175.259 92.4042
84.1619 121.212 155.518
75.6403 55.7345 118.054
80.0257 136.114 187.664
62.4508 47.1734 73.5772
34.3019 130.65 124.209
42.6387 110.895 138.656
41.2885 106.609 44.432
64.9656 56.502 178.742
40.0398 116.372 134.108
46.2225 85.2588 116.623
34.0738 165.147 105.261
81.1305 93.9813 160.582
30.5918 205.997 51.8798
54.1073 161.653 149.298
42.2337 213.258 131.696
29.1698 188.857 56.6237
80.6238 46.03 122.062
65.5431 182.428 66.24
42.6186 203.15 152.766
63.9729 126.357 74.9603
54.0748 239.827 129.032
46.6166 236.27 123.079
81.7943 46.7069 134.602
77.545 146.543 181.612
56.5885 167.103 75.9777
84.9531 141.897 145.375
54.6615 31.4113 113.141
22.6929 152.796 94.4093
29.329 142.993 111.756
58.2845 83.8751 120.518
51.6223 75.2173 41.2967
48.486 54.9616 51.4472
21.3705 110.905 87.7485
87.0534 153.315 180.381
91.9039 124.97 166.191
64.2189 21.4153 112.355
41.5684 205.218 58.2126
37.5197 84.2861 69.3038
51.0767 197.027 118.196
73.9221 142.155 109.519
58.4073 221.622 115.487
67.0894 214.141 157.835
78.3447 27.8917 122.624
27.7032 107.464 56.522
89.5469 145.414 172.635
82.9086 125.527 150.98
61.3247 79.5172 87.5581
70.4416 82.8853 184.103
77.0593 84.0656 177.681
57.0633 149.091 68.5567
56.1252 164.793 117.787
50.4824 34.9282 122.951
66.9301 82.2027 137.392
84.1439 151 161.295
49.5869 225.166 58.0605
42.1278 41.3909 67.5352
73.2197 52.7477 173.897
31.2072 86.6268 46.469
73.2206 144.649 98.8646
68.39 90.3279 169.506
84.4989 71.3048 164.851
49.8272 176.044 130.122
43.6626 73.9668 41.1919
60.6026 108.421 112.556
43.0074 201.956 45.4006
52.9904 242.644 138.46
30.7598 157.703 122.406
51.273 72.3831 87.3611
38.0736 94.1448 70.8351
36.413 218.792 152.895
41.6494 228.959 133.68
40.9449 147.145 66.4779
50.019 36.2369 131.898
62.5146 104.571 128.228
60.2471 210.474 113.408
64.7923 62.3231 90.2407
66.842 191 61.2101
34.6664 148.664 71.1064
39.7174 158.317 138.675
83.5077 55.5813 152.133
74.2334 63.2444 184.294
36.34 126.674 131.965
70.8854 137.538 88.6774
69.5154 101.28 173.636
46.595 217.043 48.5427
77.7594 89.8725 190.013
77.879 30.4501 105.505
64.7402 127.963 113.787
56.7894 152.328 152.768
50.6992 44.3474 109.881
84.2272 165.081 156.126
63.9089 224.382 156
88.6081 135.111 161.117
58.9754 177.614 58.9035
76.4802 139.972 120.723
72.3871 26.6936 135.896
45.9715 170.807 115.136
54.164 29.5486 128.112
75.962 117.071 187.195
74.4248 204.794 155.027
83.5905 61.189 160.242
82.5043 132.782 142.823
75.5345 37.9838 98.6102
68.6309 123.812 64.977
45.99 223.029 79.1412
38.6127 220.484 77.5912
46.3873 195.739 126.344
53.0947 189.852 140.194
89.0008 141.087 185.263
63.2569 186.026 150.036
51.4129 175.651 141.963
67.6445 214.497 71.3777
74.5534 123.447 136.625
70.1567 133.336 77.0679
39.0423 142.202 134.754
62.0652 147.708 62.579
38.6619 56.4301 55.5565
67.2306 53.5736 86.7137
50.908 79.8329 94.9112
25.5629 88.5855 95.9285
91.1217 117.965 182.153
39.464 216.115 51.5211
26.39 101.971 87.5617
79.1786 156.833 102.986
51.3681 39.2783 102.406
32.436 134.515 115.936
35.088 76.4293 46.1805
33.9254 97.2907 111.594
48.0876 95.6383 120.18
51.7269 84.5606 103.329
33.5557 84.0469 92.2202
63.8108 152.608 72.9769
30.1204 98.4438 44.2129
59.308 186.9 74.12
55.142 225.498 63.5802
34.9654 143.013 125.85
61.6724 22.3319 120.971
18.7205 92.3653 102.766
34.6599 117.772 76.9531
68.2009 123.513 163.941
35.7794 154.052 131.708
63.7611 69.0146 79.7205
57.4732 118.336 88.6472
55.7746 119.116 71.6944
45.0465 148.821 73.7383
61.5004 98.6154 109.349
66.4331 144.873 165.936
52.1544 120.76 49.7929
50.118 83.2432 85.0176
75.1879 169.041 128.679
81.6303 55.8622 138.072
72.6032 151.699 81.8348
61.2664 35.6344 78.8418
51.3438 220.918 115.057
60.3271 218.967 164.151
62.386 167.173 125.267
42.3901 132.023 142.371
36.1939 113.398 108.518
45.5989 123.423 100.693
64.9366 61.4066 73.4188
64.5753 185.708 136.473
71.0634 30.2103 89.4406
44.4074 162.047 72.8702
23.27 94.4979 106.244
67.4835 202.178 161.471
28.5502 177.935 77.4801
44.8796 158.412 144.359
45.5088 174.955 137.348
63.0947 76.0211 129.163
47.2525 101.646 137.426
43.6253 115.507 123.339
69.9573 191.896 77.3709
35.4399 133.157 108.755
56.3468 83.4621 53.8576
38.0964 109.245 102.197
33.0781 195.206 93.535
48.4875 33.3911 89.3323
28.5241 191.453 81.4688
83.899 162.797 135.263
45.8176 74.8736 76.7672
47.0372 130.319 54.5374
67.6712 33.1073 112.721
36.204 95.3419 96.4159
55.8257 91.5663 155.009
48.1047 42.9452 139.195
56.6286 234.317 121.074
80.845 37.8159 116.159
38.5772 170.204 135.608
70.4927 206.358 65.3364
17.9725 104.273 90.7391
62.4873 90.0335 164.34
37.4822 89.0002 101.253
64.751 121.622 52.3761
42.7361 66.3438 72.6653
39.0554 104.863 108.653
48.2394 124.053 53.3723
62.7743 217.575 60.6913
69.0439 154.264 174.048
80.7806 35.6127 130.542
71.5979 42.6289 89.2366
55.036 63.0761 155.698
29.088 111.435 105.831
31.8408 204.329 95.3651
24.371 113.929 98.061
82.7018 116.304 189.875
38.5016 95.3424 107.712
83.7102 155.366 141.611
24.8269 89.4105 85.9425
51.4843 162.542 108.295
72.3853 100.503 183.807
63.9524 212.923 88.3203
80.9178 154.819 116.988
48.1874 57.494 147.916
39.7399 106.606 96.5439
61.465 107.809 120.997
66.0217 117.601 127.308
61.3696 107.352 97.0393
68.1739 140.243 62.6956
18.8608 89.7942 94.3498
39.8164 115.728 98.595
63.9527 207.167 54.194
31.3551 85.5071 59.1223
30.3874 173.433 69.8575
56.656 131.594 152.906
60.8335 55.8743 66.6692
67.3094 147.736 69.2128
61.148 161.227 156.181
25.6391 126.707 76.056
62.4451 214.832 120.253
29.448 115.01 90.6182
67.8469 76.2595 176.256
32.4089 76.7111 57.0994
40.4539 222.922 159.712
72.864 119.45 175.382
51.6571 113.163 110.196
52.7953 94.5034 89.2405
79.9106 151.827 110.019
32.1656 105.48 100.753
64.324 219.423 80.663
52.227 167.336 65.9496
69.9318 166.419 107.632
41.9317 176.807 61.2274
52.1871 210.888 46.6895
34.0606 71.213 62.0379
66.9693 136.64 163.153
59.9501 172.912 67.3076
78.5977 163.728 174.211
66.5881 183.249 81.768
32.2215 182.04 69.9511
67.7177 38.2539 83.8634
32.8594 130.203 55.2127
46.5221 231.795 160.604
28.9827 84.8873 101.537
56.7795 221.626 86.0766
32.4163 183.148 87.8027
60.0285 22.8443 93.2386
23.9231 159.139 111.713
71.6709 198.337 70.4143
28.4408 97.0197 50.4402
42.8807 123.985 109.975
36.7867 123.223 123.157
39.9179 213.07 96.3362
32.1991 86.1821 96.4283
63.6089 176.998 77.8386
51.6184 31.7841 95.1395
74.5972 140.996 81.1063
76.5956 147.13 89.1033
43.9304 72.2251 131.363
25.0214 160.266 105.762
75.3656 60.9927 126.498
44.2345 219.376 90.4111
50.3096 221.764 161.94
59.0863 101.79 85.0571
53.8666 36.4592 71.5261
65.1563 47.9522 171.877
29.1308 94.3629 85.7409
83.4954 150.635 136.673
39.2669 87.4026 39.9159
74.4641 84.9033 150.071
81.5576 65.4956 182.909
51.9552 205.696 101.458
42.9114 99.4118 76.6402
34.9872 104.913 91.1694
35.0232 195.301 51.3323
87.0087 96.1652 166.371
70.1178 22.224 96.1847
58.7454 197.25 117.869
54.2847 193.586 49.4138
38.5656 129.901 136.909
56.5378 64.7011 75.4209
76.1889 75.3728 189.73
58.1616 223.178 72.5152
65.7581 197.008 90.6799
39.7319 130.078 54.1069
67.445 198.488 58.0917
64.7555 98.6965 163.653
29.0802 103.621 61.8319
41.1622 199.014 102.326
53.4775 215.315 94.3304
89.7447 94.7337 178.225
60.0775 93.8575 122.173
62.92 205.304 118.102
34.1953 92.0761 88.3953
21.5497 85.152 100.965
69.8845 188.453 130.615
61.8139 115.852 109.714
36.0314 179.902 62.9182
54.5537 27.8108 82.5334
40.6613 140.407 57.4115
70.5574 144.038 73.0035
34.2974 169.468 77.1192
51.5567 56.7661 137.866
32.9345 80.2677 61.6716
39.6124 122.639 115.943
51.5544 58.6217 78.0265
53.8506 192.874 131.387
40.8391 96.8714 87.8603
43.137 67.7588 124.137
65.5377 213.197 124.102
32.5987 123.273 51.6684
45.1943 96.4767 91.9929
58.1204 163.256 104.094
47.018 113.308 47.9801
41.2628 101.122 101.948
35.2505 233.654 144.237
53.4895 224.98 74.5635
36.3653 238.922 142.842
61.0034 166.71 110.363
58.631 55.2792 142.395
23.897 125.404 61.4179
43.1128 224.082 149.395
39.6492 121.138 81.8796
30.144 108.833 89.7542
61.4254 54.3287 131.363
83.2096 158.738 126.297
28.2752 106.477 94.4209
55.0268 190.85 148.016
66.6047 37.8713 102.461
57.3046 125.098 50.6219
44.8972 201.464 69.6712
60.1854 62.7032 143.519
47.8277 147 68.3667
80.4461 68.3711 141.81
71.428 135.777 68.2665
44.3699 117.791 52.4736
24.0152 94.4412 90.8871
43.6062 74.6227 124.596
24.7207 136.98 63.1611
57.8026 201.984 162.097
43.0185 97.6003 123.563
48.9629 106.275 42.5613
55.0755 172.194 89.102
47.1718 114.691 85.6938
34.2294 179.436 78.7615
