ply
format ascii 1.0
comment Created by Open3D
element vertex 141
property double x
property double y
property double z
end_header
33.4525 62.3233 40.7628
43.7306 59.9901 41.5319
53.9037 42.214 42.7281
19.6771 44.971 47.2112
30.5793 65.6208 51.461
23.2678 60.4753 50.3061
47.2421 54.2045 82.2629
36.7627 81.9659 62.1289
44.1715 23.4632 69.3637
62.7371 75.7851 46.5567
44.1877 40.4995 44.3391
21.5485 63.2646 57.5017
25.9206 64.1178 40.6928
39.7439 28.9598 64.738
54.1281 50.086 71.2127
29.0113 29.8025 60.4633
53.5024 79.3552 39.5161
48.6944 71.2947 41.1925
47.8331 44.7457 28.982
34.2046 74.1187 72.8745
39.4367 63.4312 51.1088
21.518 54.1665 60.2279
35.2002 72.5236 42.6244
33.9091 45.7565 70.2083
45.5163 33.5227 38.9173
26.7828 50.547 32.9246
55.8571 34.9576 75.9878
27.9284 70.5513 69.9986
52.8604 53.8787 38.8413
24.595 43.8195 62.5342
68.9236 47.7741 50.2398
55.4342 83.1209 51.4102
37.1396 82.7603 50.4121
34.3696 52.5753 75.3289
72.2854 62.9819 41.9381
44.2837 83.2433 50.8972
24.2273 63.5753 68.3707
70.4701 73.5587 46.8348
50.5855 34.8202 45.8873
62.4398 41.4188 59.0913
32.0816 29.2628 49.0636
21.9027 52.7085 39.4547
48.8938 82.836 53.4674
29.6622 63.0367 70.0349
32.5341 65.5168 77.3954
39.7697 52.0291 81.2626
66.6118 69.2891 34.1131
44.761 46.7205 72.1901
23.1759 55.0926 71.4604
50.7185 80.8561 45.6585
52.2004 67.794 33.96
62.1678 44.1041 42.3053
28.6863 36.8342 70.9284
29.6384 55.0908 70.3046
44.4396 81.0793 60.2482
23.143 69.9223 51.9079
51.6335 55.3741 30.1382
62.7023 34.0249 52.6188
37.1627 42.9348 82.0932
34.714 32.8062 69.8143
62.0383 60.2593 33.6017
37.3258 23.327 57.2642
63.9252 50.8516 66.2925
60.0654 26.4147 60.3578
56.1478 51.2195 52.9488
43.3508 42.0192 79.4382
46.1371 25.3568 54.6424
50.8073 38.1605 31.0694
54.9779 74.3592 33.2789
67.9739 48.5086 38.9784
41.7026 29.2958 73.3429
40.8529 31.2919 56.0679
60.9302 76.9191 71.1154
66.0345 69.9703 56.9814
59.8833 44.1172 32.1174
40.9625 68.0159 40.395
71.4744 57.8347 50.4499
43.9089 82.5747 41.2179
57.6213 28.2149 67.3288
33.3293 54.5738 31.1273
42.1029 60.4524 85.359
24.9708 47.1977 71.3338
43.2296 25.8381 45.2338
27.2661 60.8283 75.5604
58.5594 81.9309 61.3191
71.1058 69.3911 54.681
29.1938 68.1399 59.8616
41.9468 78.2831 75.8205
46.3259 63.9448 46.4525
29.5905 43.3546 74.0819
29.3105 73.7467 47.8821
60.5365 44.1385 70.3885
32.9389 40.1586 77.7164
62.3069 81.0489 52.7295
28.6184 51.4179 76.3949
43.6016 80.4497 69.7701
56.6521 42.2367 76.4175
56.6917 48.8608 64.5624
28.9024 62.4363 56.1139
33.8931 34.4631 38.8904
34.1645 24.4144 62.3732
53.1249 82.5193 71.2139
54.9768 67.6464 79.4278
58.6642 38.2458 69.9003
51.384 43.9392 81.2158
56.9922 47.5642 37.117
51.4173 28.7868 51.4204
40.6014 69.3632 47.7978
61.7977 56.8461 58.7958
22.7677 56.4227 65.4001
48.5895 68.9531 84.8265
25.596 33.119 51.381
39.9427 77.1317 65.3213
34.3881 56.2318 81.9231
61.4664 73.0443 62.5904
63.7103 68.9127 39.309
42.438 77.9257 46.8798
39.9502 74.6482 35.6683
51.2613 79.688 61.1519
52.6279 37.8494 78.7487
43.4596 72.7367 50.6735
50.3091 83.4197 64.0483
39.2514 35.4645 41.1814
56.8536 50.8476 30.5653
46.966 62.3123 33.1941
41.4891 75.3278 55.6386
28.1554 62.5188 47.2572
48.7712 51.5312 55.3069
69.8308 60.6824 58.6595
31.8112 76.0132 55.4361
36.5977 42.1033 27.2433
40.2782 66.0781 79.0784
40.2081 41.4139 32.1072
47.3372 52.1889 63.5207
44.0329 69.6918 81.9212
37.144 76.4028 54.2249
58.0534 76.2216 59.3054
53.8339 72.6743 73.8893
44.9192 62.5151 79.3106
28.3517 45.411 36.9099
46.4117 69.613 34.9157
