ply
format ascii 1.0
comment Created by Open3D
element vertex 520
property double x
property double y
property double z
end_header
12.0915 133.08 3.75289
10.978 26.6744 134.183
12.507 25.3233 17.9006
12.441 168.631 23.5011
18.2292 196.284 243.557
12.3489 96.9546 247.891
10.1039 82.2008 179.592
14.5913 66.7004 13.2555
16.2064 56.9868 109.529
11.8848 213.066 165.85
11.1807 3.33622 141.528
14.0077 171.751 156.281
18.7265 65.5434 100.829
12.2837 24.7044 164.726
11.8302 32.3162 127.485
14.931 6.66421 74.942
12.9993 115.587 123.303
22.4568 191.902 11.3463
13.1075 88.5536 250.147
11.5494 14.7336 167.316
14.1842 15.7024 92.118
12.2082 15.3775 147.956
10.5353 42.3277 158.403
13.8062 21.3178 9.21398
12.2534 50.8423 170.315
28.4771 34.3617 29.2936
12.8002 40.7223 130.229
11.1505 191.408 115.146
17.1347 200.606 34.6598
11.0225 106.971 170.464
12.1927 9.85602 174.982
11.4674 104.486 157.152
10.6414 96.5277 111.937
10.545 99.6111 131.569
21.9876 20.5537 150.795
17.6216 202.756 168.372
13.2703 58.7265 15.2984
16.2986 215.323 6.78871
12.745 127.686 249.177
10.555 67.4553 133.313
20.3124 78.153 135.539
29.1144 196.303 186.151
13.3903 5.40995 150.791
12.0643 87.4096 99.6793
13.4912 94.771 148.569
12.0985 78.193 121.612
20.7043 62.1874 45.8744
26.3717 207.57 113.027
21.0147 4.89725 131.953
11.0078 160.812 248.843
20.0486 43.4817 160.889
12.4834 56.3946 2.62082
16.5895 196.06 7.86485
12.7075 180.092 231.508
18.0085 18.8463 191.333
19.4795 88.5145 131.406
11.6129 46.18 11.489
11.7789 172.187 256.176
18.7823 115.399 120.798
12.4847 42.7325 18.1463
14.5014 194.483 213.106
14.6319 207.835 20.3431
21.7054 3.04687 150.412
19.7818 201.446 22.3805
11.8254 173.957 16.5131
11.8537 17.1419 186.553
19.972 173.905 19.1546
16.2826 83.131 95.244
11.4348 201.272 228.598
22.7535 54.2977 151.211
13.2205 79.6991 104.261
10.6631 191.073 170.465
13.6314 51.6725 134.991
12.6072 102.74 94.8826
13.7544 164.37 14.0464
25.8737 22.6182 169.611
19.0151 193.636 255.163
26.166 13.4728 162.859
11.0482 78.9902 155.596
12.8324 174.02 8.02693
13.316 61.3516 52.0288
11.3492 205.082 167.765
12.7919 68.2991 165.467
18.4325 21.6056 118.557
15.5621 72.0581 154.631
11.8009 165.377 148.95
23.4138 152.876 239.006
11.8428 56.0723 152.673
20.4817 211.09 217.964
20.9049 204.549 249.401
12.6066 193.146 254.294
11.0839 65.3824 151.56
16.9159 119.716 249.833
20.3458 2.68829 161.447
17.476 173.027 29.6089
23.0544 178.136 250.724
19.7027 196.928 164.217
17.7313 74.3383 98.7755
18.7623 194.439 112.495
12.4067 194.137 203.086
13.9983 116.158 258.989
13.553 43.2175 41.4757
19.3997 4.3029 109.622
23.7709 173.236 156.163
23.7371 166.089 235.059
11.7691 117.87 130.825
20.2251 54.8721 133.524
18.0104 186.106 171.449
21.6949 80.743 168.093
22.2166 99.0502 142.817
24.2205 73.1614 163.044
30.3455 197.94 4.63964
26.3728 206.418 208.449
12.5101 176.6 173.126
38.4887 193.465 123.571
11.4269 60.1776 146.007
11.6789 35.9233 147.407
25.2764 33.5873 144.205
23.0191 70.3899 135.872
20.2338 49.7031 51.1331
17.1197 111.5 152.991
19.5097 207.572 162.439
18.6746 159.852 243.007
20.9436 197.579 234.848
11.0667 68.1493 142.56
33.6432 77.3312 130.033
36.267 211.218 104.841
36.9797 34.4639 140.883
22.7845 185.909 32.853
20.8823 69.9665 157.95
21.886 89.2799 103.462
30.5763 209.842 143.877
11.2038 91.2679 133.931
15.1792 213.716 133.981
24.2857 27.713 135.58
12.0013 196.37 240.881
14.1853 62.6251 138.1
26.273 213.419 191.995
29.481 68.0464 114.451
18.7324 38.2618 144.925
11.8093 21.052 126.986
28.7044 201.544 141.469
13.6822 46.8868 175.454
21.5995 215.782 140.685
12.2938 91.6404 162.075
13.3341 55.4035 37.2978
35.8924 18.1461 145.638
10.8366 73.5607 109.95
11.1738 51.9926 127.319
13.4691 88.9542 106.062
14.9971 37.5621 171.47
13.5863 100.984 141.361
30.9782 33.4994 125.172
13.1211 216.438 111.417
13.1298 213.665 223.183
12.2597 170.882 180.845
12.2344 200.027 25.5328
26.6616 110.252 121.785
12.0529 79.1903 165.143
11.7878 34.0163 115.222
16.1398 11.7402 160.593
14.8218 186.578 110.785
12.3516 7.94222 129.563
24.7489 191.434 120.738
19.8397 75.0321 109.289
14.441 6.99496 90.0128
13.7542 55.8176 142.334
21.155 13.8277 130.933
14.1757 92.1685 260.569
11.9777 14.7919 106.064
10.6897 76.6159 140.241
13.1255 155.892 152.941
27.0687 55.9806 158.991
12.1579 212.419 177.467
12.8745 218.077 190.799
20.1893 50.1055 127.003
18.9597 124.039 257.611
21.9947 29.2177 194.056
24.3451 59.4817 106.268
13.3977 109.153 135.828
19.0398 202.727 142.535
13.9497 107.327 261.429
22.6557 110.007 141.849
10.8044 33.0615 156.27
14.1409 46.6366 4.28538
22.0467 12.7639 138.68
13.8126 180.306 256.498
12.9065 197.946 131.142
14.0236 17.826 176.634
29.4317 185.45 191.051
14.9331 166.964 3.222
16.8576 178.816 179.838
12.5145 85.6887 139.613
32.0857 100.395 129.539
12.959 169.559 170.88
15.1212 4.27529 242.855
28.4671 201.5 191.006
26.1224 22.7873 161.206
14.8353 184.928 26.844
21.7259 17.3181 10.4574
14.472 211.793 254.847
28.6795 9.61858 24.6982
15.2955 59.4144 165.226
12.5956 81.9555 149.547
15.9408 171.988 164.354
14.5554 104.483 149.057
21.4638 209.951 16.5655
12.4925 209.391 151.452
15.1294 208.801 33.406
11.3 10.4768 83.3797
12.8825 12.4569 141.396
10.014 94.1545 253.967
25.9583 192.381 178.983
23.2447 160.575 236.515
30.6519 213.001 153.044
15.3124 183.378 3.49385
12.5444 161.684 159.811
19.2942 91.6353 164.217
36.7857 196.693 188.488
32.6332 74.0355 108.886
13.3048 202.817 255.189
21.7572 169.544 171.741
26.8419 33.381 39.3371
11.3892 203.487 191.753
11.1761 1.88706 123.547
20.0573 25.0005 135.602
23.3181 208.675 181.172
24.0095 170.106 257.324
11.4177 16.7418 157.898
11.2213 182.167 14.0499
12.2466 217.61 151.008
18.6365 174.229 110.168
22.1348 186.015 178.698
9.96719 94.3404 120.202
28.018 23.385 120.68
22.3389 193.604 132.037
10.1232 35.0455 165.484
22.2209 20.6778 184.458
25.5781 104.255 160.841
13.1126 97.1569 167.254
14.8234 155.315 5.81733
11.4205 22.0256 143.793
15.619 28.1655 6.5651
13.0683 185.017 154.347
21.4477 24.7886 177.948
10.6815 179.01 115.346
12.3895 195.097 178.33
35.3329 92.7538 150.839
10.6537 12.5827 193.845
20.0507 92.9674 157.83
12.9824 25.7922 109.22
12.8889 2.21221 83.424
25.3393 208.42 169.799
10.9913 14.3107 118.131
13.5761 212.041 185.754
17.9736 99.2283 170.154
11.7134 177.338 150.901
13.2799 218.605 252.11
12.4802 169 220.676
17.6383 78.5569 127.075
13.1316 7.6664 63.0668
22.044 86.5887 150.816
27.2554 101.451 108.742
12.294 29.3763 188.838
16.2939 106.385 124.508
12.2068 193.158 140.141
20.457 53.9771 114.442
21.6142 33.2387 116.503
13.8316 200.176 159.566
18.275 215.276 24.3055
22.2049 207.178 147.476
16.3627 163.545 257.068
23.2183 149.565 11.1087
15.0549 180.49 141.59
13.3687 167.8 229.332
23.9825 218.248 27.3191
15.0505 46.4944 115.621
11.5821 192.453 161.754
24.3173 40.312 173.005
31.7141 192.368 10.7653
19.3174 209.219 190.093
11.9192 202.664 141.069
11.3919 209.521 144.845
13.3466 189.404 184.265
22.5138 100.443 111.124
28.2859 196.607 169.351
14.7965 15.0969 202.297
29.3075 204.052 157.553
11.3998 41.6404 122.29
21.8297 177.326 261.227
20.9275 186.21 141.373
21.3303 70.994 146.984
21.791 183.18 130.445
23.8347 45.5577 118.083
25.421 187.38 162.481
11.3387 66.6065 122.053
12.5857 142.746 1.73938
22.4375 10.2758 174.933
11.9024 155.98 238.04
15.6077 156.575 229.518
45.3097 208.273 113.021
13.705 7.55735 186.925
11.8936 60.1425 171.937
17.4345 31.9442 177.429
17.2342 50.2383 40.8058
12.8645 2.18853 261.334
13.7505 46.3327 144.27
13.217 111.632 251.393
10.4308 26.7922 149.887
18.8239 139.322 9.81023
11.1353 172.973 134.553
18.8219 95.6777 116.983
14.2871 217.474 16.9944
11.0158 65.0921 111.483
15.6028 205.019 129.656
24.3626 216.298 212.069
19.1334 33.2653 161.662
23.0747 7.50976 167.026
32.0968 211.206 163.914
24.4015 218.287 226.328
11.0273 106.935 102.464
17.2554 165.248 249.942
13.0194 112.684 102.557
19.9175 75.9699 142.301
22.8632 185.491 104.609
18.0244 200.893 154.044
14.0101 180.901 160.609
24.0621 103.459 130.176
31.5034 72.3602 137.904
13.1392 2.05175 254.151
23.2515 214.224 162.821
12.4221 209.3 13.0218
11.9841 131.363 257.463
33.2064 213.051 178.519
15.5413 208.724 112.611
23.6752 195.473 145.17
11.7062 187.337 131.461
17.826 79.8226 158.502
19.2395 213.852 155.257
17.9144 32.4595 140.781
38.4668 217.629 114.349
15.1033 47.3495 152.816
11.3297 27.3522 177.99
21.7455 81.1278 120.769
24.0165 182.494 19.3996
13.0391 180.714 108.807
16.8626 200.087 218.94
12.1823 163.911 261.868
28.23 17.1649 156.676
19.7455 98.0479 128.439
10.3053 38.7449 182.297
22.2256 37.1214 155.071
28.6689 203.446 118.952
28.1523 195.691 161.352
19.2959 84.6589 112.537
10.381 184.321 176.177
25.1644 90.376 138.649
16.1699 212.118 197.782
27.6081 194.754 129.74
22.5799 59.4254 138.105
21.8938 67.1102 118.061
32.0195 17.0634 20.6439
25.6151 86.013 111.313
34.2974 197.533 135.579
22.0026 191.558 190.05
32.4525 213.136 123.248
31.2381 211.879 110.387
30.4308 21.5043 145.232
26.821 20.6738 136.415
10.5441 97.7179 259.079
13.6892 184.124 8.22409
32.3716 210.069 185.486
28.7772 94.6102 113.534
30.6116 209.485 2.54794
10.1134 4.28956 166.134
13.704 170.948 143.811
30.0129 40.2631 136.356
12.9239 158.028 22.7513
14.7722 61.4136 125.771
26.8053 16.6089 146.18
15.5263 208.345 238.306
26.9977 98.2293 119.296
11.7319 202.581 175.347
26.1726 104.605 120.413
11.335 217.947 128.252
36.2388 84.0278 151.682
24.8745 46.6583 140.947
19.4608 191.08 153.54
30.8956 204.112 175.258
28.3122 197.871 150.907
14.9489 191.805 261.899
24.6342 218.722 156.441
30.9609 7.1779 17.1722
38.7791 81.3667 141.799
16.8579 218.81 260.133
22.5565 218.089 147.861
12.2017 94.6202 174.665
21.9146 217.179 185.946
11.9609 55.5174 47.4285
14.2545 177.594 223.174
16.9956 20.8448 157.349
13.8699 56.9561 160.341
15.1075 95.6385 107.456
10.5319 209.364 122.561
20.9404 85.9014 143.455
29.4326 218.594 113.455
10.4816 180.331 247.088
39.2965 202.38 111.155
25.4921 92.1729 150.345
10.1389 121.695 260.494
11.3638 210.228 212.026
28.771 68.3408 151.033
11.464 1.48245 113.745
32.9394 187.448 2.9049
22.8462 178.673 167.767
22.1897 1.84485 170.138
11.7161 3.90081 181.946
27.464 186.907 171.634
21.017 38.4272 125.965
11.0851 218.468 238.211
29.4933 29.1295 149.627
15.4088 89.2374 123.768
22.0951 190.666 3.03733
28.738 8.91901 155.122
27.5107 21.2823 185.878
26.6089 10.9212 181.323
10.4191 199.651 120.296
22.1164 41.0262 133.494
18.393 200.761 14.0036
32.5316 179.403 170.09
16.5092 204.995 1.60439
18.7126 4.30404 5.47161
43.1198 81.1219 133.333
28.5627 217.123 136.933
22.9934 27.3824 127.73
18.3745 196.746 194.392
10.0409 218.968 115.624
22.4645 67.3235 127.183
27.3867 203.279 133.427
21.7875 4.97921 139.996
32.8491 30.003 173.604
13.3544 202.878 201.918
16.4989 218.973 163.655
13.1388 209.014 42.502
17.5331 18.5068 16.9705
9.9964 218.574 178.535
10.6611 186.142 144.508
20.8688 207.352 7.1547
33.5325 217.712 135.91
28.3679 186.946 183.873
10.3095 104.88 121.79
16.7651 191.79 22.7101
33.0875 103.134 116.561
37.058 210.031 143.561
30.0474 212.722 130.225
39.8299 69.5945 132.134
24.1335 211.443 133.926
48.0216 217.134 113.126
17.4562 150.509 1.2686
10.0735 195.864 185.421
11.7656 88.268 151.782
33.192 15.1658 164.314
22.422 112.082 127.53
15.4501 201.804 112.287
14.9984 218.483 157.448
13.5702 74.1608 126.847
17.0087 203.786 203.445
24.8091 172.582 130.618
27.0448 208.297 245.82
35.0321 193.991 160.265
17.5426 98.2409 123.396
30.008 54.8665 146.765
31.0714 188.746 161.774
25.9458 212.347 216.255
24.9525 206.405 229.176
34.2472 78.4905 139.054
21.9854 10.7397 157.3
25.5749 99.2199 154.566
28.6295 216.195 201.271
30.8383 207.443 14.1756
32.5968 182.835 180.009
22.9461 11.8947 146.397
33.7786 3.27566 172.021
14.0277 213.186 156.613
13.688 7.62478 194.075
28.9042 1.30232 157.441
31.8709 19.7913 135.636
28.1634 98.4793 137.685
38.7408 214.865 125.817
29.5397 60.7735 129.845
22.5866 34.7515 166.749
11.1538 107.868 127.299
33.7377 217.61 221.823
28.5627 217.927 183.946
45.0264 209.073 104.945
14.0057 192.94 153.627
36.5508 76.269 154.153
35.6109 202.567 176.619
21.882 210.567 210.903
32.9521 202.086 125.853
22.1315 79.2753 131.439
36.9174 53.7341 142.289
27.5191 179.608 131.103
25.5806 210.004 152.187
37.0704 28.6711 144.714
32.6301 218.236 213.213
14.282 203.761 43.8174
38.3456 12.4479 158.105
23.7575 38.6977 137.938
13.9674 193.388 190.249
17.1305 6.30806 141.974
28.5224 195.972 123.774
13.0404 149.412 13.5285
30.8905 101.064 143.779
19.1162 208.298 133.991
36.1127 27.3932 133.53
14.8229 218.372 214.528
18.1294 214.08 109.317
28.8671 84.2379 104.002
40.4402 20.832 159.296
