ply
format ascii 1.0
comment Created by Open3D
element vertex 955
property double x
property double y
property double z
end_header
37.0195 85.5735 107.225
58.7888 128.172 214.418
14.8218 59.7053 113.64
54.9249 15.8322 162.576
14.8102 80.0378 148.215
71.26 11.5674 120.551
31.629 41.7238 109.309
78.3093 71.6865 205.265
53.5642 137.041 205.084
12.9441 54.4916 144.718
13.0654 52.9937 49.0701
12.4407 76.1489 137.867
41.1588 145.61 173.92
34.9425 57.6305 158
19.1532 71.891 148.19
31.3519 90.6808 118.432
15.6408 78.8205 125.542
33.5512 125.332 181.222
55.0057 158.657 172.699
55.0518 45.8099 112.353
63.0654 17.8162 161.328
29.0499 87.8596 126.401
56.2881 32.9877 104.489
57.1078 169.725 149.081
48.3861 171.223 125.681
34.4369 112.218 184.646
60.24 14.184 147.843
54.9536 122.29 128.489
50.9251 78.8834 175.244
61.5006 138.049 207.276
42.215 89.7345 99.744
45.2966 134.94 200.593
46.3855 138.066 193.84
34.7877 110.989 144.075
18.7924 84.4325 131.18
41.4312 83.1743 169.66
47.9845 19.2799 115.616
15.9763 50.892 111.872
37.059 65.2788 149.535
54.8051 17.4361 110.533
11.7843 53.9368 122.243
43.0679 104.916 134.835
47.1557 13.3273 134.156
32.3572 125.45 162.055
25.9448 39.4562 116.689
53.7319 115.902 104.247
62.1274 135.376 88.4925
12.1151 49.4629 128.688
61.3436 157.186 123.408
34.9633 120.699 190.27
37.698 40.5404 155.443
64.0429 158.546 175.439
56.8036 171.701 119.695
33.4572 29.4633 135.237
17.5394 85.8977 140.72
22.8246 75.2721 115.756
27.4335 36.0486 141.427
30.7447 102.895 158.2
66.6923 10.861 154.163
75.7384 17.599 200.138
128.297 50.4241 72.4165
55.0798 134.218 140.921
26.2275 50.0275 106.208
63.2377 138.3 94.0387
38.7709 144.926 158.11
36.5362 106.787 123.333
49.8199 37.4937 110.601
42.9404 107.431 144.716
69.8393 5.69755 147.804
67.1094 108.001 90.1559
13.1692 65.6801 144.002
44.3677 20.3809 136.185
35.1426 90.9108 149.498
48.4675 88.0181 205.092
56.7314 116.44 96.4982
62.0588 21.6588 175.976
54.7127 18.53 182.386
16.6377 67.6235 117.031
69.9872 16.6823 146.062
43.685 26.0387 120.124
59.4763 20.7494 168.752
64.406 147.322 121.201
58.7575 116.705 132.715
35.8491 37.0743 113.875
54.8742 30.7107 154.73
57.4706 113.934 118.576
64.7096 117.243 91.8712
38.2965 69.3337 142.494
88.4463 135.672 94.1904
41.4233 107.33 193.962
48.3019 125.573 115.22
63.4642 21.6257 108.046
45.6293 18.3269 125.508
59.1297 180.392 133.552
32.9515 83.2865 151.849
41.1217 36.2816 136.979
79.3792 151.693 195.899
51.3841 7.86366 166.941
51.1005 149.196 187.26
50.4592 135.319 110.69
58.4352 118.554 89.612
72.2516 11.3673 136.052
54.0271 128.632 91.3554
70.3114 160.2 181.944
67.8127 7.01714 129.718
43.4707 69.6279 136.241
41.7836 106.399 178.018
38.4505 77.1237 149.208
40.7326 24.7538 140.4
71.3882 25.4583 181.445
51.6351 158.608 118.789
45.1922 29.3989 151.022
34.1144 37.5844 146.064
56.2204 140.68 198.192
79.0476 22.7866 194.861
71.761 214.599 255.694
37.167 46.7688 159.506
22.2515 67.3058 109.089
45.0241 221.81 268.547
58.6335 165.081 116.345
70.3115 149.294 199.388
47.9375 41.3761 118.853
61.5264 145.789 102.954
44.281 131.126 140.309
86.2097 75.7189 199.685
32.4828 82.1296 116.664
33.4206 98.4776 177.107
13.9245 43.3286 133.758
35.5556 109.264 161.033
43.0884 82.5611 188.914
20.1403 53.3354 149.87
39.1765 54.5509 155.356
71.5681 17.5716 108.893
48.0788 220.38 257.053
41.9128 94.2062 203.365
48.125 59.8252 104.109
82.6111 113.981 215.228
42.3361 89.3035 191.99
66.4494 85.6392 216.487
53.3067 14.2922 117.821
54.0412 70.847 190.775
38.3306 99.7332 127.875
57.026 114.075 126.397
89.8811 107.591 217.685
63.7586 14.9415 112.274
42.572 95.8642 193.99
56.9375 76.1098 87.9894
57.2869 11.6218 200.704
55.8036 71.6709 174.362
111.54 5.25355 183.7
40.2447 81.8773 144.274
47.7172 136.201 133.188
50.0369 15.3696 143.668
119.4 138.521 202.605
14.8015 108.85 10.8763
103.917 118.811 219.392
51.4441 150.656 121.377
34.3982 226.702 271.983
74.7631 165.463 135.664
51.6254 22.8942 149.726
56.0249 126.218 135.055
48.3985 127.291 131.287
96.8951 118.11 215.45
55.4322 7.72895 159.957
54.7698 84.4234 205.539
24.7854 70.0496 153.381
59.0652 156.044 180.819
67.8118 54.0566 97.601
86.3327 128.173 96.2072
52.4607 104.027 111.824
38.1827 133.405 146.658
26.5632 88.681 151.199
118.973 143.577 164.25
42.4232 27.0141 130.48
63.2524 108.081 95.0137
77.8348 25.2652 188.136
54.9482 109.997 214.273
45.5462 22.8849 146.144
68.7743 110.581 123.488
70.4378 129.856 210.537
80.5803 148.168 201.414
50.4407 74.96 91.3152
40.7762 146.004 166.438
76.6648 138.445 114.948
65.6796 169.364 144.993
50.0291 121.435 135.458
50.3959 116.624 122.257
49.7629 84.7169 181.074
61.4538 216.979 251.474
105.007 102.68 218.705
56.9337 228.731 241.333
44.732 46.1447 154.63
55.0183 177.455 137.087
64.7668 11.5629 204.198
74.8735 161.973 122.176
55.477 130.577 97.5805
60.0109 71.5082 201.472
44.7553 32.2876 114.575
48.3989 171.216 142.737
66.8257 162.404 169.193
38.5152 123.037 146.32
44.7529 126.022 203.075
32.1365 99.5772 165.781
50.9586 164.847 121.47
15.5109 44.369 119.576
38.0674 137.66 168.281
36.0101 63.7615 102.962
41.7999 127.798 196.442
47.3471 51.1159 144.649
48.4023 152.269 91.4622
43.8565 3.21467 197.114
53.4424 123.038 120.39
110.785 137.272 211.993
60.0441 91.6593 207.466
58.3355 22.8129 151.769
37.851 96.0533 183.137
18.4244 39.3554 124.918
40.4672 80.9294 101.899
61.0587 79.9337 208.732
53.5104 88.6227 94.3189
62.1689 18.9839 182.881
56.1255 2.23347 154.427
41.3111 117.93 148.697
44.6434 86.1325 198.682
43.791 112.438 138.348
64.9236 10.4199 136.951
69.6943 71.9327 204.427
71.8636 139.559 91.1788
49.2813 97.0434 208.377
87.7375 112.416 221.043
66.8259 178.599 133.626
42.5236 110.735 187.107
29.695 61.132 102.922
63.5387 77.3916 198.554
70.9788 133.25 86.3829
46.0438 76.1835 142.287
41.9191 112.499 200.102
43.8129 51.5335 152.58
81.0925 133.724 89.6442
47.09 211.596 273.654
59.1485 53.7572 95.148
58.7911 146.511 194.037
61.3198 100.407 94.6831
52.2241 52.4894 121.022
31.8354 95.7526 130.563
55.3718 111.39 144.554
38.7991 55.0902 102.072
78.1441 23.6026 106.688
46.1461 109.4 206.002
43.0653 117.978 142.418
29.6551 70.7594 109.404
31.8955 49.6465 159.09
28.6858 76.6576 157.698
26.6318 54.2184 154.999
37.9481 74.2276 133.179
45.5813 227.62 245.554
30.8474 59.3239 153.726
50.6102 223.085 248.425
38.6457 86.0072 139.205
46.1396 146.49 137.628
69.7483 70.1585 94.2734
49.3426 158.333 128.871
72.9521 64.7753 191.024
81.6882 132.378 208.484
41.0192 58.977 150.084
33.6411 98.4817 120.798
44.3069 97.4647 141.096
60.1278 50.7066 138.628
45.4198 160.805 136.844
67.4529 173.61 122.817
65.5063 65.7612 189.127
72.296 174.418 130.146
32.6683 112.996 152.933
28.9251 93.6287 147.008
94.0435 149.47 201.466
46.1367 152.939 135.03
35.4041 105.23 188.338
77.5997 10.7105 149.129
67.6841 155.025 187.52
44.0937 61.8301 140.559
36.8174 230.651 257.39
96.8098 106.103 216.414
60.0052 17.1795 195.855
66.2119 24.4958 153.853
52.1167 176.543 129.94
46.9829 164.9 131.148
29.9082 43.1569 153.451
93.0636 4.04126 208.867
41.3227 137.084 143.112
72.6918 140.432 108.01
77.3769 116.843 215.983
20.9064 78.1164 155.883
23.5732 60.0106 106.189
72.0737 117.29 211.814
51.6632 4.71651 203.365
80.0296 16.2629 119.47
57.8448 78.2122 148.1
41.4236 144.301 146.845
72.3835 15.4597 156.772
26.3602 64.4675 154.629
42.0082 100.177 187.27
62.7703 142.005 127.484
66.473 139.62 108.29
17.3407 42.7698 142.047
39.2517 89.2381 178.864
81.9141 130.44 218.956
77.5853 223.7 250.821
52.9488 81.0277 199.032
73.2628 153.711 119.089
34.1894 36.0701 127.809
69.2092 136.169 209.259
48.7924 108.305 122.54
17.2474 64.6772 152.109
70.8086 173.456 137.607
67.2448 126.815 90.1098
40.3903 101.34 154.852
43.0513 128.415 148.296
33.9458 131.191 170.375
42.1266 100.868 148.62
72.7071 146.222 121.574
61.2194 9.77542 117.547
50.6399 35.4727 152.601
76.3822 122.891 217.792
39.3076 88.4139 172.683
62.0696 128.581 85.9719
68.0768 23.3758 172.593
26.4632 84.6787 117.771
61.7342 128.404 124.353
23.7594 81.123 121.377
42.5629 34.6262 142.965
66.6493 98.1115 100.107
74.6402 167.924 126.888
78.5779 2.9053 145.837
60.1916 161.737 165.176
55.6064 105.797 124.807
22.9271 91.5151 144.721
20.1561 43.5853 112.123
82.3523 41.8264 135.399
65.6466 127.578 206.003
59.3842 153.48 188.859
43.377 81.0818 176.519
51.2942 149.084 147.925
83.8719 66.4165 187.205
54.7682 97.4063 104.95
73.9652 26.9338 148.95
57.6179 106.115 97.06
85.0083 142.475 100.126
73.2587 163.496 175.714
40.1551 107.855 152.77
57.5344 13.3748 137.926
56.5858 130.104 129.136
57.4668 5.46304 208.033
89.1354 123.416 89.7262
35.1436 123.589 151.61
50.7715 151.387 154.821
51.0812 114.769 135.363
103.212 7.37867 154.044
13.5622 68.373 127.283
90.5448 103.301 209.793
63.2874 1.78884 150.044
52.9601 9.99075 122.819
48.38 152.56 172.665
93.8347 16.3177 188.429
40.1926 118.593 180.389
37.3434 99.2139 136.081
31.7667 105.472 180.757
61.3343 73.1717 191.825
35.7556 119.925 159.565
61.6731 67.6973 102.418
62.1755 117.173 216.789
23.8792 45.3513 151.143
42.5684 134.041 164.602
56.9542 109.515 138.82
63.4392 79.7603 95.7417
32.7767 50.9837 105.011
61.7679 135.61 124.129
50.7285 153.615 180.423
36.2995 70.6788 107.775
44.3851 8.20556 181.733
88.2069 160.274 183.163
53.4497 144.327 125.755
65.1274 214.372 256.53
48.656 164.528 142.085
44.6621 227.618 258.281
55.7333 94.976 209.39
48.8888 99.3527 102.427
57.1538 221.965 242.315
39.203 92.378 187.712
51.0163 130.564 119.56
47.7073 214.528 260.674
56.5492 43.53 146.96
55.3295 151.623 132.229
32.9204 73.3433 152.528
77.082 140.755 204.229
54.6602 53.1742 147.422
68.9101 168.455 117.171
56.153 101.191 212.184
47.8932 82.1438 146.875
55.6427 111.467 110.161
73.5363 86.2121 103.968
53.1769 59.0145 113.692
33.1552 94.179 139.479
11.2502 57.5756 243.406
57.897 172.156 141.84
51.5589 140.316 140.086
93.6458 162.586 124.783
73.3541 67.9491 197.96
99.3497 125.831 220.799
54.2908 155.612 166.317
110.748 105.942 210.667
78.9954 213.06 261.797
41.435 103.638 119.291
70.1216 138.457 123.505
72.8124 117.908 96.8624
53.8563 216.203 253.115
60.6095 75.5039 179.957
41.6562 109.409 128.559
80.6768 92.5097 212.303
50.2307 143.501 98.0617
75.7846 135.343 210.118
42.2581 227.97 251.104
68.7612 93.6114 105.382
85.6409 170.417 140.362
23.2641 83.5128 154.175
69.1723 219.94 251.83
83.8027 123.921 218.977
66.205 228.167 239.567
80.9654 66.8182 193.975
61.2111 8.11048 156.278
22.1004 37.5234 132.757
61.6941 8.26459 125.977
92.9314 137.365 213.257
87.5007 98.7059 217.617
88.3708 137.525 106.763
40.4263 117.101 168.428
52.3408 105.804 208.474
37.1312 128.748 175.512
68.6352 111.464 214.722
46.7831 119.091 201.954
11.4379 63.1377 58.5306
21.6588 54.1536 110.666
67.1807 83.0639 207.009
48.7809 129.588 208.068
46.8317 106.838 115.256
50.7908 127.516 105.92
47.3669 141.598 143.01
52.8647 25.7347 110.624
47.2971 1.96148 168.313
53.6925 14.8415 191.895
25.2299 92.4904 132.406
55.2161 54.3096 132.623
96.3281 91.7414 211.55
55.2019 135.333 132.326
57.9188 148.462 121.676
53.8092 140.173 103.882
41.9096 115.746 189.601
86.0192 12.7474 128.101
41.118 124.393 155.436
41.602 226.216 265.442
49.9045 7.43782 194.034
83.4281 117.494 224.179
50.103 90.7284 194.377
68.1642 102.263 92.8803
74.4367 46.298 93.4806
62.844 65.7507 174.505
36.656 29.6973 143.789
82.7873 106.139 219.5
60.3216 58.4771 128.182
79.5925 159.522 183.232
90.2943 143.07 207.429
72.8514 126.704 89.6346
86.701 19.3013 197.25
57.6515 174.268 127.652
77.4778 8.80696 208.09
69.8866 95.4568 122.144
44.7081 101.98 195.846
54.5231 126.107 207.712
68.2603 120.196 86.7929
33.2959 114.82 175.369
145.889 123.278 165.358
11.4972 39.7781 98.5721
82.3636 98.2411 216.083
60.8828 102.948 137.847
39.2701 72.1444 119.574
44.5336 104.405 110.199
10.7395 58.811 135.144
106.835 147.116 201.829
75.4894 110.362 217.106
87.3658 20.9507 189.959
32.5682 80.4605 109.982
68.5903 63.8793 88.3591
90.9627 117.267 221.456
44.2179 140.632 153.397
59.4157 93.1186 103.362
48.3538 147.863 178.283
56.9413 39.1019 110.023
69.9861 24.3414 103.233
62.8979 29.1266 102.148
58.6387 80.5968 199.627
60.0975 89.3705 147.43
74.552 25.0983 171.943
64.3953 62.3682 113.464
72.5721 173.595 141.822
59.9745 85.6997 94.2729
94.1304 7.1133 152.386
96.539 143.651 210.83
59.3533 213.362 257.908
35.4147 121.074 175.203
80.8497 80.5182 92.4847
78.9313 171.241 139.922
42.8733 102.833 204.852
62.785 176.428 126.259
35.5743 96.4231 171.544
71.6065 143.214 101.535
70.1341 125.057 215.105
77.3651 165.512 156.772
56.6583 117.896 213.636
39.2864 47.9934 108.369
50.336 82.8742 191.735
63.3674 175.072 140.735
99.8453 99.7742 207.22
45.0763 40.896 155.347
41.4035 98.2736 107.313
76.4071 101.324 208.275
41.0705 131.6 188.679
76.9904 128.715 213.452
104.359 141.997 206.686
57.1528 124.206 111.274
44.1432 124.124 143.597
54.0144 12.5864 177.987
44.8774 49.3757 122.268
38.4276 132.291 154.186
127.988 120.187 208.881
39.9849 32.7891 128.605
60.9928 49.1967 122.028
73.8161 145.838 204.302
64.1178 124.876 213.561
48.9541 28.2526 108.698
90.5305 157.097 116.936
63.3254 95.8188 214.866
67.203 117.345 209.117
101.623 86.7372 207.936
54.7401 73.624 181.345
45.1824 148.826 157.873
68.8316 21.8514 164.323
85.7188 161.166 122.564
94.2654 99.0913 212.504
78.0762 20.0616 158.694
11.228 31.1919 48.377
75.4094 80.8492 215.497
91.4132 92.9255 216.214
10.9502 53.9085 80.147
108.576 2.45957 177.8
61.7677 68.1928 167.362
72.1192 79.3061 137.901
85.8744 155.341 187.489
49.8742 113.624 207.705
26.9437 32.8264 127.453
31.1039 106.93 174.293
53.9191 77.3754 193.163
85.1748 79.6006 205.941
108.279 111.267 218.997
53.2748 87.0628 144.878
83.0574 141.65 200.404
62.3135 64.0976 182.978
83.5145 155.244 119.966
73.361 88.6686 214.736
73.1006 208.668 258.239
51.5118 118.969 208.496
63.5906 221.416 239.523
75.472 95.9975 215.626
50.5419 93.5691 99.1625
65.7733 30.793 152.983
94.6001 116.06 94.023
67.9825 87.1269 141.591
46.9741 106.476 200.376
71.3177 225.068 246.425
56.7352 63.585 107.274
51.6325 72.555 168.421
66.3517 86.4826 101.35
53.0342 119.596 112.242
117.319 122.463 215.224
52.6723 146.769 135.392
106.763 126.688 217.62
68.7214 93.9679 214.662
55.4986 209.939 265.263
47.7814 54.8837 133.455
42.3619 117.941 156.075
35.1917 96.8668 159.048
60.0926 129.237 207.197
114.205 129.294 208.024
43.5412 134.473 174.588
64.3857 130.98 117.601
63.562 2.02832 213.527
58.3758 67.8082 189.016
44.7491 36.7026 147.729
45.1663 72.33 103.005
112.246 141.885 205.627
49.0537 171.206 134.752
144.969 117.774 161.533
87.8874 166.147 134.908
79.2984 141.789 95.7797
63.9001 69.0252 149.327
53.533 132.98 103.418
19.0439 103.527 151.312
70.1343 21.5794 193.42
50.0152 63.8352 99.7738
81.7337 141.565 208.905
84.4833 14.0737 154.16
56.0788 60.2445 131.323
59.181 61.5141 140.822
70.8572 165.555 144.696
63.0088 44.1208 111.371
63.8548 144.643 199.096
49.036 76.0259 188.178
44.5583 214.237 267.812
63.7095 18.8016 189.467
49.4247 102.373 132.477
44.8156 81.3126 162.32
48.8504 142.76 180.629
94.6952 112.011 220.292
49.8841 153.436 161.209
47.9237 156.458 141.434
93.7389 131.729 97.5354
99.3381 68.6076 192.953
78.7532 14.5995 109.509
68.8909 141.152 204.375
79.2528 74.7992 196.029
78.4101 125.984 87.877
84.2459 230.336 249.544
41.5524 39.206 119.098
48.6392 80.2635 100.438
80.1883 25.5403 132.437
38.2014 124.499 169.35
107.349 4.50893 195.204
72.5121 104.484 217.52
43.993 123.028 135.965
85.2184 30.0912 107.513
54.2476 10.2273 130.666
43.2884 50.0966 115.588
60.176 86.3449 213.189
82.7312 220.685 256.546
50.2942 104.437 147.151
66.1829 164.009 120.405
50.7068 11.9209 185.851
83.1441 23.2477 167.326
60.6518 136.534 114.016
47.375 57.6848 122.19
41.4502 93.9527 163.312
42.3791 90.9456 143.308
43.6472 80.4778 182.755
99.0179 3.43604 201.573
77.9846 104.041 94.4632
43.4163 68.1944 108.192
41.5021 60.5372 105.778
81.3099 166.409 134.62
51.8935 141.76 131.583
68.2064 104.403 128.896
73.302 162.222 167.085
73.5717 76.7438 192.589
55.4026 137.017 113.381
58.2372 217.257 246.392
73.6463 110.061 89.9275
33.6977 128.991 156.366
78.0808 229.669 245.122
87.0482 134.435 216.399
46.6755 78.6502 168.707
31.9572 102.821 151.386
70.924 10.0562 205.3
38.2339 1.48442 192.149
59.8586 108.39 211.349
61.1434 210.29 263.8
83.1137 229.072 257.484
40.1847 231.283 244.428
34.8667 32.4231 120.688
106.046 97.7758 206.611
56.1012 15.4953 172.656
11.5151 72.1336 257.312
95.8722 138.601 102.879
55.7145 136.837 125.565
75.499 23.039 165.889
81.5339 121.862 91.1014
62.8609 109.703 127.468
50.1534 69.045 144.596
94.528 16.5391 207.521
85.8456 6.59354 149.029
74.7851 155.284 186.052
66.6984 68.4259 197.243
46.7711 153.864 148.007
46.6029 44.197 128.641
92.0489 130.618 218.923
86.1076 138.785 211.589
112.051 83.4685 207.419
71.7943 54.8744 109.501
139.922 114.277 184.339
42.6759 54.7215 110.475
63.7801 106.941 214.748
44.0288 118.734 195.587
92.857 14.0382 153.931
93.8021 157.073 183.715
127.225 144.065 163.424
11.1095 24.6471 222.161
72.2459 71.4865 87.4624
78.7454 69.3114 85.1989
42.1987 93.8596 168.171
84.1122 24.8216 179.104
78.8335 159.905 116.808
69.4503 76.1603 96.1516
53.1283 46.4073 152.254
59.1939 141.881 108.27
59.5287 137.983 130.22
77.5144 146.935 102.904
112.559 92.3167 210.775
76.3322 81.6456 204.361
74.0545 230.443 239.612
52.3945 1.37766 162.977
117.247 135.632 208.807
81.2526 141.115 106.9
43.3022 2.40007 176.293
45.3863 136.253 158.162
53.9999 129.982 112.966
45.1812 65.5754 93.5591
59.5588 73.7642 101.16
72.4295 162.126 157.832
50.9864 58.7719 127.923
94.1713 153.794 193.175
94.9966 122.26 224.223
97.8014 123.141 96.6226
116.036 150.491 166.467
75.647 96.066 103.246
66.7608 206.302 266.999
106.017 168.71 131.52
66.63 36.2667 178.21
50.2463 122.669 100.184
54.1138 214.911 260.431
35.7124 111.154 137.725
67.7565 76.1486 145.034
69.6124 165.832 153.267
85.6211 162.182 130.918
103.083 17.9654 178.383
68.0134 52.4208 90.845
133.19 132.061 171.564
117.901 147.674 171.08
85.9437 61.2045 200.816
71.9181 46.2059 117.994
77.8692 26.5922 177.399
86.2246 90.2272 212.323
78.7156 30.4358 101.496
51.601 149.007 166.474
71.7953 56.293 86.1984
31.6465 73.9302 115.621
102.531 138.48 214.147
41.9928 130.689 180.928
53.955 212.563 271.798
60.4428 134.847 99.4169
79.1237 212.96 254.743
36.1066 117.93 152.06
65.9911 212.494 263.274
60.9208 207.68 269.838
66.8429 221.155 244.248
36.6653 95.1151 113.303
88.4358 126.478 219.072
76.6099 21.0417 143.663
49.9139 25.4705 116.446
14.7616 33.6663 64.2999
59.3166 57.4075 119.907
86.0979 209.577 269.063
44.2793 140.245 176.158
68.6732 159.049 163.009
102.683 6.82349 161.636
56.2234 96.2215 138.454
40.1382 1.65378 172.877
80.7981 106.194 208.341
48.9133 9.27705 176.563
46.8205 59.6696 113.02
37.3192 1.71961 185.015
92.5453 162.609 132.778
85.806 117.399 91.4108
56.5125 105.344 104.088
100.204 11.9767 203.922
66.245 206.268 274.11
56.4112 138.402 97.6493
61.1455 102.894 145.199
86.7967 152.573 193.676
99.1968 130.978 211.15
53.9665 64.1992 140.916
43.48 5.67152 186.973
52.0296 231.138 239.046
143.001 118.621 174.056
55.1226 142.651 188.282
78.3175 117.18 93.7919
83.6396 60.2514 179.594
87.2488 13.1689 134.914
56.1328 159.129 145.362
62.7441 162.297 150.329
68.6314 143.215 97.2316
65.4015 75.1322 86.6656
54.8452 88.8678 153.643
80.1691 168.268 128.228
79.8142 162.424 171.098
89.6937 26.1003 183.918
88.5494 72.7645 193.608
68.5723 137.88 115.948
77.1582 63.6733 180.625
42.7372 124.608 190.291
103.466 63.949 190.237
90.3183 20.3342 168.034
82.7194 84.1589 214.522
18.2696 56.9663 226.384
66.0321 154.335 114.952
98.0975 94.2878 200.126
63.6037 61.3597 123.746
66.9373 149.911 192.343
78.237 151.338 115.292
77.4584 69.5035 109.184
107.334 14.2864 184.04
69.1754 102.275 219.789
86.9207 216.607 259.35
71.615 68.0065 123.763
84.1339 96.5112 95.6005
110.702 173.786 138.325
101.825 110.946 221.446
79.2584 14.8037 131.635
73.6371 62.7137 84.6485
101.973 106.706 208.033
11.4783 28.5092 236.736
82.6431 17.4258 107.85
64.5997 107.262 220.867
71.4605 203.499 267.994
43.9203 42.0147 148.308
109.677 121.095 211.068
35.2589 107.637 169.313
99.9588 85.6402 197.596
84.2193 31.7742 138.429
55.6188 67.5172 151.547
63.9422 61.8011 137.457
109.209 3.66337 161.495
48.4937 134.709 182.885
106.727 91.423 207.874
80.5601 207.978 264.338
11.2722 36.3831 56.0082
91.5057 65.3119 186.811
68.4813 68.5951 105.91
76.0252 167.211 145.966
57.4374 56.7099 102.416
112.619 77.2852 194.977
41.0771 92.9815 155.759
94.0367 73.775 200.354
80.4671 28.595 146.542
108.118 82.2845 200.604
67.2755 49.6959 126.122
75.0269 90.3871 123.383
108.965 10.266 190.487
123.008 145.2 173.63
87.592 33.5536 150.19
72.7476 208.829 264.36
47.0474 73.0326 95.6952
61.867 34.8937 155.285
11.301 75.0458 52.925
33.7624 119.351 182.85
93.8898 85.6037 198.059
62.1097 108.967 133.96
119.839 116.66 211.106
60.1821 140.483 99.9514
87.964 227.934 264.964
74.6073 204.037 272.832
94.4928 83.5459 207.264
65.8775 60.0325 104.846
41.3138 86.8461 164.127
70.1802 46.5989 100.318
105.406 142.023 102.599
66.6277 119.92 215.467
55.5371 98.3656 147.101
65.7149 68.797 141.376
53.3147 49.5342 129.618
119.531 87.0622 205.978
140.153 124.503 170.314
63.4083 76.2201 91.7995
134.947 102.305 170.539
55.5051 153.997 118.72
95.0175 1.93142 148.51
48.1941 89.4377 156.389
102.029 5.94822 194.677
84.1015 150.997 113.132
75.5176 72.567 117.751
75.485 77.9513 101.978
110.228 99.9668 209.589
94.0445 67.4139 192.67
59.7512 57.49 133.601
88.0554 84.1775 207.123
91.0177 88.239 208.95
71.8392 60.6872 107.544
77.3313 67.4354 125.626
85.7408 13.6055 202.496
66.6594 58.5264 90.1162
68.1918 108.099 116.865
73.2052 103.989 94.2034
69.9213 104.745 106.332
107.513 115.543 211.977
86.5044 165.383 168.65
83.7838 22.1586 111.507
135.49 99.0345 164.677
64.7942 102.897 110.807
78.0449 36.1369 105.683
117.598 100.14 206.623
62.8093 115.898 103.142
75.9555 79.9083 126.38
113.034 114.388 209.224
95.5099 40.3423 192.186
97.7978 11.7094 194.587
73.0892 64.5545 184.842
113.767 144.872 199.145
67.6078 48.5346 133.216
60.0019 104.105 217.529
77.9387 50.8887 86.4059
81.9805 35.7503 117.396
50.4385 44.2303 145.817
78.5023 37.4406 128.83
128.682 143.028 169.754
73.6603 103.773 125.163
79.62 165.563 164.275
61.4203 154.567 158.195
38.5173 65.056 170.918
112.924 170.148 130.816
40.9548 112.383 147.31
51.0681 97.1925 152.026
19.9699 181.695 238.199
59.3301 206.808 274.744
88.0994 171.303 152.449
97.8887 73.9489 196.081
74.6494 220.202 262.153
112.945 129.822 216.144
80.2143 110.544 91.6931
72.6035 39.2679 99.5039
103.956 74.4888 198.975
50.207 132.403 139.42
69.9333 54.995 121.143
75.2973 153.155 190.903
15.5933 44.2196 231.726
114.464 86.9609 196.941
46.9237 144.21 150.468
81.9554 24.7281 120.142
146.151 128.035 176.306
79.1417 170.047 150.055
85.9175 24.6725 147.887
78.8921 199.855 263.831
77.6069 102.264 104.952
27.8091 231.772 272.646
70.632 32.1954 103.663
120.789 88.0437 196.794
72.5148 43.9132 137.962
101.927 151.794 196.216
12.9862 42.4497 185.95
87.0142 111.659 88.5311
106.187 148.625 193.717
