ply
format ascii 1.0
comment Created by Open3D
element vertex 581
property double x
property double y
property double z
end_header
20.7529 136.97 152.656
10.8495 139.922 124.883
5.00784 108.779 114.828
13.1698 129.484 142.702
49.9211 9.10583 223.64
18.7543 197.725 5.12939
97.7444 111.528 98.0678
24.2319 108.684 169.242
34.9253 113.163 72.1364
43.6409 134.085 69.5727
50.0499 82.115 155.097
17.9788 86.3918 97.5363
13.8882 137.803 137.766
19.6931 81.924 147.823
14.6476 101.761 154.644
5.99888 187.384 4.73327
44.1293 157.766 90.3698
44.3221 10.691 228.471
28.4995 157.219 135.196
22.8226 148.69 112.01
6.07136 99.0129 112.099
54.8774 107.043 64.8352
6.77044 127.173 128.582
42.3225 137.493 167.188
39.4023 76.8101 146.199
8.60558 112.463 139.95
29.0183 108.911 79.8229
5.50443 55.8323 182.476
56.6283 109.275 150.423
34.6881 71.3934 112.224
60.2614 158.482 148.301
6.04976 122.94 110.902
55.2775 145.62 70.7902
24.2181 117.171 169.458
34.6148 120.614 172.333
7.90585 132.745 112.659
31.567 144.137 90.5612
12.9102 108.376 97.9581
37.8345 166.144 132.224
5.05446 185.683 14.8242
6.17717 104.426 127.239
42.9685 127.709 165.116
25.4531 131.65 89.6241
17.615 146.039 135.084
39.0557 166.492 140.678
80.4033 100.261 82.2151
28.836 131.661 82.6659
16.6353 121.788 154.824
30.9628 157.936 126.177
41.1719 12.7994 221.692
26.7059 71.1092 109.412
57.5503 6.16474 227.085
22.2277 149.365 142.042
29.7841 151.072 156.937
21.8554 121.987 165.154
5.58055 129.189 117.796
88.0245 127.759 112.611
91.301 152.921 89.8121
55.7016 129.636 63.0865
13.2111 118.818 150.153
18.5362 107.486 159.478
30.5337 124.46 77.1913
4.83673 102.993 119.699
47.2612 12.0205 237.02
63.1908 170.281 93.1286
43.4649 170.5 134.405
26.3017 97.8017 81.2019
86.6622 117.486 118.387
26.865 96.6682 168.257
62.9272 146.334 70.0006
94.8352 126.212 107.179
65.2742 135.519 133.188
17.8546 130.608 153.511
6.51427 44.0316 164.406
27.0076 129.9 167.668
23.7254 121.867 86.7321
63.642 175.747 109.134
79.6261 134.483 119.479
50.8442 5.39763 243.444
45.4204 2.6033 213.979
11.8779 141.322 116.366
38.7737 12.0642 235.503
19.0973 79.3724 102.352
39.9633 88.9436 166.952
52.1535 99.2485 163.774
93.7397 148.837 101.97
30.467 139.32 85.7881
16.918 135.918 104.231
21.0282 101.304 164.038
44.1016 119.795 162.043
37.6703 129.161 171.253
6.02064 193.718 15.3834
14.9342 82.8047 141.12
71.008 154.97 130.605
12.612 126.867 102.485
22.2031 99.2624 86.0354
47.6189 173.015 128.994
68.6563 159.257 80.6112
51.4215 7.67238 238.136
53.6094 171.342 103.276
62.9933 136.728 65.4992
61.7851 3.07138 238.746
12.2072 98.464 149.257
47.1525 77.2593 141.942
26.3581 153.424 121.181
67.6379 166.577 87.6187
55.1301 121.635 143.881
37.2066 154.259 96.0304
27.649 3.29605 236.533
28.6694 117.572 79.4419
13.4483 81.2892 135.114
58.0526 83.0635 152.606
30.8835 144.851 163.099
19.8104 115.508 89.9815
46.6587 76.4724 104.224
24.1544 146.233 104.298
8.13412 108.234 134.654
47.193 7.83209 247.13
25.5216 138.157 160.517
29.0202 137.318 167.302
66.977 165.045 137.407
11.6263 199.924 17.6931
42.0542 72.2158 113.326
9.16352 101.27 141.808
53.0604 157.284 80.9408
27.7799 88.6045 84.2948
8.3297 61.9023 223.06
33.1856 74.5777 142.593
29.1926 71.6457 133.742
17.1086 74.5988 126.413
53.9126 79.7775 122.874
4.52612 120.187 121.016
44.5734 84.0321 161.869
51.4679 112.357 154.909
63.9548 147.039 138.848
45.7187 150.316 77.518
78.9317 162.715 119.385
36.0672 126.763 71.5883
85.9428 123.204 116.767
69.7606 147.489 129.202
46.482 112.44 159.831
18.9093 114.733 161.504
21.2004 151.134 128.551
5.4319 103.284 204.667
89.2458 107.366 88.4277
66.7805 108.942 141.188
35.4248 72.3131 133.144
47.0095 145.069 163.365
76.8544 155.318 123.374
62.2952 161.347 82.4833
100.342 127.886 94.6445
31.7824 72.7059 103.232
60.1379 128.954 137.373
37.7436 10.5136 250.904
64.4304 174.128 101.483
42.6728 164.16 109.421
40.4705 94.3823 73.8132
19.254 86.8053 154.624
31.2667 76.3134 149.285
46.6659 77.7648 98.598
51.1248 88.5215 164.828
49.9202 80.2512 91.5362
89.2 149.323 108.973
40.7337 159.867 101.056
85.5513 111.956 124.658
38.2173 75.3506 97.5709
65.7677 143.448 133.793
51.599 173.244 116.239
39.7095 70.9489 118.804
35.5295 105.367 72.2956
40.5104 165.875 27.3601
89.4194 107.392 123.726
48.5813 137.761 158.216
33.9012 136.39 77.3397
55.2525 162.574 85.5072
38.0626 72.0478 126.866
58.9667 116.119 62.9335
36.0287 161.749 152.845
94.5624 116.258 86.1191
72.8422 108.648 136.153
33.9258 79.7153 155.601
35.4389 83.868 162.909
61.83 89.7052 75.0593
56.8411 85.6751 79.3876
38.7281 155.538 161.587
32.4839 161.277 140.702
30.3087 149.327 99.8526
9.20904 122.658 137.096
62.0678 154.498 142.908
76.2615 158.512 80.1174
38.2177 148.883 83.411
53.2176 126.108 147.363
42.602 127.891 68.154
30.8838 103.944 172.78
64.7868 114.307 137.35
12.4969 79.7116 128.276
70.2717 149.79 73.8538
22.003 71.1204 124.671
8.36089 88.3601 117.68
74.3654 103.108 68.8419
14.3902 79.0914 112.824
56.2144 84.0742 87.3026
64.8422 126.212 129.855
50.212 160.853 86.4465
34.4149 70.2197 120.665
29.2862 84.5122 160.804
19.9387 74.0588 108.747
56.4472 168.377 93.067
38.2114 12.8078 243.224
86.9185 143.949 112.809
83.1443 97.7643 89.5979
96.6624 142.344 93.616
51.6198 149.898 158.41
70.2328 170.559 130.732
45.2849 154.213 83.2107
50.9845 134.024 65.8417
81.5714 128.498 114.54
20.4957 144.699 147.242
43.9707 169.137 122.46
67.1528 87.6641 102.65
52.9545 175.876 133.657
25.616 78.7274 150.535
70.6995 114.408 132.535
9.34951 95.2578 106.167
38.2579 151.374 89.4379
41.6939 108.599 68.0447
80.0796 168.875 98.1037
34.6503 163.103 146.94
8.74591 87.617 124.66
31.9845 11.242 237.927
9.89086 117.521 103.78
55.3376 174.27 110.932
90.3086 141.735 108.937
98.035 130.179 100.888
36.2369 7.27517 222.655
6.4421 99.9423 132.192
38.1144 101.833 171.965
66.2476 152.126 135.143
17.2854 203.096 17.1079
25.9147 152.488 147.803
18.4978 95.7224 159.412
46.6673 141.08 70.2961
47.7327 172.228 139.448
44.3968 94.5656 169.646
53.7251 134.016 149.321
67.165 107.45 63.9848
87.43 150.922 80.7367
38.5103 142.067 78.4851
73.6918 164.966 87.2088
17.3611 74.1761 118.319
7.30781 95.664 129.215
42.0292 74.6798 135.607
44.1662 169.624 144.602
19.6262 77.1717 140.872
42.067 73.0037 106.866
94.5325 141.998 103.659
5.77222 178.402 18.772
30.421 154.967 112.86
55.4552 140.431 146.474
51.4348 142.266 155.818
84.0751 167.317 106.539
73.272 122.066 63.3586
78.0616 127.831 125.765
65.2583 85.4436 110.04
35.2194 156.552 104.657
52.9438 100.498 67.8746
6.92252 111.346 108.016
27.6374 82.29 88.6377
48.365 146.446 72.9932
97.7601 134.29 89.3511
52.118 5.37004 231.574
60.9168 148.246 144.978
72.818 119.285 128.069
73.9498 146.571 124.496
60.3218 124.53 62.9725
12.9991 79.574 120.417
89.8498 112.057 81.9597
90.5728 119.824 113.131
59.5595 87.2699 161.117
91.2222 158.253 97.1741
47.9364 110.212 65.4337
79.8338 163.683 88.4642
99.8621 121.864 99.3429
10.338 114.375 143.968
43.1983 79.3628 151.371
8.4985 180.021 27.4042
18.9825 148.433 120.231
61.7454 113.077 143.817
49.122 123.353 63.9596
13.8823 82.7214 106.802
45.7412 105.988 164.468
22.6662 89.064 88.8906
40.769 80.1892 157.489
47.2072 131.885 159.628
16.3485 93.1114 154.295
3.88923 71.144 201.725
59.7501 176.639 116.389
41.9731 5.76067 250.008
9.2907 194.317 6.68387
93.9355 146.411 89.3706
25.4062 201.884 18.614
71.2477 173.936 103.286
13.4517 111.451 150.822
40.6194 120.552 168.833
56.8749 5.91936 239.841
28.8615 5.41938 224.813
97.3693 136.806 99.3067
49.8125 172.821 122.1
91.823 130.836 107.888
11.1833 101.196 101.537
13.1332 170.823 15.6284
66.0101 158.454 136.343
4.76072 118.368 129.775
85.0212 152.057 113.758
77.318 110.773 131.543
94.3723 101.766 102.715
93.7809 106.688 93.0004
69.2191 85.8558 120.467
46.3591 75.5004 133.376
56.3487 176.655 124.553
29.4804 70.7399 123.245
10.488 87.9419 109.448
72.9575 102.61 140.029
40.238 109.131 169.779
93.9932 112.749 113.124
57.5477 140.139 66.855
37.0262 9.78047 228.034
39.4011 164.331 118.184
44.5642 102.364 69.0128
69.1437 94.8521 72.2718
68.4495 135.784 128.324
60.4999 165.424 143.522
30.9427 113.341 172.78
57.9587 83.4374 94.8939
56.5583 129.52 142.803
88.7182 157.186 108.836
45.2981 151.589 163.581
24.0137 111.218 83.9496
74.578 158.464 125.546
25.5353 72.6758 138.348
80.8956 151.756 118.662
25.4484 73.6429 101.046
14.7389 194.498 30.3443
19.3947 168.236 8.60455
71.7043 134.07 124.441
37.1199 94.066 170.722
22.6765 90.631 162.105
51.2574 80.0332 147.013
39.4138 117.494 69.2073
23.8944 80.8123 95.7316
77.9502 102.421 136.338
31.5413 90.615 167.565
52.8998 1.90105 249.157
54.5177 153.565 154.588
42.7589 11.4579 249.127
25.9826 137.144 93.9601
48.4571 119.442 156.018
57.2 148.097 150.195
54.128 172.849 142.167
87.7302 98.2328 98.0776
41.1632 6.62452 216.893
47.8073 163.708 93.2749
24.281 146.632 152.431
76.3158 172.304 119.244
45.3394 74.2903 121.536
47.1249 169.086 112.843
96.6328 107.11 110.035
51.5176 1.89673 211.518
81.6189 144.347 113.544
84.6828 110.739 74.7621
34.6942 159.308 116.561
60.2233 165.843 87.32
52.5183 93.4381 70.526
57.48 101.305 156.346
52.3451 116.468 62.8279
89.7657 121.95 76.0698
90.237 117.547 79.3424
38.1472 150.002 164.665
72.4166 90.6397 88.0265
92.8747 147.22 83.4246
73.6738 88.259 114.936
84.0989 118.499 70.7793
15.5517 89.3612 145.754
41.1529 114.712 166.545
44.407 13.4717 244.273
48.7152 125.779 155.208
31.4475 75.2874 93.9367
57.3286 82.1375 111.115
70.9165 176.267 119.227
45.7949 74.4138 126.655
60.6569 141.181 142.858
37.1528 163.815 125.841
54.3584 142.267 152.114
19.6961 74.353 134.094
6.5315 95.2816 118.513
95.2127 118.306 108.851
61.2306 173.279 137.01
37.2977 4.48525 253.033
47.114 100.76 167.624
52.0854 79.1177 137.996
90.1619 135.681 111.194
59.2628 173.791 102.398
96.0208 122.613 84.9705
62.6573 152.947 75.9653
80.6047 105.579 130.577
62.8075 138.135 137.391
77.3456 114.908 65.4383
48.8368 168.068 102.659
10.2227 90.0871 142.949
32.3405 6.48252 249.106
61.4122 108.483 64.3792
63.784 104.455 147.842
89.0439 162.089 104.651
66.7782 100.682 66.6952
47.1034 159.342 159.486
79.0984 114.04 125.141
16.397 94.6816 95.7717
67.5468 129.577 62.3614
37.3591 77.6589 87.211
74.9836 169.287 93.378
30.674 70.0121 128.332
50.1282 131.481 153.386
65.6136 114.499 61.8322
34.1618 11.7531 245.845
44.2386 164.351 101.758
67.4834 122.897 61.863
40.2212 144.105 167.86
98.5468 118.296 104.087
25.2168 169.036 3.95945
29.8884 157.056 149.903
77.8876 93.9119 91.648
59.6461 104.315 150.727
52.4663 151.569 76.2928
93.7695 138.152 83.4756
56.2515 116.747 145.271
12.0984 187.136 31.6514
80.8795 140.947 118.56
74.4521 95.3938 76.907
75.684 135.412 121.774
87.7749 163.06 94.0698
56.1163 163.182 151.43
87.9064 126.721 73.1712
93.1042 106.661 116.364
80.8466 89.2603 126.591
44.9521 80.4054 83.8098
83.5078 161.473 114.997
11.999 93.9483 101.03
9.40841 89.0129 133.927
30.2496 179.524 34.7688
37.1864 88.0506 78.319
37.1787 82.5709 81.9359
61.5988 99.9601 66.5342
59.2252 94.2543 69.4028
61.6568 119.943 135.328
67.5901 174.128 128.13
85.9971 136.886 115.511
95.1701 99.5516 114.59
67.3154 102.777 143.72
78.6574 90.0515 105.549
73.1905 86.8607 130.556
56.9136 155.132 75.8349
57.7971 135.655 143.132
25.2549 75.309 144.437
9.9624 129.346 135.466
26.572 2.79872 229.376
59.4021 118.048 140.306
54.744 153.858 149.797
70.1247 139.5 66.823
39.7558 100.074 73.492
44.5615 163.686 155.089
43.3582 182.722 21.1589
61.1727 83.4177 134.89
22.8832 72.3437 116.741
52.0838 105.998 157.638
38.674 181.194 29.4603
51.98 79.051 115.194
79.4307 172.747 112.346
8.49065 119.741 133.071
66.911 176.964 115.837
29.1421 9.30845 244.308
33.9801 154.941 157.504
74.2376 143.083 69.6358
19.5167 95.8601 89.8722
46.3658 77.5671 113.831
86.6051 158.317 86.6615
26.1846 4.84053 243.685
86.8396 105.731 82.117
52.2852 88.3624 74.0979
50.7153 78.2199 130.082
35.3593 7.41476 237.661
38.6952 191.108 9.0526
31.1865 6.54006 230.852
80.586 104.548 73.5405
76.6106 143.991 120.619
78.7969 126.127 65.5349
54.3079 2.00124 241.443
93.2536 98.1973 108.534
52.1887 167.983 95.6875
67.5099 123.08 127.44
53.3562 3.03949 217.052
65.1431 84.4877 138.581
16.0964 114.383 153.218
24.6543 83.1782 156.631
10.3663 93.759 139.263
60.8756 82.6835 143.591
45.2517 89.6076 74.2754
78.8559 89.2853 118.385
16.7281 103.748 92.3797
23.1177 187.972 34.8512
57.3113 94.0408 162.554
58.7284 1.56009 221.698
67.4209 85.1855 127.201
52.4614 78.5127 107.177
31.6793 198.802 24.0773
36.8251 187.061 3.73842
88.8034 101.147 94.2334
35.0361 2.24114 230.653
85.8159 102.951 128.782
36.7905 198.942 14.6917
14.6271 174.049 5.80213
15.7512 199.569 24.7609
56.1221 81.5112 131.138
44.4431 118.313 65.383
62.7066 94.925 156.55
64.3821 98.9273 151.07
53.2825 117.131 150.204
74.2683 87.5123 123.599
92.8655 153.72 99.0396
19.164 106.694 87.9763
61.5693 177.903 125.152
98.0957 118.09 91.505
66.6417 119.73 131.275
69.493 85.3285 135.173
37.8366 3.80158 218.815
59.6514 85.2728 98.8235
69.2679 171.178 94.949
45.0652 6.66018 220.654
75.0222 174.812 107.24
69.3594 90.7027 80.4428
27.0064 169.6 32.9249
78.6826 152.486 75.6237
41.7149 166.981 149.976
71.1181 131.822 66.5758
59.7846 83.6545 126.984
75.0966 167.092 125.017
31.408 103.117 78.9425
87.8909 142.522 74.993
90.8805 100.619 124.507
34.2466 92.1986 79.0483
76.1705 86.8648 137.46
75.2584 97.5274 142.016
72.0305 111.694 63.6974
23.671 196.277 30.2449
72.505 84.8938 142.602
73.422 90.4352 100.33
81.7689 96.7545 136.497
64.8186 85.3933 155.114
62.7058 83.9446 119.124
51.1588 167.205 148.25
81.7578 138.114 69.0152
20.7138 191.603 1.41439
51.4501 82.4104 80.8542
56.6766 81.3006 139.475
10.7076 82.5314 31.2261
80.2684 146.131 71.844
66.646 130.199 132.184
83.4014 93.3828 105.506
87.5746 94.3159 130.027
61.3467 1.26138 233.153
36.4645 1.28697 248.663
95.0552 129.339 81.4567
31.1535 1.14867 249.166
14.9534 184.367 2.48824
81.416 131.264 68.1963
21.1636 164.756 23.447
87.9238 92.7878 111.834
92.1316 96.4074 120.687
11.2382 180.39 4.56196
69.9727 95.322 150.015
89.7086 133.825 72.9306
5.53786 89.9264 31.8774
