ply
format ascii 1.0
comment Created by Open3D
element vertex 591
property double x
property double y
property double z
end_header
35.3695 97.6476 134.575
36.4832 103.95 129.16
38.4728 102.94 109.043
31.8188 110.674 113.828
20.5866 42.1701 132.382
34.1746 68.9081 101.079
24.4732 110.481 149.301
19.4926 49.2007 73.3815
9.25556 56.1135 224.95
22.9614 57.0745 163.323
19.5915 36.5092 117.011
22.4614 92.5712 191.565
26.6072 66.4857 170.8
23.1062 104.581 93.0532
23.1595 50.7527 134.243
20.7861 113.256 138.01
36.0755 100.891 117.002
20.3185 57.9186 137.755
22.8783 109.553 159.731
21.052 88.2889 70.9656
14.3259 28.2849 148.094
10.1048 159.24 140.89
25.6694 126 127.351
20.0321 130.28 100.759
18.4499 116.688 79.5495
19.4598 47.5545 91.8116
39.8256 60.7542 147.995
25.1384 108.63 126.578
13.2755 30.9179 160.628
24.8605 101.126 181.486
20.912 104.345 74.5017
9.62814 136.004 84.5901
32.2653 102.376 90.7018
38.4811 50.1159 144.045
20.3147 99.8756 79.4923
34.2881 105.845 105.5
14.2946 58.3282 62.2692
26.4766 120.706 99.138
40.0415 83.4957 132.383
22.5905 122.686 161.825
21.0671 94.3388 72.6134
22.332 105.381 132.627
23.5001 134.794 115.627
40.3644 80.163 143.86
18.53 65.298 72.7937
9.34823 25.7922 80.2584
22.1791 83.9797 78.0965
19.1509 56.02 74.7365
26.9834 98.0903 118.291
40.5551 65.9685 98.8924
9.85338 16.224 60.5078
17.8485 131.575 87.1537
21.1327 110.436 89.9345
19.9182 51.3958 81.7422
12.2888 26.5453 121.74
32.147 82.4364 151.666
19.0979 133.996 107.171
23.5767 113.753 165.902
21.3611 45.232 149.372
19.8988 39.4436 85.8894
8.04086 78.6044 216.263
28.7671 145.256 122.323
11.6377 164.749 209.131
21.0898 42.968 122.31
32.0601 87.4194 133.136
16.8443 33.3061 108.965
19.6537 45.8715 83.4849
31.6845 98.7618 157.168
13.5815 42.2495 58.7432
22.4524 49.1954 101.672
21.943 129.416 109.038
8.78441 74.2407 158.744
9.41328 34.5013 177.447
31.7693 66.5718 155.374
9.98068 36.7256 49.328
36.4173 90.4735 126.877
10.0749 123.479 57.4649
26.3678 72.5382 155.514
31.2248 77.1049 87.9689
47.2205 58.6602 132.707
14.1626 34.4791 131.838
23.5137 128.01 146.03
23.3163 42.3377 111.192
20.8188 93.5499 80.6909
17.9447 39.385 107.671
19.6632 123.765 80.0176
18.6807 124.604 87.6818
27.9544 122.022 105.429
18.5788 40.2555 99.0824
22.0551 135.508 148.718
25.2329 104.924 117.285
30.0407 111.025 154.017
18.6449 59.9067 196.893
12.7316 70.4126 53.8223
25.4319 99.7291 89.095
28.6973 51.0388 93.7385
12.3574 37.1314 193.191
36.8417 96.8 96.5289
26.5874 46.0931 102.872
24.2427 112.225 80.6151
27.903 93.8116 165.48
19.1292 113.825 97.9521
28.9429 104.665 94.5492
15.9191 31.5188 123.243
38.321 85.1807 143.069
33.1398 103.008 141.496
38.4865 74.1518 149.237
18.1027 114.719 87.9098
23.8908 77.2517 86.6095
20.1657 61.8916 114.818
32.5842 54.6425 130.236
22.4795 84.2383 189.331
34.8074 97.8839 147.824
17.0671 39.0671 143.203
29.5541 105.381 127.5
35.6275 95.442 120.223
17.9044 50.0333 192.032
12.4014 23.6866 111.496
10.4788 28.5424 153.764
29.9361 116.848 117.012
32.8874 106.58 166.052
16.7171 139.182 96.5991
37.3392 47.182 120.02
14.9905 83.6965 212.024
44.2483 66.3182 141.901
8.60221 42.9674 209.353
8.38241 140.27 150.557
12.6958 139.187 91.4686
16.2627 46.8361 100.909
25.0518 128.217 115.221
39.4114 95.9965 104.301
21.8276 150.641 118.194
10.1832 15.9384 82.4568
23.9653 132.13 128.515
48.1366 88.6116 125.003
28.9943 44.2976 131.878
18.1326 37.2189 157.524
39.2672 91.9235 98.5028
32.119 90.2822 157.809
22.9929 93.4687 175.858
14.9253 141.691 104.483
25.4668 118.081 111.315
29.5146 124.257 117.321
10.0044 30.8944 182.668
17.6435 50.8853 155.671
7.91385 144.208 177.052
14.4359 28.119 107.161
27.1941 103.937 140.111
25.5739 93.9822 87.8564
21.1961 47.5026 184.031
31.154 103.572 111.073
52.7929 79.1669 121.326
29.3137 100.141 169.114
7.39813 112.661 165.767
21.7587 78.7428 79.6498
19.9743 48.9973 162.243
24.0705 109.482 182.157
22.049 138.986 158.193
41.4659 94.9453 120.136
32.1992 105.048 119.625
10.4164 20.4364 94.9694
29.1527 77.1018 158.146
9.10816 11.283 53.3243
21.832 51.7957 110.422
22.2536 63.8828 163.102
24.091 88.5778 89.2826
42.0631 89.0303 128.961
10.3607 141.759 192.691
35.319 84.1144 136.122
8.28744 83.6578 168.477
25.7627 75.602 184.575
14.402 31.5021 98.7224
41.3214 98.2775 129.02
22.7817 116.9 132.645
8.32322 142.82 87.0271
19.6571 41.4591 92.5812
22.6523 120.467 152.787
31.2309 115.267 129.155
33.4038 95.091 167.139
9.22119 49.9817 47.2359
12.803 155.813 126.282
27.4516 81.8917 81.8966
13.2545 83.6277 56.5625
25.6613 115.252 103.135
28.43 44.1164 116.788
24.4654 100.966 187.585
24.5598 121.207 139.036
8.99718 71.2845 230.45
35.3674 91.7782 91.6586
22.0528 152.172 110.315
39.9264 51.152 132.886
33.0325 98.849 94.2609
17.0539 132.309 93.8789
8.42941 60.2877 134.741
20.2682 90.6429 199.274
43.1923 79.4543 137.61
34.2665 60.3856 94.5711
16.8125 89.8669 61.6821
34.1382 102.601 99.3173
28.3699 54.7116 100.697
26.3833 101.085 146.883
32.2738 112.147 100.134
26.0834 122.355 133.104
10.1516 33.4309 58.7851
22.6437 146.361 141.154
12.4558 56.9226 211.034
7.54857 119.31 137.744
23.1153 110.563 96.1165
41.3631 100.603 140.915
22.1135 105.066 87.5054
8.7975 27.278 109.648
22.0376 55.7945 87.8558
36.1256 99.9469 103.593
39.5904 95.0054 140.694
39.8493 57.0711 122.596
14.515 37.6081 65.4565
29.1376 122.065 122.279
26.831 125.764 170.169
13.8885 43.3739 156.746
30.2442 114.75 107.677
21.5495 60.9271 79.4543
45.9987 91.9734 114.636
8.5672 52.9056 55.2882
28.5468 104.537 102.025
25.2639 63.0465 118.256
36.0999 62.4289 153.045
24.8712 53.6514 175.347
30.5016 100.743 150.634
21.3875 115.903 178.888
24.1065 53.323 116.681
25.3244 115.37 119.39
48.8239 74.4117 136.872
32.9303 110.857 121.581
31.6393 89.9902 173.933
26.4685 123.401 112.704
8.93448 125.059 215.41
8.69338 148.183 152.909
9.98839 30.4748 42.9013
18.2068 120.262 94.9014
18.3406 72.5253 201.12
29.7149 109.309 136.758
18.6662 41.9416 138.36
23.3939 106.81 82.0077
31.6327 63.3037 118.671
41.9325 49.277 127.432
15.0692 96.8905 209.245
17.1047 154.333 116.788
8.1861 57.3853 158.251
18.1564 73.1731 69.4288
11.4048 143.467 99.0286
23.3905 108.914 173.938
7.90354 49.0569 195.507
35.402 96.561 112.676
8.20227 65.5388 175.731
20.6717 69.4538 79.4255
21.2503 98.9316 85.0869
35.501 44.0352 127.313
28.1388 108.699 97.2076
35.5124 54.719 149.122
30.4548 91.726 90.4023
8.7472 156.496 114.083
10.3757 110.895 53.5453
50.2409 87.1548 135.01
16.0874 149.386 124.088
8.31056 108.129 140.554
25.5354 89.5135 77.5811
7.54432 149.815 134.844
14.687 36.4209 147.36
8.05418 60.1932 149.429
24.5356 100.012 165.123
41.3242 80.7302 149.631
34.3162 62.6166 109.835
9.1129 138.702 198.888
14.9483 50.8956 203.196
23.7499 65.5931 73.0966
22.0039 136.467 140.435
44.9731 53.0217 143.405
38.7262 54.2452 111.221
7.87631 64.6172 110.229
42.7253 102.405 119.342
18.7158 38.0398 124.778
38.4931 60.0792 104.285
51.4105 77.0917 113.134
8.83729 88.4515 145.073
7.53798 74.2222 191.236
13.1047 40.9385 167.126
12.771 136.749 102.739
12.6416 101.73 57.5587
39.0619 89.3597 138.386
7.73648 90.7148 171.922
29.0512 134.727 140.983
10.7792 150.029 120.739
8.99067 65.8454 224.675
33.2068 109.548 131.625
27.3627 55.2188 144.751
7.69964 132.64 175.799
7.38226 102.056 210.925
7.79786 42.8945 183.75
26.7897 107.935 166.372
45.4242 93.7802 131.879
30.2745 52.7348 112.861
21.4263 123.018 100.326
34.2814 97.1817 141.846
7.85115 73.6619 181.898
36.5912 84.0276 98.0651
7.3966 92.4911 203.318
19.1653 126.483 96.4498
25.0365 72.0084 80.4912
11.4864 37.5909 202.954
35.8896 87.3235 95.1329
23.6221 51.3637 167.314
13.3096 146.496 143.227
27.9183 131.908 146.655
14.2122 149.8 163.537
23.2373 124.702 107.651
25.2695 134.191 158.497
31.8843 51.3805 141.841
26.0583 118.032 126.316
7.40129 134.17 76.0947
10.3239 146.907 199.49
33.4651 57.1727 123.266
50.3751 84.8482 129.395
36.3589 68.4233 147.018
26.4906 72.8056 167.318
7.90663 55.2931 180.872
24.5971 58.3376 156.555
17.8709 146.117 159.431
25.6171 63.039 94.3256
17.9165 50.2288 147.796
27.2663 116.998 141.193
21.1962 48.596 127.81
22.8331 121.752 146.006
21.6403 58.8304 174.641
38.1671 88.135 151.773
10.368 119.662 53.0599
21.0394 103.009 66.995
44.1244 91.3428 122.45
29.976 118.688 150.802
22.8177 55.1579 126.045
35.6869 92.1417 111.538
21.3197 113.79 74.4076
28.5707 119.153 161.07
27.5426 112.875 177.852
10.6625 92.7891 59.5507
50.8497 84.0168 114.96
31.722 74.1323 96.3744
15.4208 29.2348 88.7381
21.78 56.3395 144.67
8.58751 94.6312 217.494
30.6378 86.2172 91.6042
14.5834 131.481 81.6276
7.64059 125.46 163.884
35.2932 105.244 135.431
8.40959 125.804 203.369
7.94974 39.1904 197.351
38.9499 91.5974 116.732
25.988 66.536 159.719
41.3942 54.6418 136.205
13.9055 147.098 113.438
48.3641 64.0474 135.613
26.3753 72.1487 91.12
9.65298 135.321 209.931
15.4602 146.896 173.037
9.65418 34.1044 170.076
51.0174 79.0346 133.216
22.8177 128.713 138.77
27.2127 54.3903 130.628
29.8343 85.3272 164.147
41.9122 90.5019 144.098
26.9998 47.5269 140.622
25.0993 81.5792 181.908
8.40498 103.135 185.604
8.54907 25.4578 132.975
35.3554 45.0609 138.863
15.7643 76.5055 212.804
33.8574 50.5899 125.827
28.6335 62.7905 165.263
16.7684 37.1653 169.283
7.67779 61.4817 189.231
7.89795 101.033 171.529
8.18274 106.079 154.279
35.5505 56.1116 116.818
7.87455 162.17 128.859
10.1174 106.895 234.562
13.3276 28.3252 70.9794
17.279 122.938 73.5907
28.3964 64.3352 100.162
7.34145 133.96 113.333
23.0801 118.593 91.5526
7.54714 53.8553 170.055
25.2345 132.456 122.026
8.99056 24.272 54.7172
48.0011 88.5921 118.212
7.37425 85.6772 122.282
7.62132 32.4275 88.0544
7.89092 148.869 98.2329
17.538 99.2026 66.9035
22.8399 64.5037 85.8584
7.62053 66.9052 166.808
8.0275 28.3846 142.864
19.1682 79.9956 72.3546
31.7019 110.234 105.654
33.5449 76.4698 152.367
7.51769 92.8567 193.212
7.76351 135.789 139.981
12.5276 148.237 184.318
12.2925 26.8701 131.405
26.0053 61.5338 176.589
36.1816 105.385 123.393
46.5216 59.5543 142.33
15.5984 45.2307 69.5011
8.77681 8.05904 61.8224
23.1735 50.9837 95.4762
7.96614 54.4139 114.828
7.64609 119.07 122.56
45.5532 82.7765 110.541
26.8517 87.5404 170.977
7.565 149.74 187.404
32.7361 110.792 158.336
35.6263 47.3114 134.198
7.47736 144.644 141.696
21.5712 102.401 192.33
34.2024 105.872 152.797
8.08752 21.1603 67.5617
10.1594 34.8761 94.896
21.6886 50.2487 143.789
7.5458 99.5626 62.2518
7.67393 95.9381 156.608
21.3789 87.9465 84.4766
26.1704 78.2592 174.601
38.8229 64.3984 114.095
9.28846 39.3445 98.036
8.66282 66.5938 44.2719
39.6852 75.884 101.354
7.89677 123.69 64.3489
28.9134 59.9898 150.396
12.6157 42.3962 97.6723
7.71024 72.2051 205.729
9.4938 146.796 112.06
11.4663 92.6323 50.1613
18.9453 46.5194 106.882
25.7203 139.513 124.178
45.9613 59.5546 125.871
23.2426 122.662 178.658
42.964 55.3428 128.298
8.08908 164.427 157.445
27.0641 45.5836 125.558
22.4646 147.559 122.994
13.6299 124.192 69.7943
8.52689 155.508 176.041
46.4588 77.1194 107.713
29.7116 60.3209 155.725
23.8948 128.458 157.054
21.41 47.6581 175.262
30.815 107.553 145.797
23.989 47.3947 119.674
7.71038 65.4423 71.0764
7.56397 131.504 129.727
8.94682 154.071 153.477
7.3317 77.4345 116.364
8.05339 81.9788 54.5369
43.1584 87.393 113.261
7.41798 73.3545 101.214
22.0272 141.488 140.46
11.8618 96.8411 223.608
11.8527 77.6829 223.303
8.12881 36.9475 68.9083
13.4417 67.3375 220.931
50.8261 67.797 132.609
18.5277 44.6031 165.861
34.2281 55.9485 104.821
48.5231 66.0344 118.551
29.2644 113.397 138.966
8.33685 89.4116 182.108
7.46053 96.8342 115.637
7.42894 119.683 75.5481
9.40899 58.6467 43.8111
17.6691 44.1548 176.631
38.0878 79.884 101.581
28.616 83.1009 159.532
7.70993 106.774 219.543
7.32187 129.28 97.768
46.8441 96.443 123.073
43.7258 74.5754 146.681
33.5212 71.0664 151.645
22.0247 64.7925 179.228
48.6032 69.4443 114.168
26.1254 54.8605 150.097
35.2822 94.8557 152.92
25.7315 115.662 148.243
26.7475 83.5012 88.5734
7.7302 117.495 176.218
7.86714 49.0517 137.798
12.2393 20.1632 80.2982
55.2687 21.274 150.364
8.79322 25.983 90.1779
7.36797 93.0309 135.502
20.4899 146.776 129.238
8.69027 31.7285 162.516
24.6294 58.7361 122.579
32.7275 79.1097 161.87
21.9547 132.952 175.562
47.3974 70.3316 107.715
20.0896 60.2449 84.7685
37.1738 92.9833 147.766
7.6364 125.429 145.3
8.77927 112.464 225.395
25.9991 128.431 162.683
7.95066 64.2636 125.639
47.6858 83.6589 139.281
7.26697 114.245 141.654
40.0562 100.009 124.072
23.4198 68.9671 87.6336
44.8992 73.0583 141.308
8.07723 114.201 216.517
28.6403 113.15 169.144
7.18478 154.479 123.516
7.76805 66.6495 52.1078
7.75083 57.3326 76.6428
7.56851 89.598 83.9256
46.123 61.4743 110.708
7.57223 61.2528 101.753
8.16127 134.256 158.718
7.50912 69.629 63.5995
8.76217 155.782 164.318
22.1879 53.1479 152.511
35.504 77.1025 95.9647
8.01794 75.0261 91.4964
29.1008 70.94 160.97
49.0991 63.364 126.974
31.7422 81.1552 171.35
7.53038 140.018 124.703
7.93796 40.3455 57.4023
8.98074 109.91 203.445
7.66065 37.6401 107.067
7.4139 126.365 84.5921
29.7844 117.113 170.736
30.2782 46.526 121.495
49.4613 68.2236 123.21
7.70126 100.975 144.754
44.8363 95.3983 109.656
24.604 131.594 135.065
31.1006 47.7564 108.443
51.6004 85.1165 122.285
25.1448 114.01 186.26
50.5342 70.092 128.486
19.8651 142.448 116.837
25.2902 58.2372 93.3147
24.1713 87.0373 183.352
8.95372 42.1347 220.975
7.48284 73.4646 127.896
43.6698 66.1888 112.457
43.0423 56.1025 117.414
53.8121 79.1355 128.598
8.00236 89.4685 71.2972
7.77914 57.5984 86.6933
45.8231 85.3279 106.261
32.2121 80.8968 95.9207
26.9364 138.646 137.22
10.6392 86.5528 214.751
14.5255 63.4164 208.536
43.9526 65.2698 121.51
23.9262 140.792 149.623
7.56603 120.063 105.43
21.6485 111.548 196.487
7.76438 55.5587 210.168
7.79463 50.1897 92.0367
35.4821 100.436 153.138
7.57331 108.53 97.7029
7.55149 124.161 186.835
7.85455 42.2071 121.302
11.4035 151.208 105.742
41.9977 94.1282 136.471
7.65396 86.497 106.29
7.38265 25.6859 118.743
14.6872 117.873 212.059
40.6411 70.3812 104.632
7.64941 105.699 121.891
7.62645 96.8821 98.6367
7.70061 108.74 77.1846
7.02824 111.231 135.889
26.1678 142.176 132.802
29.3357 71.9072 86.6698
41.6702 82.5637 103.759
44.8901 60.4133 119.108
17.4946 135.641 120.779
9.19746 93.4622 229.318
16.1461 140.393 110.655
15.028 155.991 108.986
29.9592 60.0864 97.7029
17.6897 112.511 208.194
