ply
format ascii 1.0
comment Created by Open3D
element vertex 421
property double x
property double y
property double z
end_header
40.2016 107.974 103.78
17.2276 71.9063 121.804
33.1378 91.26 102.023
12.146 105.561 135.056
56.1764 130.201 163.728
38.8347 99.4031 100.015
10.2548 166 173.965
18.414 55.5442 146.365
53.6264 59.2799 103.771
38.6332 44.1029 128.901
25.8081 52.7703 122.077
15.0491 67.9065 127.232
45.9974 118.149 117.562
12.1806 94.137 129.787
21.2096 98.7009 5.17363
62.1847 111.722 170.13
32.3422 75.2365 103.146
56.5362 82.9733 177.702
57.1727 119.279 177.344
41.463 80.641 111.686
72.2031 32.3398 151.685
16.4111 111.312 3.70718
38.0677 77.2454 96.1919
53.1097 122.243 166.955
45.9564 42.9184 126.893
66.21 72.6535 174.252
19.3739 52.8135 138.012
11.4899 54.4466 241.039
24.8641 50.6433 134.263
32.4 89.3264 163.736
14.3168 59.945 153.145
42.5544 120.499 126.098
61.8162 129.083 170.401
12.4575 87.7882 139.231
23.532 80.6213 157.496
11.9652 77.5901 144.803
64.6871 120.928 174.894
45.9558 83.3342 102.134
45.181 93.9164 161.649
53.2263 51.2852 109.76
10.2163 96.8177 147.748
58.1601 60.4587 114.462
39.7675 87.6147 99.5051
27.1992 99.3877 153.646
39.2214 49.9487 111.035
41.3051 65.1062 96.7451
86.9793 90.3119 173.46
25.661 82.8272 164.96
19.2357 75.3477 133.965
56.7248 73.0214 182.553
68.6861 134.943 168.182
110.396 34.8923 143.16
43.8141 110.997 147.409
56.4575 89.6258 90.3756
53.319 39.4548 140.137
17.4375 90.5103 152.127
31.8725 83.3083 100.195
25.7625 89.7452 111.117
29.3612 47.0911 128.211
74.1996 133.616 178.042
23.5936 106.56 9.45327
25.2616 66.2433 163.589
11.6319 69.1408 159.991
32.8767 99.4472 7.1273
49.5287 71.4772 101.886
51.9795 114.291 99.7828
24.4085 80.0971 103.24
12.1579 79.2885 132.952
23.4826 104.834 140.735
54.4936 91 174.399
62.6798 47.3501 115.215
33.955 63.2095 107.437
80.8041 44.0435 96.1195
46.1038 52.1431 153.89
46.8287 59.5103 117.56
14.2151 107.106 143.682
27.5224 62.3929 112.496
60 110.549 114.207
38.2378 57.3607 163.9
74.059 112.921 188.596
37.8218 112.055 122.332
67.9736 103.107 184.377
79.851 134.089 171.104
42.4712 77.1999 162.061
57.936 62.7464 96.0454
82.4063 130.388 163.379
58.3897 129.92 154.741
18.8313 103.368 149.873
53.4302 39.0213 131.087
36.6535 70.7073 166.909
55.8982 42.0556 104.973
62.9446 99.8245 169.912
37.7405 117.287 112.756
15.4817 80.4304 161.582
9.26757 97.6044 136.317
45.4542 59.1883 163.11
50.9655 73.5445 175.142
70.7321 46.8205 95.5756
71.979 39.9757 104.246
24.9479 48.8259 145.32
10.4549 65.5679 130.786
28.5204 74.0378 119.161
40.4862 118.02 132.741
73.8023 124.473 180.623
76.3784 119.729 185.583
27.8983 92.7178 143.795
13.0995 62.5385 142.52
44.2668 79.7288 150.805
34.4488 67.9657 99.6297
52.3095 39.3186 121.426
34.3587 108.312 110.766
60.8038 135.161 183.434
91.1495 40.4259 105.132
44.9788 91.8258 95.5734
9.29238 85.2665 129.699
73.21 84.1015 181.447
39.7072 102.643 127.421
19.0531 64.6589 159.401
60.4303 61.4301 88.5143
45.3497 111.115 97.2842
58.752 107.362 91.3793
56.7395 118.984 147.834
29.1782 96.738 119.819
60.9949 112.208 180.087
26.8456 63.7021 123.677
14.0348 78.5148 228.419
40.23 61.3048 103.897
55.6131 51.8631 95.515
54.5317 47.0676 100.872
67.3052 108.796 180.981
19.6732 101.641 131.142
23.3949 55.5076 154.027
31.4443 59.9339 164.737
87.8514 109.103 177.377
34.0993 56.4489 107.266
9.54393 63.0883 147.925
27.6299 93.065 159.567
49.0945 119.646 106.266
52.1897 58.7228 119.528
52.3874 114.39 137.7
54.4171 81.2346 120.678
53.4748 118.03 158.032
50.6569 121.151 91.5601
37.9914 53.8169 117.365
15.0876 58.1685 137.069
68.4094 126.738 151.535
29.0697 67.2035 105.864
69.9331 92.7713 91.9312
61.9638 45.7591 87.8815
70.8343 35.5478 123.784
17.4817 90.7671 130.031
69.4373 129.043 173.553
78.1153 106.268 186.478
32.084 53.2213 155.017
65.1662 122.231 146.71
42.6822 120.24 108
49.0436 85.5278 89.2204
62.5414 40.3931 126.142
51.3082 101.572 92.7545
56.6428 122.114 113.545
33.3245 102.974 134.006
43.3196 103.325 157.698
31.6054 99.1342 107.452
34.627 80.9041 165.761
65.5385 37.2421 134.368
32.7259 103.362 116.392
63.8916 40.1079 104.926
88.1226 119.137 181.952
27.6394 73.4904 166.123
50.3958 79.9375 129.734
66.671 81.6644 90.2859
63.3347 116.822 124.251
22.8197 72.4447 108.838
38.9104 93.4689 129.074
14.0948 101.843 1.86363
54.978 82.6546 151.976
33.9422 88.8701 117.182
117.77 60.9775 176.688
52.5374 106.018 131.705
58.3844 75.8695 106.001
65.0091 100.945 91.5119
32.5044 52.8741 119.38
65.9747 86.5828 180.436
71.071 100.577 98.6805
77.7862 78.3542 182.551
54.9834 115.414 129.531
24.9708 116.676 5.48492
60.2717 122.508 167.234
20.3034 57.5836 131.035
22.7404 83.1853 124.357
19.3505 65.3225 116.376
33.3787 45.5181 133.99
43.394 74.2211 93.066
36.2017 43.2394 120.78
61.2657 104.498 127.792
51.9867 79.9261 161.769
49.8775 94.0683 92.0088
65.4575 68.8044 165.37
108.63 61.65 173.096
38.8473 88.4774 139.657
73.3437 135.076 163.045
81.1274 101.898 181.103
63.4074 112.36 141.864
56.0924 125.329 148.978
58.6298 117.756 98.9087
33.6756 88.0197 145.797
89.5246 102.566 181.931
29.684 93.0832 127.729
34.2442 54.4485 113.228
48.1821 114.458 125.393
45.8936 115.398 138.686
57.5251 77.9375 88.319
61.7942 73.465 87.0334
63.1995 78.9275 178.604
57.2738 118.004 105.204
73.8586 98.0974 182.332
63.6552 89.3488 173.097
73.5238 79.7021 87.4594
36.2443 62.4993 143.963
9.38453 86.0507 147.064
63.5565 41.3786 94.9047
19.5037 80.2292 115.617
72.124 93.7863 168.897
53.3246 70.325 95.9865
27.4253 44.7756 138.2
36.8233 109.708 130.214
10.8648 75.1397 153.949
46.6806 54.0287 109.489
83.1261 127.356 179.665
10.3458 68.052 139.103
31.3193 88.1792 1.62682
50.0284 60.9095 157.463
53.0379 48.0678 116.961
24.6908 95.2024 132.222
38.9368 110.579 138.181
51.8622 87.7458 163.179
19.6856 188.972 163.914
44.7021 49.8017 161.273
67.8708 133.606 156.012
45.7866 61.1677 100.465
53.9539 69.3449 123.685
76.7121 56.5156 90.4866
79.2479 43.6047 124.335
52.6715 47.8152 158.009
54.2552 110.227 143.734
67.2287 113.094 101.108
29.906 100.884 142.851
91.1207 70.1077 180.644
49.9972 110.905 153.601
44.9685 46.973 136.549
60.1157 68.7102 163.525
70.281 75.1443 116.818
83.0311 112.954 184.556
40.1111 46.4844 117.504
11.7671 84.4782 155.905
75.6444 129.982 159.485
120.203 65.271 183.303
59.9297 111.813 152.437
78.5777 40.1862 105.155
84.9771 81.8767 183.778
54.1613 98.7416 106.686
67.0223 108.757 92.046
54.3564 62.4581 154.361
82.1685 95.6996 178.221
85.0218 63.0101 86.9683
36.1888 95.6265 122.338
67.7031 96.5162 178.031
65.6825 91.2801 125.154
62.9342 92.8651 92.1125
73.6582 58.9742 133.495
104.689 89.7608 188.431
28.6003 79.5667 111.878
96.0683 116.158 177.431
49.6313 76.2468 90.0386
76.3294 67.556 84.5627
14.4283 90.2235 112.73
39.1152 96.1118 2.0596
46.6639 95.8525 126.834
68.085 83.5912 163.161
72.5146 44.6482 149.764
65.2163 53.4221 87.3104
40.151 89.0368 91.546
31.5546 93.1935 135.464
37.9551 65.5747 155.24
67.0997 113.082 151.685
85.9698 66.8357 176.472
121.346 70.1353 198.063
42.5705 82.5828 122.963
65.8872 63.5557 120.96
129.407 61.4199 181.432
69.8933 69.9112 87.4585
43.1908 102.209 95.0574
48.9229 98.1251 108.913
66.258 43.2354 146.294
75.211 116.106 106.513
53.7186 79.9228 93.9766
85.7018 125.02 158.467
73.9217 112.427 153.301
45.8787 78.4798 137.152
36.9685 108.578 148.359
74.4428 101.9 169.635
60.7487 62.6042 152.353
55.7883 76.4064 136.461
57.9325 69.0939 171.741
40.176 87.4508 163.44
77.7892 40.2127 114.206
81.6076 84.7147 92.996
62.6005 46.2994 120.506
47.6617 71.8391 152
35.0622 83.7561 124.358
69.0402 64.5353 111.39
79.2958 127.739 155.716
70.1913 44.0594 119.77
76.4257 91.9267 179.449
36.0117 90.0179 152.919
40.1534 107.092 2.83999
81.6996 126.668 145.935
34.6352 105.475 141.99
83.8586 72.1242 83.3367
52.8661 68.9792 145.934
49.5449 42.8272 153.082
50.9005 57.027 146.675
57.5679 105.903 175.507
39.0275 117.531 104.517
46.3169 68.8628 159.936
108.179 70.0604 188.273
106.386 98.7986 189.527
51.6101 91.5971 126.998
26.3979 111.1 2.45261
86.1789 126.604 170.467
52.0949 71.4464 157.079
121.079 53.354 166.994
41.6911 49.9959 146.798
66.5179 83.1671 98.8821
60.5599 63.4929 122.536
81.3007 70.279 173.86
88.6338 46.1313 154.214
46.0995 56.3609 144.422
93.5758 127.986 173.424
11.6851 187.897 161.809
16.5926 96.7756 152.46
79.1858 84.4732 82.6132
58.2536 68.9787 148.864
57.3887 42.9261 146.554
49.3553 91.4731 121.367
92.7128 95.6865 184.404
72.0952 61.0978 89.8779
67.2988 60.3074 153.977
54.286 83.3233 135.23
58.8301 88.5922 166.463
58.9449 54.6856 154.013
40.287 53.5878 141.324
57.285 105.274 162.633
47.6093 78.4252 143.413
8.79175 61.2593 137.905
75.573 123.468 146.339
70.9446 108.351 144.114
54.9941 95.699 164.026
72.3269 52.6006 156.319
31.9612 216.555 1.74285
66.6379 90.3332 114.198
50.5163 63.3417 95.8189
71.0648 132.958 129.782
58.9792 46.6429 155.276
38.634 97.7325 159.377
75.5064 68.3759 173.633
51.8367 71.086 166.992
55.831 91.737 131.905
61.1172 68.47 109.379
109.925 78.352 182.873
39.989 99.249 110.727
65.6355 119.995 107.764
75.9632 37.6702 133.093
82.8603 43.3046 149.788
54.3741 44.7551 150.435
88.5402 118.137 153.707
51.7561 105.378 162.658
59.5541 75.848 114.768
114.723 68.1581 185.532
59.092 99.82 107.395
39.1219 51.161 159.405
128.288 86.273 186.313
89.6337 58.3425 166.672
69.8981 139.489 188.263
57.9122 133.95 141.78
62.191 81.6165 126.724
81.8548 82.0171 175.664
84.506 67.9331 166.898
32.266 44.6889 141.811
78.5006 134.867 162.252
74.0094 81.7754 121.057
28.9531 55.4987 114.958
84.4356 49.2422 162.182
98.7054 48.2563 156.856
61.2239 111.981 160.556
117.699 86.3647 184.601
92.0187 125.836 164.077
103.797 43.66 153.175
33.4885 97.9768 127.427
34.2241 208.8 1.31386
67.2414 99.7317 115.112
38.6001 49.0586 138.202
28.1912 87.1134 103.484
102.281 53.5792 163.47
89.456 44.2463 100.626
111.157 40.2437 151.035
80.7267 47.0763 108.906
97.6374 105.762 176.586
46.6145 93.2206 143.504
52.1378 107.426 171.974
97.3425 119.419 170.477
58.5354 76.2838 150.414
35.8167 60.8249 153.327
10.1644 58.0753 212.202
95.1506 35.3557 126.201
98.7367 86.4879 182.834
81.5068 48.2314 102.126
97.8093 65.1093 172.071
65.4516 68.157 151.079
46.4843 119.99 133.234
101.125 37.4342 138.94
