ply
format ascii 1.0
comment Created by Open3D
element vertex 1163
property double x
property double y
property double z
end_header
10.2039 136.318 197.305
37.7434 102.448 213.306
9.69933 183.253 253.175
36.2568 110.864 207.038
8.49103 121.92 139.085
12.3156 125.685 226.933
24.329 170.288 164.159
6.15024 116.913 121.147
25.315 121.727 217.587
6.24039 186.18 214.065
7.69579 197.135 4.02886
11.7774 31.63 245.911
32.3514 104.345 218.337
6.55691 125.018 118.38
4.81295 87.1318 148.24
27.0018 100.616 234.539
10.5018 215.505 228.52
8.51839 198.862 22.7361
5.73247 130.066 86.5285
9.73361 199.575 242.845
6.32167 154.034 213.256
14.5281 83.944 152.51
14.7667 31.2151 230.562
8.80198 73.3645 157.122
12.4284 121.292 257.378
6.62002 93.2062 120.912
6.65178 115.914 128.927
5.99842 78.2439 145.19
48.1865 96.6255 215.398
5.27981 144.201 137.661
6.51402 112.147 102.113
5.05219 104.621 122.878
9.22242 174.85 249.224
40.7934 135.5 164.223
4.97769 97.175 152.064
30.7358 165.494 200.935
23.371 106.703 97.6823
7.97488 146.431 189.555
11.5367 77.8146 142.995
32.6519 132.882 73.5479
47.6161 98.5314 208.523
9.50228 81.8525 118.924
22.2156 102.86 147.109
58.4942 102.672 202.918
19.0617 161.061 176.875
5.46875 157.129 177.924
28.7916 114.207 84.5127
6.23285 154.567 106.214
7.96836 200.112 40.2175
7.37125 71.7275 112.333
17.3889 120.747 83.469
32.3779 112.852 159.188
6.76983 194.426 257.321
11.2713 36.1269 234.292
27.1875 107.282 221.074
9.71123 197.14 200.204
5.82266 145.331 128.072
5.88709 147.836 76.8547
6.18314 91.3747 259.443
10.4803 136.892 255.334
7.51541 215.414 42.1141
5.6039 121.762 80.8578
5.68123 141.556 103.889
10.4245 87.6037 245.997
6.99498 104.482 149.299
7.09672 188.324 9.60248
12.1575 40.417 239.471
5.70087 113.051 181.43
18.1139 184.923 11.9623
5.25157 150.348 181.566
5.82933 174.747 20.6459
6.40587 158.678 234.137
16.3396 193.221 190.484
4.69021 79.2026 107.381
30.4915 8.95197 99.7177
6.08989 136.49 137.723
13.7059 179.271 37.9387
24.1155 148.329 95.6194
30.4559 116.272 203.6
5.38849 100.31 105.028
38.0401 125.297 165.535
37.0128 143.284 188.029
6.66188 171.839 11.2947
54.6531 90.8655 218.789
5.1777 73.3898 163.123
13.6891 84.5862 240.926
7.05848 169.991 216.753
36.1455 114.339 152.602
25.3958 121.661 204.369
6.23149 134.01 260.652
19.3952 117.756 221.955
16.8294 206.942 46.7499
25.0592 152.204 90.2663
18.1959 114.836 131.63
6.74952 103.181 142.154
11.1993 15.9479 93.5967
20.2917 120.425 138.426
8.97706 173.442 34.6291
22.0868 129.945 78.7566
10.2009 163.37 223.104
23.6032 140.373 219.226
6.44274 160.603 149.608
49.5623 103.482 204.676
5.78014 110.728 136.076
12.7646 126.053 194.305
38.1315 162.894 171.424
19.3372 67.8486 133.233
50.5869 87.4589 231.145
24.9113 103.988 90.61
19.9377 139.184 213.807
25.5254 94.9866 165.035
20.9264 174.822 7.56108
5.80389 122.728 91.35
12.3638 194.925 26.0281
9.95041 171.642 229.192
16.6354 28.3164 235.204
67.9 99.1355 208.501
24.7216 195.379 192.772
27.3769 113.867 211.843
28.7495 124.13 71.7158
16.6975 173.77 136.249
17.6478 17.5257 97.4724
10.2984 169.744 167.377
21.1927 90.3408 119.014
18.4447 94.1396 101.581
14.15 97.2295 251.245
41.7796 120.361 151.367
9.00862 206.453 42.4193
5.08864 159.657 117.604
18.4273 204.991 210.027
14.5947 78.0936 113.546
9.04874 182.084 231.742
13.765 201.482 43.4178
5.83927 157.827 167.83
6.42589 132.197 234.354
10.8308 130.728 139.173
22.9491 168.295 157.168
27.2189 103.934 176.412
24.776 134.462 72.7935
26.9888 112.987 218.751
5.0094 87.0462 139.016
7.84857 175.079 174.687
22.8149 202.603 201.309
4.61549 97.5651 159.854
4.53179 6.42913 131.686
8.46874 127.615 251.776
13.0227 120.903 126.438
46.2497 108.342 205.685
8.34651 156.898 226.686
24.1814 162.491 14.8609
28.9095 169.295 114.194
22.1512 114.195 254.781
5.51686 170.797 120.809
18.2084 11.6643 90.0477
18.448 155.707 195.404
10.2818 163.951 232.145
21.0908 110.053 89.7225
61.2371 91.5074 217.89
22.9512 165.819 22.1578
60.2699 84.6482 228.815
5.73068 137.41 131.394
5.67182 111.26 94.9019
6.59085 165.186 103.852
23.5821 103.34 238.235
12.887 16.9501 116.256
25.7725 138.128 134.909
5.83307 184.112 258.368
6.76275 208.459 234.398
20.9329 187.693 27.7508
11.1555 111.036 130.325
18.5248 105.108 241.89
7.01321 214.447 249.272
19.926 113.611 82.2688
24.7113 97.6484 98.0393
6.57483 135.316 247.971
21.7737 78.1952 146.522
4.94553 132.785 105.652
85.2649 86.7798 234.846
6.09917 2.71364 94.9246
4.78288 85.8963 112.382
5.24838 152.569 129.317
5.71896 129.085 242.467
31.4542 173.859 4.99379
27.2091 207.592 205.71
12.4478 167.711 26.5411
8.14591 218.119 19.9928
5.6047 159.928 159.339
19.9197 34.7096 243.497
4.60883 110.998 153.042
27.459 103.131 227.433
9.20708 18.6973 108.723
18.51 153.832 88.7821
23.1561 198.418 43.6435
21.2404 104.285 127.202
8.4975 142.864 114.896
6.698 111.527 145.062
20.3182 140.842 134.78
18.2127 217.68 48.8977
4.91853 99.2854 96.7737
8.55057 204.914 31.514
6.47486 164.616 171.608
5.79076 119.323 147.626
9.9738 143.204 124.458
39.9342 133.054 148.642
22.0782 212.775 47.4199
17.8411 104.674 88.2854
28.9495 159.649 167.971
6.65746 78.8258 157.665
4.81635 104.808 89.5892
5.41252 134.971 152.311
34.2494 182.631 21.94
8.40199 203.717 255.177
37.7991 210.346 31.3017
37.0528 177.351 3.8624
4.9312 129.168 143.451
38.1524 167.882 35.8933
13.439 212.26 45.8356
52.3561 95.4376 224.014
6.50086 5.10411 83.1488
19.2842 85.2238 143.751
6.36102 203.874 25.5101
10.9929 217.692 28.4877
33.8798 177.329 147.423
6.3558 181.948 14.9099
7.72932 177.23 75.0451
9.30986 207.078 18.8662
23.5573 75.0823 136.205
5.68301 131.96 118.582
46.2002 91.7441 221.235
4.81414 141.32 147.543
6.53896 97.866 171.094
5.13471 151.262 99.0753
32.556 186.626 181.93
7.05511 189.994 192.788
29.8234 141.184 71.8546
34.4021 193.696 3.49148
6.64509 191.643 248.769
18.3558 85.6004 166.433
15.9726 121.721 77.1571
7.8352 146.033 239.729
10.599 18.995 101.041
11.6756 215.93 8.32963
15.7328 176.198 120.564
18.5991 169.232 19.8205
5.14739 157.271 142.846
7.38611 211.852 21.8839
6.95137 178.795 218.321
18.2951 170.787 142.744
6.33312 169.083 111.628
6.9745 151.323 219.851
17.925 187.902 184.747
44.9485 128.328 210.293
102.176 201.492 256.172
23.1461 172.613 13.0877
30.763 168.547 166.262
17.8855 191.737 39.7167
6.34599 93.6089 113.771
28.5297 215.687 10.6737
11.6262 94.9626 100.049
28.0442 116.202 258.768
17.3679 146.162 202.39
28.5723 119.026 212.281
65.0599 84.3618 233.457
51.7865 94.1728 212.294
20.0285 97.1316 119.089
37.2674 206.049 36.4045
6.89067 159.451 207.083
5.04092 146.577 173.864
6.68177 204.873 261.458
7.00739 161.365 110.699
27.6673 204.204 37.531
5.43314 112.797 246.909
28.7468 126.198 77.8107
25.0681 191.959 33.04
81.5831 78.8962 255.349
6.03707 146.493 260.757
6.8116 179.498 210.712
22.5058 88.4299 161.815
6.62528 119.018 189.101
22.3062 108.89 183.425
20.0258 175.138 36.9289
117.2 173.084 242.302
18.145 84.559 248.924
32.8138 95.3177 128.854
33.5918 151.987 175.21
18.3713 120.608 98.7941
6.28514 169.427 130.913
4.27063 140.319 159.091
8.49883 175.615 4.33206
38.723 187.474 41.1742
40.8179 159.312 204.801
59.5469 95.0053 213.247
28.1389 97.6836 249.833
25.0447 97.3756 172.129
4.51777 111.925 173.602
23.0986 25.5013 239.091
14.7123 88.7288 115.157
21.4492 136.099 225.157
67.1715 105.261 203.135
19.3391 71.7939 126.238
7.83647 201.538 229.746
7.61249 94.0877 104.879
29.2478 88.9511 123.407
18.437 84.0259 109.734
7.74671 210.461 32.1362
24.836 5.69482 83.8117
18.9532 74.1967 132.115
19.4409 92.0271 169.57
53.4323 86.786 225.467
8.37551 217.698 13.4817
23.1164 179.054 134.069
4.42816 139.106 167.65
4.38462 118.972 72.4136
20.0902 181.976 3.43399
9.86589 184.273 184.123
13.2672 201.797 205.501
23.4425 32.1525 236.202
8.37174 178.118 224.57
6.20759 168.93 257.509
16.0311 27.8183 240.314
35.0852 125.465 85.5324
12.5254 8.13838 113.334
16.0786 166.914 174.279
23.1555 98.006 104.31
13.3286 145.297 230.43
14.6899 175.199 4.85375
17.6067 92.5871 110.081
5.76792 165.276 204.532
9.72251 214.06 36.8578
9.74254 157.59 79.4619
30.8532 203.346 196.762
58.5501 82.6435 250.146
24.0398 156.294 111.399
47.0527 95.8401 228.822
9.147 206.751 223.087
67.8778 85.7145 222.502
30.6204 108.487 213.079
23.5433 194.323 39.3311
40.9446 166.749 165.289
20.1742 180.99 180.337
10.8569 161.128 178.268
42.143 98.0016 213.903
31.7753 88.6579 161.081
10.3852 172.468 241.237
37.0188 213.859 39.1641
14.3955 94.3136 176.417
32.7924 101.691 230.296
13.2352 123.334 119.191
11.7018 171.528 117.335
5.70837 138.267 121.391
4.79534 85.678 128.095
38.7849 188.196 182.46
15.7464 36.0443 239.512
7.37753 187.491 31.8211
28.4081 184.489 46.222
9.33852 167.673 20.1799
28.506 113.93 146.671
15.2086 173.936 12.2846
4.88385 131.292 96.3826
14.8984 112.174 136.503
39.6945 163.017 25.4531
29.4927 187.362 25.3567
45.4126 131.264 170.836
28.6261 112.579 250.682
72.9616 88.0653 222.808
36.079 137.792 102.194
9.69452 123.343 235.094
16.4145 170.044 162.452
7.30049 186.325 224.304
12.2123 179.387 21.6108
6.24392 177.725 242.337
16.7276 6.26555 128.348
23.5299 14.1971 92.6353
7.63526 139.186 235.821
4.42842 105.035 166.498
23.5103 163.699 194.367
37.3793 146.064 79.8263
20.9899 155.962 96.1798
16.2319 38.0275 246.851
5.34496 138.255 93.1578
36.4694 137.439 91.3396
16.6278 100.608 178.169
20.6456 213.763 8.85093
81.7421 198.253 225.055
14.1803 161.302 107.149
4.7701 126.368 151.614
21.5686 171.594 28.806
65.1863 77.5006 258.22
43.4673 121.433 204.996
17.2872 71.4267 147.784
22.866 110.717 138.964
9.76293 5.79685 77.4031
5.33218 123.939 100.82
13.6126 116.697 188.231
5.42116 146.919 92.1161
41.0379 94.4946 221.185
7.93318 126.976 260.08
20.5385 181.684 33.5728
6.4042 165.709 142.169
7.43811 77.8159 135.216
4.60379 121.398 253.58
23.8203 134.269 200.459
48.4764 175.132 206.319
8.85487 141.763 246.373
5.61311 160.42 133.881
24.6108 100.249 114.737
4.22147 125.508 160.059
20.2592 202.425 45.14
42.5328 107.394 201.605
38.5215 129.47 109.61
34.7541 140.201 129.939
20.9826 178.148 143.561
7.071 103.92 178.45
103.077 198.78 244.344
56.5003 159.813 150.195
8.01854 205.714 249.348
12.1951 138.212 131.519
26.195 86.2424 128.288
22.5846 151.386 196.957
7.94306 202.538 13.0012
44.3922 105.193 210.547
35.2766 134.899 141.32
28.7115 196.349 38.4071
6.49873 175.065 261.594
16.9853 200.001 197.69
25.5241 206.532 222.505
45.844 129.829 108.848
13.7801 140.943 211.395
15.8445 170.089 34.1247
6.79143 199.92 237.463
17.0447 171.684 151.726
10.8794 212.636 15.5974
37.9365 138.619 174.42
71.0076 80.5443 248.764
30.2817 99.7318 169.676
90.0971 152.841 246.957
35.3808 109.598 167.373
34.5567 105.614 152.647
95.8366 193.637 250.093
8.95598 217.147 237.833
9.15702 75.9063 252.919
4.60462 104.081 110.399
32.2279 105.759 260.856
26.9419 143.632 212.31
27.9045 106.249 253.305
16.6791 82.5606 121.354
32.6596 198.22 191.499
30.5224 163.181 30.9818
5.97672 159.907 254.351
20.7795 118.555 187.605
50.4521 125.074 167.196
4.86217 90.3663 166.168
33.5294 132.488 168.723
24.3273 183.287 128.005
13.6032 72.5694 126.262
4.32392 149.97 141.782
20.912 112.073 224.859
37.5251 97.4883 230.191
24.1673 119.791 112.136
30.842 101.227 257.32
39.3511 169.347 204.157
5.37959 140.067 181.175
10.4232 74.4263 150.954
7.80387 216.201 259.748
7.12242 152.806 120.173
22.0986 173.836 183.693
24.1268 13.1 117.837
48.2751 122.9 198.819
18.6303 165.221 169.216
7.88234 84.608 257.486
4.37927 127.202 180.02
25.9445 218.382 45.8704
22.6976 150.309 134.806
61.4033 85.3567 221.568
35.0314 125.757 152.395
54.5628 99.5075 209.199
88.3197 159.596 255.546
94.8549 157.101 238.75
42.346 128.428 152.566
9.01808 187.809 23.7934
5.59843 181.006 3.96662
47.9647 87.5275 242.661
37.4469 215.449 16.2487
34.2067 116.784 170.761
4.46109 121.173 166.806
44.4694 209.295 30.9053
4.84862 100.407 131.017
35.4487 116.939 187.841
8.07143 171.22 137.479
43.63 140.265 155.083
17.414 188.898 34.4066
11.9037 185.634 34.2462
13.9062 111.525 80.4869
5.25009 157.48 88.7176
5.04047 82.4843 168.215
35.7839 146.204 94.86
46.513 135.396 114.109
26.2803 110.332 226.648
35.163 150.867 116.514
16.2126 200.199 11.9731
7.7851 91.4655 250.57
17.6679 186.527 3.19081
16.4928 78.5495 133.371
9.93851 135.37 223.112
5.67714 171.954 203.121
51.5673 105.826 198.09
23.0201 87.007 258.357
35.3958 173.486 156.712
4.8542 136.304 191.492
15.509 110.334 232.92
5.66839 106.558 257.27
43.6665 89.1033 238.403
21.9613 97.5472 141.626
27.1652 177.586 11.6206
21.5434 162.31 152.462
33.7044 87.6409 121.727
32.1407 80.9223 125.958
21.4126 130.505 206.992
41.0641 181.671 18.1002
24.2671 7.2501 99.9732
16.3213 177.823 127.508
26.6086 109.148 104.276
94.2205 195.613 242.464
13.8326 125.612 86.3241
7.14344 196.907 31.6474
6.48424 15.1437 118.282
26.523 146.255 75.4813
49.347 128.196 154.617
11.3501 154.558 114.291
40.0246 218.451 37.0358
29.7016 168.025 38.22
7.63517 137.351 68.3334
8.11911 153.442 238.609
15.0458 143.085 88.8252
34.7788 213.326 25.044
20.8534 76.9395 153.472
30.5902 100.698 155.066
21.3308 168.164 117.673
25.3851 123.415 261.64
16.5108 164.826 98.1228
63.4532 102.21 178.534
6.19313 165.63 152.03
31.4775 127.232 88.5806
34.4617 176.572 179.938
25.5932 79.388 125.408
9.2029 90.016 171.553
5.06653 77.3579 125.81
5.69011 73.0071 118.221
31.9182 209.71 40.8626
6.95468 142.936 201.947
28.7642 89.949 256.649
53.1781 97.571 170.378
26.5601 90.9087 115.122
15.6336 138.247 226.258
55.1001 130.108 167.127
31.6967 207.441 30.9986
5.1629 150.805 161.005
25.9124 182.696 182.273
8.21183 75.4165 261.218
8.17241 167.032 176.814
21.8776 158.411 120.062
29.2914 118.804 76.7398
20.6219 152.554 106.073
7.97572 170.894 190.18
72.3616 93.9391 209.712
29.6802 90.7231 243.147
29.3972 184.892 133.53
44.6518 174.532 186.907
24.9746 193.656 215.544
46.6054 211.863 19.3982
28.9556 172.968 153.836
35.6387 100.16 166.863
50.9506 148.894 179.004
95.1834 177.111 258.872
19.3045 118.361 120.341
30.0961 128.756 222.547
67.9948 99.2617 199.226
30.8822 188.878 190.509
6.98748 147.819 85.7667
19.3776 166.37 190.484
32.4658 104.248 248.549
16.0387 196.406 42.2113
18.5771 151.196 125.771
16.846 213.044 221.61
40.5102 119.334 211.478
35.244 188.23 45.7485
37.0914 8.43687 115.928
7.07317 118.197 261.721
5.35328 13.8639 93.7712
21.253 17.6419 104.131
14.3974 27.0916 245.098
19.2697 17.3265 116.441
52.4801 157.367 238.763
34.7574 132.273 157.634
4.9491 125.497 187.73
41.0489 146.154 162.833
11.8466 117.714 231.368
7.27857 185.781 200.456
26.4565 99.8684 122.031
46.6541 212.958 13.3269
26.9787 149.385 101.879
7.31145 192.563 217.778
8.25504 149.49 227.691
8.35724 147.215 253.149
27.5637 213.172 34.4725
10.48 10.391 133.643
12.1935 103.745 240.317
75.9027 91.4378 214.924
46.1137 82.5159 249.701
92.3908 211.64 251.211
43.5055 182.277 206.357
41.9196 130.757 87.3357
87.5518 147.164 251.757
53.7426 165.005 148.843
31.1944 150.706 95.2369
15.7295 144.619 221.643
7.27786 171.989 28.9468
25.1833 181.582 29.0072
43.7679 195.498 188.398
5.56932 163.912 125.46
6.39725 169.927 96.8677
19.6019 7.11142 111.981
22.9156 110.295 111.881
25.4324 72.6604 142.12
8.07664 113.7 237.803
42.4806 214.794 33.6383
19.8404 163.246 111.618
11.6598 95.9215 146.501
31.7231 154.634 103.031
14.8845 143.767 72.7576
28.6563 162.251 111.809
40.9108 185.178 29.4353
37.2349 167.958 23.6805
46.475 203.407 23.8884
32.8096 136.682 187.002
24.2919 15.227 97.8228
27.4317 98.6759 129.448
4.73598 110.296 160.956
29.5879 156.673 198.925
45.249 205.671 18.4463
10.7095 111.363 139.965
33.0692 218.79 33.0136
20.4254 100.316 109.344
8.60536 193.47 19.7284
48.1072 173.259 122.461
6.5382 4.8249 123.572
27.9108 179.102 19.6187
8.89358 161.83 244.65
28.6435 84.9272 114.754
14.5468 131.451 71.9579
35.3524 6.20579 99.4246
36.9533 81.794 117.369
8.29183 163.517 183.728
12.9926 192.346 33.8391
7.31421 180.847 28.629
36.2865 195.468 30.3181
15.766 191.495 15.2856
43.402 203.892 35.4681
76.1814 78.7469 261.647
33.1767 171.26 188.899
5.77317 161.861 218.304
16.2941 105.607 253.941
25.801 174.488 2.64828
33.875 135.056 84.1972
6.79451 177.52 200.963
17.0635 172.961 127.801
90.5227 193.068 250.014
5.11938 150.839 152.668
78.4365 103.866 180.777
44.3451 203.827 13.2707
8.21172 143.896 218.1
57.1298 99.1031 230.498
48.2464 146.931 125.175
6.6141 111.298 114.075
16.0689 2.23389 121.592
37.3869 192.047 24.034
25.8115 154.964 176.644
32.8874 140.05 214.604
38.6818 95.7275 129.566
8.33116 117.575 96.458
72.5326 105.587 184.263
24.0608 128.508 212.058
37.1955 84.5992 254.125
21.8712 185.873 41.6899
9.81113 110.577 186.14
36.8421 130.991 101.582
14.7571 203.051 17.4811
19.184 182.02 132.25
8.92798 136.119 85.2023
28.4431 110.823 259.843
37.1775 100.221 141.893
12.0703 170.947 145.399
18.182 134.084 75.0841
45.0972 200.486 28.999
5.796 117.787 109.824
14.0339 89.7385 101.003
22.3462 105.29 135.637
59.4955 190.479 177.474
20.9929 108.462 246.122
26.0508 205.766 44.1637
6.3763 152.487 72.0596
4.05135 2.38581 107.422
27.3236 217.153 223.708
16.9301 152.697 76.9357
30.6659 135.303 148.743
54.2381 142.398 151.408
31.9585 138.798 97.3457
45.2761 134.346 175.565
10.1208 145.378 205.617
34.2647 217.66 6.71927
41.645 137.945 107.04
53.119 202.69 196.849
32.9518 162.303 24.2981
33.8072 150.044 105.917
3.97806 113.392 82.2684
20.5231 77.3459 119.411
52.1318 170.62 146.056
6.84169 79.3434 259.154
5.50619 141.755 225.214
56.7978 89.3972 244.866
24.2507 130.234 139.559
67.1609 102.086 193.771
24.5171 89.0641 134.13
45.7051 169.777 187.425
30.0834 83.4225 157.699
22.6051 171.352 151.716
25.1303 127.564 201.151
5.41538 104.394 184.666
26.2769 139.898 199.904
41.2324 116.765 188.431
69.6531 89.587 228.126
25.0645 5.57911 119.417
13.8543 113.026 259.052
22.3761 84.7521 154.685
101.932 196.185 251.041
48.6219 170.216 132.589
12.6139 139.747 78.3695
12.7984 13.2426 126.656
39.4624 198.682 8.16483
39.1509 146.415 180.873
32.3402 215.725 39.445
25.1469 175.045 147.811
28.1708 134.414 179.42
16.8019 202.881 220.447
89.7789 200.329 252.699
49.6857 174.156 197.296
47.2569 140.766 117.207
66.0262 81.1467 252.944
19.3305 156.883 102.857
29.357 142.405 182.874
35.3892 105.803 241.31
47.5538 142.473 174.12
29.0498 104.988 157.987
17.9598 120.118 109.456
51.1432 168.224 156.639
30.3109 134.921 219.899
8.20745 163.559 85.7682
31.973 145.745 84.235
4.31065 84.6357 157.336
47.0904 165.928 204.437
29.2322 147.845 132.127
47.2415 184.433 179.844
8.23341 81.5015 246.742
33.1264 144.032 161.438
31.6242 110.896 232.784
21.8827 170.746 40.1365
8.50793 107.013 83.5009
35.0494 181.509 206.273
39.1936 205.775 197.662
5.22754 2.46967 116.8
36.6466 87.8496 240.399
45.5271 195.125 27.2598
40.4337 215.795 2.12988
8.67144 10.9804 87.7304
14.9917 2.72286 134.415
18.9191 158.206 131.178
29.9588 11.8369 109.062
15.301 176.849 182.473
32.4347 174.076 13.1771
23.9544 97.2732 153.605
33.4845 174.446 205.243
44.8346 218.154 17.5156
24.6825 151.367 82.3465
11.4998 187.383 14.6844
38.8807 165.441 112.845
28.7224 181.201 142.565
5.87735 217.995 31.036
5.63808 85.8566 99.8201
45.5133 197.906 16.5482
11.6248 99.6279 90.8635
14.4653 120.87 137.818
29.3034 95.3454 161.524
31.9141 212.305 227.621
8.26417 196.351 11.5752
95.1528 160.67 231.243
30.3006 181.985 40.6245
30.064 191.83 28.2392
24.2151 136.809 188.07
38.9869 110.576 180.667
9.98058 194.342 39.2705
6.64893 162.132 192.848
17.9863 16.3456 123.736
24.4132 118.87 87.191
36.1359 122.536 92.3915
35.8689 217.091 213.825
26.3344 218.907 12.9371
51.9735 106.271 178.995
16.0923 136.248 83.5296
50.3509 118.269 206.407
30.7973 135.733 133.723
31.1859 195.15 33.3155
74.8216 98.093 200.408
27.039 113.318 242.548
43.8855 166.842 121.246
3.57616 14.4365 103.774
77.7495 79.0094 249.675
54.8014 114.806 211.443
24.8411 77.6725 262.101
29.5417 102.756 101.367
10.8309 209.205 10.3272
54.6882 161.215 157.827
91.1323 185.056 260.791
37.0666 142.726 121.844
4.29788 130.762 171.75
46.8532 175.432 144.733
31.4963 127.604 191.374
15.044 208.454 5.96449
49.4546 127.738 176.667
80.0371 97.5641 207.128
31.5463 89.182 261.646
8.17855 204.383 6.04619
29.2122 155.695 115.785
43.6449 209.169 5.86452
21.1972 115.463 104.681
30.5301 110.582 178.851
17.7051 166.557 125.584
35.3919 130.096 95.5371
37.5086 177.441 197.661
10.084 147.096 110.348
46.8616 213.047 25.6136
29.8535 147.831 180.767
54.275 110.627 194.445
68.4272 92.4422 216.539
14.6911 127.258 76.2972
57.7056 102.052 218.722
11.2389 190.33 202.031
55.2679 84.4447 235.939
35.5595 95.9749 161.57
31.5814 218.213 233.772
27.6907 142.196 145.314
28.3304 95.1025 259.298
40.6932 175.181 151.496
40.7813 5.40063 111.679
46.4472 198.197 11.0944
54.2106 116.666 196.724
36.7103 163.456 192.814
90.9309 80.1333 256.829
5.63185 192.216 232.763
61.829 104.129 194.73
49.1925 190.658 185.495
14.0095 216.356 1.78299
38.0595 194.531 187.953
24.9048 218.278 4.61245
6.60692 101.902 244.201
33.7055 181.125 30.1047
20.9079 2.33944 113.369
14.1611 131.029 228.145
47.469 120.857 217.481
27.5889 186.394 209.941
11.7599 166.654 156.7
72.8001 82.5817 238.94
46.7372 143.739 104.874
18.3423 11.4477 127.845
4.92361 131.022 75.4014
29.0053 10.2062 117.344
19.6835 123.364 225.056
45.0609 209.466 10.2597
31.5137 188.16 36.3226
20.7504 129.231 223.234
8.0567 5.36843 137.836
41.5851 174.746 206.301
29.2076 218.8 25.5069
32.6323 103.582 107.347
5.33857 169.664 225.888
39.1124 111.337 165.078
14.9557 193.289 221.034
7.78851 169.384 147.233
8.52788 170.168 181.294
26.2887 123.724 185.933
54.8938 138.879 174.218
8.51581 153.325 194.965
10.2933 175.992 189.092
5.15196 184.849 63.6549
41.5329 191.216 9.32653
42.4854 134.986 111.618
25.3744 112.894 236.103
55.8862 82.7067 243.478
56.3583 108.23 212.793
19.7519 137.51 93.0962
7.51507 171.204 235.295
10.452 196.542 208.703
29.1951 174.267 202.941
7.89651 148.056 246.86
46.6005 115.818 189.122
44.8566 181.004 192.056
6.96179 161.166 240.303
27.7628 104.25 135.491
18.1319 141.92 190.782
51.0251 143.612 111.957
96.9539 169.788 257.543
24.1338 139.79 98.8171
88.382 206.271 259.009
22.699 173.592 191.98
90.8911 152.08 255.192
36.4994 189.607 208.408
31.3798 122.509 112.218
23.5863 157.987 163.018
45.4714 180.648 124.229
66.3799 99.6061 215.668
98.6634 206.783 246.873
26.882 150.892 168.985
10.1406 136.26 106.829
93.559 205.358 257.274
26.6898 210.665 44.8933
76.5113 103.93 188.13
29.1322 175.981 188.287
37.8047 188.225 19.8963
12.622 181.607 28.5549
31.5371 95.7529 240.271
33.6473 85.15 131.83
35.0058 211.609 205.73
83.0457 79.4085 261.558
75.8184 89.3036 232.293
19.9478 17.2483 111.184
89.7209 212.178 261.409
20.8706 88.6899 150.973
80.0952 217.852 241.262
15.016 171.808 110.727
18.2901 139.889 100.805
60.0505 154.569 151.657
53.0105 180.828 207.224
12.3938 151.531 83.4579
40.0259 179.6 8.20664
30.4512 3.96903 88.8031
54.0559 122.418 175.328
36.0469 151.243 128.896
24.9981 9.05301 109.81
19.6004 142.381 204.271
9.78519 154.262 200.02
42.5239 91.5364 136.032
44.6992 190.544 27.5407
71.5358 78.484 255.42
15.1158 162.403 186.756
40.0282 185.386 6.58113
93.9837 160.259 247.889
8.26251 164.723 161.853
39.9161 179.463 26.2571
31.1753 108.548 168.645
26.9069 173.803 113.004
20.7692 158.179 141.796
34.4814 5.21009 121.636
51.6372 185.404 206.859
42.0402 93.9379 234.851
61.8367 97.6212 206.319
23.1139 87.6893 125.401
55.8233 110 227.556
27.1632 218.054 36.8049
34.2757 97.0771 223.916
101.525 159.054 231.996
38.9957 168.782 14.413
29.8229 119.605 148.455
36.5574 166.324 181.794
20.1319 110.383 261.332
30.276 155.425 205.419
40.1747 158.766 198.005
44.366 85.2287 143.171
40.7962 217.693 6.62136
24.9765 144.776 182.834
81.5536 94.7517 213.776
42.5397 196.577 35.9373
81.9892 94.0233 218.62
35.526 183.506 12.7444
43.8359 191.837 20.6163
38.2672 190.845 32.9252
42.3717 171.987 195.539
35.5716 162.912 204.394
27.8092 218.293 61.7144
25.0852 112.321 95.685
95.0628 187.775 256.478
38.9038 169.45 189.062
84.027 218.071 258.918
67.8587 105.722 188.26
11.3098 218.877 241.709
38.2194 115.468 196.757
33.8137 177.251 18.9133
43.192 216.392 214.385
6.86263 163.755 94.7231
15.56 11.0745 76.4746
49.4043 121.666 193.118
63.5847 99.6759 172.888
47.7335 196.956 21.8197
21.926 130.161 86.0496
30.1048 89.5764 250.163
38.2917 140.784 83.8985
91.5585 197.573 234.782
58.717 106.862 196.542
48.0962 181.003 140.513
95.3049 210.816 240.231
36.2201 175.33 38.5457
50.9572 177.913 191.34
39.0201 153.108 106.127
47.1199 150.329 199.828
91.0403 164.606 224.813
52.2975 196.56 185.588
96.4966 207.12 235.77
28.9931 137.814 208.974
37.2443 177.43 118.071
33.6623 74.8428 139.42
6.10544 67.0918 133.119
18.1469 4.43209 80.6388
55.2273 200.465 190.614
29.4682 218.118 218.535
64.2654 105.925 182.491
45.4816 166.436 159.341
33.0325 127.825 213.687
110.622 198.037 241.854
11.4345 120.112 103.701
23.7878 151.177 148.211
43.0632 212.603 205.571
24.5422 154.653 128.993
32.5163 80.1324 133.09
34.8694 93.1469 133.253
33.594 140.893 76.4157
29.9911 1.67243 125.005
46.3849 118.626 157.963
42.2821 136.055 179.595
38.6324 100.967 108.475
29.704 116.636 152.477
51.2856 80.4441 253.653
33.9278 154.89 193.34
42.1315 216.954 10.3527
30.6403 72.5194 134.249
38.2892 188.298 14.8979
54.5293 185.703 178.197
7.31647 1.64656 88.3044
28.3913 120.198 178.436
34.8179 132.8 198.348
110.157 186.912 234.153
9.30438 175.092 182.395
116.956 176.191 249.63
46.0005 138.577 208.317
44.1429 178.843 26.9834
15.0271 14.7151 83.696
15.7781 175.09 17.7518
21.0108 176.254 1.14557
97.2688 145.288 250.519
38.7432 84.8752 158.933
40.3604 107.805 108.618
58.7394 90.7168 235.233
47.1041 172.749 151.586
34.2316 148.673 207.776
79.8143 188.776 216.227
56.127 85.5445 163.641
33.6525 144.522 178.031
33.9903 109.672 108.987
30.1592 1.55825 84.4093
27.7775 103.475 261.937
14.5288 152.048 184.898
12.229 219.048 47.9388
61.8142 106.513 211.909
31.443 176.098 195.902
6.81089 168.499 17.0337
63.6684 162.24 147.898
79.2827 84.6403 234.237
96.0688 203.678 228.355
68.9367 159.132 149.836
90.6745 158.088 225.382
55.5804 151.399 151.492
43.4317 131.884 102.968
32.3555 123.3 196.18
25.5263 1.25936 77.0293
16.0071 194.547 215.623
31.5683 207.364 209.811
61.6657 108.71 187.356
44.4996 189.05 2.40831
27.9107 154.732 134.929
19.9087 1.18365 130.94
97.2194 152.795 245.507
34.81 172.353 16.8041
16.2392 189.967 211.263
38.368 117.121 193.011
42.5967 201.528 4.28153
63.2214 83.7251 240.568
36.0216 132.049 81.0709
19.2346 5.89991 88.6952
11.6107 179.671 186.583
31.9418 145.568 196.556
107.46 177.272 227.104
40.3887 91.9132 115.336
19.3684 167.77 107.923
30.9329 215.894 22.6687
53.3185 113.862 172.297
50.9344 126.686 187.352
30.0847 1.39029 97.6767
35.3623 9.19242 105.591
11.7085 198.274 217.533
55.0723 126.016 160.314
46.8115 139.081 126.186
40.9618 135.554 138.869
53.7386 118.865 157.991
26.5433 167.375 13.6345
69.4042 86.7245 236.07
36.1984 199.06 37.6682
27.1123 111.614 113.048
72.4167 128.609 261.727
33.2053 4.6683 92.9601
74.3253 102.519 193.097
44.2338 105.031 178.918
41.771 198.141 193.408
39.9621 104.281 174.214
56.1069 104.414 173.326
49.9046 140.954 146.289
47.0814 133.142 123.543
111.901 189.306 246.177
7.8266 151.88 251.045
40.1514 144.062 101.59
26.7195 2.4569 97.6549
93.7621 166.755 253.985
16.0679 152.617 116.219
54.787 125.317 211.771
51.7942 214.301 218.112
110.442 193.185 243.981
28.7971 181.937 201.962
3.22783 1.15358 126.062
8.6554 70.2749 135.581
40.5646 186.789 11.0829
39.3647 187.747 132.668
19.0545 211.863 238.042
34.4469 98.697 117.915
45.5226 154.547 205.509
49.9699 162.332 163.559
94.7998 200.706 244.714
46.8803 130.18 144.643
50.1652 175.727 130.69
96.3897 159.763 257.678
40.2762 183.491 144.022
37.0645 157.911 178.99
46.545 114.709 146.211
46.5246 208.218 209.399
42.6746 129.201 201.427
101.026 203.367 234.031
74.3545 90.2192 238.802
43.3469 144.396 190.502
34.3522 158.305 187.44
50.5458 204.012 202.433
34.4428 113.053 182.81
51.9641 116.588 137.696
38.444 116.711 164.902
47.4697 150.719 188.673
52.9675 165.765 139.571
50.8954 112.717 183.525
39.5913 143.649 111.402
71.6711 101.32 174.399
