ply
format ascii 1.0
comment Created by Open3D
element vertex 164
property double x
property double y
property double z
end_header
3.48396 143.334 112.326
5.61214 130.046 103.245
15.3451 118.257 154.708
14.4177 153.911 139.223
4.22192 111.272 113.524
29.9539 107.416 146.531
12.8002 149.091 106.045
52.7807 128.196 108.206
57.5038 109.455 121.343
7.82031 151.53 132.081
2.83433 117.395 134.679
58.7756 115.993 117.624
17.2998 156.139 111.204
18.3618 131.447 92.4746
30.4256 164.951 142.941
21.5715 158.151 132.441
3.3311 110.952 120.519
51.4732 143.346 153.353
34.6769 130.214 90.4658
42.2176 114.593 94.7591
8.73037 110.716 140.467
39.6557 137.991 90.8187
12.5025 155.249 127.617
59.7611 140.115 140.028
48.9636 101.897 137.664
47.4326 140.525 99.6733
43.4892 104.136 143.938
10.836 126.632 154.779
28.1578 161.698 120.678
10.393 136.152 100.136
20.3157 133.253 156.893
42.2121 101.393 101.84
6.92358 117.256 105.46
6.07407 131.986 152.051
24.7978 124.794 91.0836
46.395 96.8278 130.636
61.03 126.435 123.26
49.9836 131.86 159.091
47.8695 116.618 100.194
14.4113 136.858 95.171
12.9014 105.81 135.398
63.3292 122.262 132.236
35.4027 95.2816 129.694
20.8587 160.969 124.156
28.1497 155.695 143.321
18.1737 158.41 117.47
30.544 94.1114 122.382
12.3679 105.016 124.766
29.0429 144.975 154.357
4.72 133.467 107.801
3.78632 150.294 121.718
55.1807 142.881 120.208
15.8122 150.683 144.839
3.66369 142.86 140.464
3.59778 121.461 153.857
70.1418 132.74 160.433
20.532 114.448 151.306
41.8151 93.1809 117.772
14.6296 110.892 149.059
51.2844 155.045 124.409
49.7425 108.773 147.032
61.3228 137.103 130.884
6.44677 109.853 132.272
19.9715 138.747 92.7073
58.3267 113.369 126.942
47.747 100.364 107.79
22.9495 108.635 98.5945
30.385 151.46 149.8
48.3776 126.753 100.688
28.8653 162.458 128.292
39.2926 134.317 158.126
60.5578 123.898 137.431
39.8187 114.714 154.818
20.216 101.518 135.49
58.696 151.065 139.939
53.1549 113.026 109.38
9.82344 138.039 152.067
55.6597 113.445 148.094
2.80027 129.161 146.184
12.5451 118.485 100.292
16.0238 144.745 98.5553
62.7745 122.236 148.559
25.8537 98.7315 133.736
35.7306 99.2509 103.21
31.1542 101.913 99.3764
59.9643 143.44 149.8
42.3586 109.701 150.395
21.0122 98.948 113.349
47.6516 94.8997 119.029
34.7986 162.087 117.588
56.1278 134.755 116.209
28.2592 138.997 93.2284
9.25502 153.256 123.232
57.0915 119.937 152.357
50.134 125.096 159.392
31.4545 101.049 139.937
58.4451 148.519 148.179
32.0118 116.881 155.349
29.4638 133.226 158.675
17.2272 124.923 157.168
61.9959 134.815 144.566
2.82864 119.98 143.287
32.3097 116.409 92.3426
4.70643 109.102 127.003
52.3758 100.222 126.38
56.6841 120.744 111.574
4.5746 114.424 146.723
20.2421 147.33 149.072
37.3834 101.99 141.237
34.4094 138.006 159.156
36.6855 147.773 154.189
12.7207 109.899 105.032
37.9367 96.0674 110.529
38.8212 159.797 134.627
39.1254 121.939 158.377
54.3977 103.507 112.174
39.4687 162.434 125.223
56.3096 124.89 155.423
46.6218 136.766 160.139
45.5788 157.293 136.524
18.0726 100.136 122.607
60.1285 144.76 135.941
64.0927 132.303 152.702
8.09276 106.731 121.303
37.8278 147.832 101.788
7.11122 149.408 110.158
60.8022 113.514 141.897
13.2609 145.012 148.933
20.9457 102.198 105.812
26.4802 102.702 100.649
46.7963 149.325 153.358
7.13935 114.925 151.632
54.8447 105.164 131.709
13.3204 125.5 97.3838
4.54541 140.896 148.78
31.3048 158.892 137.216
5.506 152.361 114.511
54.8272 148.03 130.31
56.8617 108.361 137.214
53.2926 154.665 138.758
53.5264 151.762 146.209
4.76412 146.931 127.612
30.8487 95.4384 105.719
61.7346 138.483 154.136
41.1729 126.714 93.512
18.1502 118.485 96.222
56.5055 132.763 157.031
15.2857 107.379 143.569
46.83 121.415 155.515
60.5497 116.647 130.354
41.2127 150.345 152.154
75.3722 108.317 53.8796
26.2886 126.352 158.96
33.4505 107.861 94.1465
33.678 91.5507 113.515
53.8786 101.944 119.343
80.6659 50.7857 104.635
8.85034 155.349 112.456
25.3921 93.2248 115.552
47.505 154.798 118.992
38.725 153.559 108.819
53.4756 107.863 107.921
56.7939 122.499 146.611
45.4139 155.757 113.462
