ply
format ascii 1.0
comment Created by Open3D
element vertex 567
property double x
property double y
property double z
end_header
31.1611 92.7543 139.877
21.4131 122.877 132.56
43.5847 119.037 130.623
35.8416 41.3414 149.975
34.4848 114.71 146.732
37.13 79.7336 189.967
21.8272 115.779 139.703
38.9483 70.9253 189.154
28.5915 110.856 105.593
45.2219 126.289 176.308
35.8299 97.4672 118.751
37.9763 38.8043 142.318
46.4338 70.4137 117.802
20.4352 56.5555 158.749
39.7122 71.2174 125.469
29.2982 93.7718 125.132
27.6166 37.7251 146.602
20.597 47.4143 129.794
50.183 134.008 170.781
21.7253 81.9668 129.241
19.869 34.0627 156.722
39.9468 37.2511 133.334
64.5732 109.742 191.83
16.5644 89.3114 147.942
17.8315 96.7954 106.152
39.9602 63.5042 147.264
22.8016 124.408 122.589
38.7561 54.647 169.757
55.3697 72.4645 131.896
76.7531 66.0051 182.702
29.6237 128.571 117.541
44.3238 78.0285 96.1213
34.9393 76.4079 183.268
65.8811 129.798 156.954
32.7009 118.802 176.835
57.2843 90.5661 197.118
24.5407 114.76 146.767
18.9286 119.132 115.471
54.5926 109.279 145.854
38.3767 61.8718 173.318
31.9476 99.3735 132.66
19.3503 62.919 131.119
31.2711 84.7942 180.128
46.2349 86.4533 105.582
25.1557 59.329 165.313
45.5484 97.7923 184.014
55.4733 108.309 188.49
42.2062 96.6654 105.071
30.0076 98.435 174.582
65.4769 46.2402 132.503
17.3167 66.1821 148.849
17.9159 62.8431 158.772
43.9775 45.73 155.942
22.4998 77.9771 173.567
16.7908 74.1457 161.492
57.6003 32.7766 154.364
27.143 43.4101 128.625
46.8865 78.3102 154.423
44.8361 128.539 145.356
39.0989 131.219 129.737
65.0246 49.7295 160.485
37.4192 110.801 109.302
18.1062 95.9592 119.494
34.8161 43.3637 127.204
17.9528 111.527 134.569
32.0097 63.8375 172.853
29.612 122.27 138.054
34.8297 107.777 182.341
51.6597 86.6399 194.259
39.5299 117.59 180.435
39.6914 127.579 164.061
25.1308 79.2353 139.334
44.0522 125.433 161.329
31.3088 85.7959 127.635
26.5364 35.1112 139.238
64.2663 46.1677 119.712
40.1998 79.3326 166.682
37.3434 124.755 173.096
19.3171 50.531 154.393
60.0477 56.682 158.082
68.3642 97.1169 191.948
23.7358 101.907 107.085
38.0952 108.317 173.653
47.9252 109.481 150.001
48.7616 118.034 144.639
51.194 60.496 139.79
56.7082 68.4062 192.895
22.7436 114.407 108.596
57.7732 30.4812 140.235
20.7895 40.9105 151.002
31.9753 69.125 148.67
39.6098 126.419 122.997
23.2436 84.293 107.558
52.3537 67.152 114.391
40.7824 99.6464 175.668
50.3422 111.753 134.243
53.7254 86.7397 138.496
41.9152 46.4056 129.405
42.5037 122.096 139.62
60.1371 41.3632 124.667
66.034 118.417 189.162
26.9852 81.303 119.868
53.0921 74.7094 193.045
27.3402 69.0381 113.049
29.4201 113.134 181.467
24.4206 44.7899 156.986
55.447 42.2373 165.169
40.3485 83.6423 173.919
28.2535 48.4886 123.664
54.7967 98.969 194.814
23.176 106.555 149.563
17.2502 114.921 126.725
30.2966 128.086 128.425
23.8644 70.9131 143.765
43.2281 47.8225 167.138
30.5326 113.441 168.254
37.5182 110.306 133.579
46.772 39.8909 153.95
50.916 30.5731 141.762
17.5019 69.8048 127.11
40.606 110.126 148.003
70.0455 96.7349 180.957
45.9197 67.2663 110.06
30.7431 38.9004 156.045
51.0999 72.6437 101.487
59.4381 56.7539 184.486
46.6632 115.963 184.877
48.8902 67.72 190.845
61.7177 86.6876 191.08
51.989 88.395 126.893
41.4101 91.9951 113.583
29.6044 108.842 174.052
19.8616 54.6471 127.132
28.7543 113.723 140.092
58.0203 115.945 190.556
49.1605 101.991 145.412
56.9508 134.449 168.815
66.8997 60.7417 184.482
65.5277 126.519 181.769
20.8451 77.7917 112.58
71.7387 131.21 145.728
36.528 85.9216 186.999
65.2434 98.0686 145.875
17.3146 46.5802 137.165
50.5168 98.6094 138.819
46.0044 90.351 194.724
17.1802 83.248 124.263
23.6913 72.369 133.93
53.6563 132.784 139.382
29.1013 115.099 160.909
48.8438 61.5078 129.422
19.8016 71.6447 110.488
16.5092 77.7778 142.454
59.4045 39.2144 130.864
32.9881 60.6997 166.588
35.5781 80.2245 148.383
54.3669 132.681 160.831
59.3269 84.7532 99.941
25.4587 83.3108 101.658
30.1402 73.2967 175.228
45.4644 98.7463 191.366
41.7186 99.7659 114.787
31.1506 98.7471 107.306
58.6388 77.9342 198.364
65.6231 132.184 165.717
18.1077 103.072 112.677
20.331 71.5956 119.078
56.8891 100.328 186.584
20.0325 100.067 153.211
50.4034 50.89 170.544
38.461 110.647 99.8142
37.9688 109.933 165.491
25.5358 93.7021 102.989
56.9867 82.1782 118.95
64.142 131.74 173.903
27.8576 104.681 158.059
36.7429 102.909 188.475
17.8318 61.9897 118.756
51.7502 131.393 147.66
17.5273 57.3074 145.918
19.8118 84.0679 155.394
17.6603 62.9765 139.223
36.8612 50.6129 121.402
18.5354 72.389 136.629
35.968 122.734 165.967
46.9233 75.7706 190.06
32.1306 38.2949 133.91
37.1952 91.4044 168.092
39.9958 92.3984 192.998
23.7221 84.4858 114.862
72.3753 121.02 176.542
51.2154 36.45 136.669
61.4856 38.5335 158.612
41.2349 61.2702 109.816
62.7106 106.953 152.619
74.7837 128.531 166.938
51.8667 39.478 128.66
23.1807 61.2887 110.533
35.7809 125.316 110.587
48.5056 132.567 160.701
33.234 71.3397 141.056
62.2294 55.8064 176.432
57.8738 93.0646 123.514
76.0182 63.824 171.543
53.2621 37.7619 159.394
66.1246 83.0029 196.134
57.4864 37.0563 136.225
63.063 99.5332 97.4372
41.066 64.8675 137.987
71.5455 49.1336 121.221
69.6113 38.3761 148.572
38.5195 68.2454 181.49
49.1626 132.605 134.426
52.1237 80.9267 132.338
19.2351 101.895 141.954
41.8202 77.08 119.886
23.8812 97.2084 112.809
56.6012 95.2445 170.789
17.512 44.021 146.09
56.0722 88.1288 159.892
62.0315 76.7515 194.289
52.6349 77.2806 141.19
50.9806 80.6985 97.29
60.0234 122.849 185.898
59.0431 53.5 111.86
36.0469 126.349 136.314
50.8624 42.4415 119.318
42.8612 45.7417 121.268
62.956 63.5792 168.822
45.5722 81.3952 193.234
43.8223 119.892 150.302
32.9319 70.2181 133.285
29.7455 56.2366 123.349
56.3097 81.6292 154.674
62.6702 90.6995 142.352
67.5284 73.4602 192.861
23.9255 85.8686 141.545
64.953 51.5327 152.468
69.9231 103.966 188.603
31.1216 99.1433 184.605
51.8207 121.972 182.155
52.0901 129.235 176.387
18.9017 90.8626 141.274
45.0188 122.049 106.931
50.5465 101.924 97.5708
67.1983 90.6832 196.311
56.8594 45.8075 115.756
37.4691 100.036 158.619
73.8134 86.1489 189.315
42.7713 110.018 128.222
48.8759 105.347 175.924
67.995 104.82 105.699
39.4058 71.5638 169.028
55.9355 67.0416 105.706
38.1909 68.2272 115.619
39.2588 74.7429 157.713
55.091 104.474 179.853
52.04 75.7365 112.571
30.8738 84.669 143.549
51.2308 119.248 137.235
46.9801 88.9157 95.6098
45.366 127.953 117.429
18.9341 90.7101 113.347
69.8648 47.4947 145.8
41.7083 61.7717 179.556
29.4975 90.6987 113.825
46.5272 34.3875 147.531
38.2398 75.1115 175.475
38.3423 55.5117 154.342
38.6793 67.9978 154.085
63.552 82.2175 114.263
26.4486 74.8408 105.228
34.1741 93.3718 131.133
43.9345 66.3136 101.741
41.8417 59.7574 120.021
19.0284 88.0884 119.784
55.5944 101.829 156.144
56.1399 29.3858 148.511
46.3258 38.9033 130.684
21.4441 102.475 134.397
44.4312 104.328 100.384
73.2715 73.2052 189.591
45.9777 60.5614 174.03
62.7629 68.3633 194.762
40.4409 75.727 144.108
53.0366 94.9601 185.528
54.2925 55.0928 180.672
50.7653 84.4417 145.17
65.752 44.5554 154.254
51.9536 94.4306 96.56
33.6501 73.241 119.872
45.2646 50.654 143.336
39.8469 84.0694 97.4145
64.4451 35.6694 153.166
48.1366 42.2065 162.839
45.2174 52.0534 124.112
31.898 60.0256 115.448
38.6242 45.5761 161.464
51.9257 123.394 130.723
18.8278 93.575 158.082
63.9892 55.6859 167.451
42.5825 66.2485 131.233
46.6532 96.4114 161.865
23.736 95.2342 164.465
17.4018 87.2537 135.015
27.8509 99.4033 164.536
58.5905 131.192 178.562
21.5272 82.5772 147.441
68.2414 69.9876 185.273
44.9242 128.959 168.373
56.3106 131.438 153.297
23.5485 55.2283 118.509
29.795 77.6981 127.511
46.2256 70.4468 138.985
21.0841 70.83 152.141
57.0473 101.66 97.5338
34.6254 103.779 101.622
69.5279 120.739 117.583
70.785 85.7046 110.69
42.8337 116.547 101.699
16.3757 93.4499 128.417
66.0373 134.842 131.247
35.3056 69.4268 102.003
15.8459 77.9857 112.913
40.1353 90.6346 124.375
37.1799 92.7381 188.316
72.2361 134.722 137.894
29.3484 70.5428 125.171
60.0792 134.229 145.592
30.7432 70.2492 107.059
47.6535 56.0506 111.019
53.7542 65.1772 175.928
21.3592 70.4602 169.977
44.6173 36.9551 141.359
70.8522 109.819 151.313
62.6705 63.1229 178.667
33.7166 106.539 139.278
57.8698 77.4817 137.745
65.5357 104.761 130.25
72.2792 95.9223 108.938
36.0233 117.591 154.188
61.6917 96.1656 175.89
17.1975 50.4852 143.585
71.1262 79.8047 193.222
34.7051 61.8591 157.203
26.9208 68.4184 120.606
50.6891 33.0558 153.245
35.1025 84.312 168.501
35.0369 94.4932 105.352
41.5111 54.4716 148.046
18.2213 96.295 135.854
39.3679 114.143 121.34
65.2445 111.909 141.035
51.3863 64.8182 185.092
49.7964 56.2068 176.906
59.6303 70.8569 186.565
76.9833 119.654 169.933
54.7311 101.834 172.283
33.1235 63.3524 109.147
48.2049 78.6402 105.968
31.4518 91.8634 184.576
70.2364 125.258 172.136
20.2644 39.5343 134.051
57.0632 54.0653 144.841
29.2157 74.0728 151.497
47.5669 109.603 181.877
63.9601 118.332 144.557
48.344 60.551 182.14
50.2492 59.4596 150.188
36.1404 58.7754 119.572
36.3034 82.0994 122.595
63.113 102.211 177.749
53.6108 92.6866 145.549
62.8837 63.7442 189.278
60.899 48.7958 168.376
51.5107 55.7942 142.567
51.5242 116.875 99.9436
50.4534 71.6266 164.02
61.043 44.5471 139.895
46.1799 85.1022 163.305
48.8891 92.428 154.992
58.4573 65.2033 183.429
57.9859 101.179 162.612
55.3231 65.3411 168.506
50.5695 96.3156 126.937
49.452 68.5659 153.263
28.9564 79.0831 134.135
27.1357 90.1763 132.531
57.1869 53.261 173.636
61.5138 61.1215 108.335
28.6886 121.141 108.522
66.1675 99.0599 111.614
49.6233 95.1807 169.929
76.4788 93.8872 186.63
39.9443 119.045 158.548
17.7088 101.962 125.095
41.5081 95.6311 138.82
43.5711 67.5177 185.777
19.6442 85.3544 165.434
62.792 35.3611 137.675
53.6995 55.9386 111.878
53.0641 47.4952 136.788
58.8148 135.838 133.756
35.1952 84.7187 96.1302
50.5685 102.029 163.504
66.8188 97.6336 139.048
34.1494 119.093 159.001
71.1245 100.824 145.438
69.6937 65.259 167.822
69.9064 106.818 178.035
50.3516 61.3571 119.042
44.0049 125.465 154.91
56.7793 126.565 181.647
60.0929 108.728 97.8722
44.0515 104.137 171.764
68.6704 66.3785 115.402
45.7993 62.2554 137.565
50.5214 98.0414 177.308
68.9625 41.9057 138.723
68.4202 71.4513 104.712
41.4812 56.1868 128.129
29.6966 104.32 150.265
30.2582 83.1873 98.6942
27.0348 95.4331 148.537
52.5163 131.418 126.083
17.0693 110.305 115.177
20.2619 66.2979 164.273
65.0821 93.6198 118.719
35.1501 45.6785 156.651
66.3982 128.923 127.637
59.5488 80.9858 146.238
41.6715 122.625 113.34
53.8794 95.1922 117.185
47.5624 92.6348 113.805
46.2486 108.519 157.354
39.7033 79.8444 156.743
23.3855 98.2119 144.125
35.5532 91.9399 100.646
64.718 66.2373 161.066
46.3115 70.8239 128.183
64.6734 53.1922 127.476
48.9831 80.6903 124.293
33.1686 88.881 119.89
38.9821 91.9232 95.1415
44.5762 98.718 97.2704
36.64 78.1315 99.555
34.535 54.7282 160.946
45.1619 88.193 118.759
51.0197 102.25 131.581
53.6779 124.085 141.483
41.6427 104.653 158.851
44.6035 93.3342 175.77
44.7165 104.077 163.585
61.8851 35.776 145.265
42.1367 68.1174 159.092
55.6205 131.066 120.01
24.6752 66.3627 127.12
59.0962 119.565 148.174
41.3039 91.9743 148.773
35.4692 92.7475 173.227
45.1163 48.4589 115.368
56.3346 92.5985 111.702
16.708 81.1725 159.334
37.8015 101.066 142.125
58.2938 56.7539 133.752
55.4526 82.7366 110.34
69.9101 106.839 144.1
71.4029 90.3821 144.411
47.0622 93.226 142.674
38.3539 98.5756 150.174
76.3825 126.077 158.797
43.0656 93.4946 131.85
46.717 75.473 161.259
26.7385 80.5429 151.897
67.6422 95.4884 160.317
43.7874 82.1566 148.331
54.2263 124.839 103.171
67.028 128.453 120.973
71.5556 118.403 182.618
59.4254 131.118 160.121
60.646 69.413 105.905
62.4764 70.5539 139.985
72.7068 60.1627 133.125
63.5258 67.6054 112.551
60.7202 93.9117 163.928
57.4643 102.181 136.207
58.6204 68.0816 122.393
46.5589 58.1259 120.616
68.4498 59.8781 176.301
53.983 89.9647 188.295
59.4318 99.9189 149.619
63.5807 119.669 118.29
58.6034 53.4921 151.971
64.6731 137.041 138.028
59.1921 86.8726 149.796
79.3653 72.6596 166.556
68.9615 62.8514 105.8
56.3831 62.7809 120.042
47.3505 49.2181 134.871
66.4801 120.18 151.187
56.8014 63.1394 152.077
71.6616 113.478 141.389
55.142 71.0947 148.375
47.8665 128.634 124.485
26.294 105.156 143.253
55.7239 68.1624 157.976
61.0215 75.5686 118.234
68.7322 60.6213 124.419
56.9719 134.361 127.358
29.0054 50.3629 160.646
61.5923 109.142 135.308
51.1615 85.578 150.631
68.4185 68.3727 138.374
63.4445 92.0691 102.087
27.8719 86.1229 172.314
51.0134 71.5195 124.075
70.4201 66.5761 178.568
73.791 59.2452 111.561
50.0129 91.194 166.51
59.7975 98.8674 108.576
76.8535 94.7753 179.794
59.2487 64.2159 134.559
65.9433 101.813 121.38
24.9688 85.2633 168.169
66.9277 128.408 113.927
62.8513 90.0032 156.845
64.3718 63.0611 135.599
42.4179 60.5538 156.268
80.3608 88.1142 181.771
30.0929 90.6626 165.802
61.0311 105.661 143.4
72.5831 95.1689 173.387
73.8792 118.896 148.37
53.5582 106.747 140.279
73.8371 69.7382 136.779
51.3806 109.22 98.6257
84.0526 71.4829 177.999
45.0592 91.1743 168.876
57.1989 100.412 125.539
71.6272 74.2388 152.45
82.3251 77.1092 180.506
72.2532 118.557 126.801
49.3702 53.3519 117.647
69.3668 111.637 184.624
66.7792 116.872 131.529
83.452 78.1205 113.166
77.0806 76.1364 185.733
73.6745 55.3944 116.535
61.2805 71.8098 146.521
82.3552 56.9473 129.344
77.2233 102.171 151.993
61.7414 87.3168 127.086
86.58 122.254 122.634
72.2631 102.348 173.837
67.553 76.3519 112.744
65.4305 98.7337 133.578
69.432 109.909 122.435
62.3544 78.338 155.198
48.2005 53.7796 151.702
76.8352 113.293 177.902
71.6832 95.9257 149.211
59.1023 54.0794 138.922
81.4875 81.6635 183.974
64.9583 78.8468 106.06
73.1947 91.4968 155.415
72.5897 126.837 152.537
81.9845 57.5058 145.179
