ply
format ascii 1.0
comment Created by Open3D
element vertex 517
property double x
property double y
property double z
end_header
19.626 65.0209 147.581
21.4319 20.831 158.02
19.7139 114.597 60.9441
20.2562 87.036 13.7366
18.7306 102.976 167.077
20.465 149.246 101.238
18.7011 5.81556 63.4489
23.4948 114.84 157.844
27.7217 135.7 68.5368
23.2746 62.5492 83.675
20.5762 68.0518 4.66942
22.4562 120.124 11.0732
19.1718 118.594 124.891
18.5915 51.4545 121.244
20.2016 68.0755 103.254
24.2813 22.4265 148.279
19.4801 118.361 78.1455
18.5933 73.0916 132.861
18.5696 137.449 131.294
30.6472 66.876 8.09737
26.91 132.513 115.06
18.9487 16.7049 49.1097
31.5024 105.655 106.126
19.4486 168.684 88.9218
20.2042 161.993 57.9717
28.3963 53.2441 133.157
20.1877 9.17311 41.7582
20.9152 185.91 48.5994
20.1854 144.988 43.0123
19.8511 105.224 12.6582
30.1037 140.317 89.027
22.4233 191.63 66.7623
19.3936 168.315 98.7591
21.4476 187.4 99.5316
21.8325 13.6551 153.171
25.1468 141.902 97.0539
27.2372 74.8938 131.724
21.7412 73.0487 164.726
18.9849 95.89 161.937
23.573 131.678 6.36142
18.7428 153.739 70.345
18.317 45.4526 58.9252
22.5805 38.2762 112.237
27.0994 80.7144 30.093
29.3494 15.6146 145.513
20.631 113.256 72.6017
32.0966 29.0701 150.482
28.3371 126.735 106.726
30.5794 93.9592 176.222
19.2859 63.5599 96.6605
38.4526 144.99 31.2814
20.5583 18.0147 18.2062
21.9694 12.4524 57.6057
18.2933 67.5323 135.706
22.4824 201.907 64.2245
20.7059 118.321 42.5296
20.2635 179.653 83.7006
20.3896 87.6391 35.7699
22.1251 214.297 15.9345
19.8557 103.08 26.5144
19.5649 70.7039 122.214
19.8875 57.7357 144.058
33.1154 210.174 19.5705
21.2624 129.405 21.0179
18.1799 83.1379 141.43
20.0025 47.7191 39.7255
22.9576 8.65685 162.737
20.7208 92.3256 44.5879
19.9109 80.2638 7.34179
27.3316 52.6196 109.016
18.493 63.2597 158.4
23.7638 170.371 46.3975
19.1212 32.2009 102.868
21.7815 206.106 88.5846
24.1516 11.1951 75.1416
26.2541 62.1996 2.96065
21.4896 139.819 21.1169
23.1265 173.988 33.3171
33.0096 127.291 26.0133
18.301 97.7909 137.336
20.959 33.2884 8.70353
20.5218 91.5725 98.0205
20.2247 182.088 30.2351
26.8921 117.888 114.733
27.5562 121.614 75.6471
20.5717 96.4806 8.87911
19.5373 154.379 48.7188
28.852 84.1289 94.5694
36.1489 155.218 67.986
29.2852 199.221 94.234
20.2931 103.404 53.5239
28.4488 181.912 49.4488
25.3834 3.12384 30.7743
27.0893 125.982 43.4841
29.4217 128.889 4.17621
24.1037 29.7586 153.498
25.5232 39.6378 130.446
23.5722 188.758 89.7905
18.9717 153.892 80.2875
20.0872 130.976 41.6301
37.9213 188.596 87.2717
21.4878 217.175 100.733
17.4361 87.3139 133.951
26.965 133.926 60.9842
19.0886 26.8257 62.4516
31.2611 106.747 31.7611
20.9186 48.6267 25.3836
21.3385 193.255 57.3369
30.8227 65.5306 104.936
18.8615 99.6243 18.0191
27.2759 45.1244 67.9284
18.6611 78.8913 117.461
37.3593 167.565 26.2896
23.3687 197.363 29.4186
38.7963 138.274 34.9185
18.8368 66.3898 29.7924
19.2958 160.097 26.4354
27.3889 28.7025 17.0844
22.0469 112.584 54.5359
31.7501 82.9836 14.4981
25.8501 201.082 12.2708
33.0885 144.928 70.2368
34.8562 176.556 52.8731
31.2783 118.546 61.8238
29.0506 75.9945 104.586
23.2247 102.488 176.032
23.8585 214.013 84.2882
36.2129 208.221 97.8844
21.6345 91.315 178.572
22.4167 176.557 2.69723
26.4492 96.1013 7.17091
26.2574 148.09 76.8344
22.2231 172.446 82.0084
33.688 80.2099 2.5582
20.6436 79.9997 131.078
23.3746 192.092 4.30602
23.0634 59.3561 109.779
20.495 153.677 60.946
25.0642 134.807 92.1018
22.2049 165.698 16.8265
20.2195 133.294 101.456
32.6262 152.557 58.3956
20.3729 73.979 23.8264
19.0604 131.409 95.0349
35.3097 88.9682 111.765
22.303 180.06 53.8494
28.4046 134.332 32.3044
38.4655 105.511 125.548
19.6108 121.037 101.99
22.7267 30.405 38.0448
30.0854 92.6817 107.127
24.9981 174.745 22.8199
29.6193 2.1721 74.8552
24.0413 121.597 33.5419
22.2744 174.282 9.22915
19.8014 116.4 94.6033
24.3997 142.028 81.9349
18.3205 149.115 90.0678
25.505 124.067 137.49
20.6452 106.312 110.956
30.9902 123.229 121.095
21.0711 47.5003 51.9006
18.5502 62.9909 129.389
19.6341 127.767 110.433
22.2017 55.8669 95.0332
19.3404 60.759 7.69467
28.6801 124.19 83.4993
22.4534 200.902 83.3744
18.3781 83.0531 170.609
30.9243 117.007 106.441
18.2779 121.67 140.006
25.8391 91.4028 146.956
19.9763 45.6385 115.827
20.0053 158.787 42.9653
30.2832 41.7598 4.27032
18.4869 105.614 142.385
28.9598 7.17262 37.8595
23.1693 140.43 5.06553
22.4795 183.943 9.55795
26.0633 146.629 68.1811
32.0848 176.452 24.0666
23.351 51.3473 71.9366
19.8026 163.83 34.3383
29.4604 107.632 52.6446
34.248 199.012 24.3005
19.2739 181.78 70.5173
18.0876 82.8824 108.441
30.3732 165.428 80.6513
25.9404 67.8434 91.0202
22.2103 60.8735 15.1383
19.4328 155.283 4.65322
21.4591 147.506 20.3103
29.4545 132.897 125.711
21.0418 197.146 91.7275
19.4545 132.831 143.187
22.0101 114.67 118.662
19.9726 127.838 82.6406
32.0308 58.3511 8.26245
17.8132 100.776 120.591
24.1199 206.564 21.7983
32.1783 78.7912 23.5119
33.3552 162.964 68.6567
41.5494 122.008 18.9366
23.5461 58.9228 22.7174
21.8797 136.519 30.251
31.6356 195.315 13.5612
27.3659 190.969 43.1321
18.5597 141.561 71.385
23.045 11.1172 67.1543
30.5048 141.841 13.4807
20.9871 93.7487 114.58
31.2874 13.8338 43.8828
28.2129 182.091 18.5235
19.6956 29.6374 20.7277
18.9613 8.90109 10.7103
22.807 114.611 7.76497
24.911 211.561 3.27769
18.8804 114.751 132.671
27.6638 122.44 128.59
30.6505 139.169 53.5916
21.7061 85.6794 24.0782
32.8878 116.656 51.1073
19.2573 163.893 71.6344
22.6426 4.47286 14.4378
28.2908 76.3488 114.993
31.9288 143.868 62.1909
23.0264 111.57 138.682
19.9399 140.635 63.6796
33.2125 106.641 147.729
18.5896 108.668 130.636
25.5233 83.1274 148.083
26.8664 67.9568 112.417
37.1325 142.474 49.8038
26.4057 91.2301 27.2865
17.5826 54.0623 130.733
29.5926 169.073 30.4232
17.5107 57.0234 110.33
26.6637 69.9734 153.1
18.4395 75.3648 144.35
18.5981 43.9711 133.014
23.3245 155.261 32.4174
28.6824 88.3419 167.271
37.4075 119.642 42.9171
29.074 154.807 79.998
38.6257 144.275 77.3232
23.9964 160.399 89.1029
26.9013 138.615 44.7293
21.2494 189.781 26.4354
27.1433 152.364 94.4568
21.6603 45.9001 4.92816
33.2095 135.649 24.3125
21.702 189.973 36.3723
23.2883 82.6843 110.737
17.5279 83.3921 159.602
33.4303 124.496 6.90215
19.3966 105.378 34.7127
20.8674 177.821 106.597
23.5328 130.139 75.0172
22.4958 168.31 39.0444
27.5727 208.134 99.6486
27.7482 109.236 126.29
29.7706 166.659 95.9488
28.103 141.251 23.4527
19.8347 76.9312 152.416
31.0685 74.0347 98.1703
28.214 50.902 17.6947
20.2389 125.131 89.7295
18.6174 2.22003 105.641
19.5332 61.4922 121.231
22.0317 196.577 20.1523
30.8145 115.715 39.7346
20.8956 218.685 79.1311
34.5153 118.051 7.43058
21.1421 50.1695 144.258
21.6292 104.812 5.74581
24.0415 119.82 24.9131
19.9109 125.544 29.3398
17.6149 39.4343 118.207
38.2948 25.1435 146.388
38.5854 139.413 22.3675
42.5186 153.153 50.0754
23.3459 168.066 65.84
19.7431 142.694 54.7707
26.124 157.85 21.0084
26.3565 79.6104 157.327
40.1634 76.829 104.179
27.8152 107.206 18.0038
21.4066 110.266 42.5372
31.7421 132.425 84.5902
22.0942 130.632 130.101
23.5015 136.109 11.899
32.0253 84.0435 105.553
19.3028 173.336 51.8726
27.6454 182.457 34.802
19.4154 125.685 120.694
19.703 177.561 94.0222
21.7877 68.4802 17.7335
19.5039 116.884 148.341
19.3283 30.8636 27.5911
22.182 19.6107 36.3426
21.7086 91.6573 152.196
38.3332 16.4487 50.3703
24.8995 217.649 7.14301
30.9898 93.7233 126.459
24.8064 207.925 79.5662
26.7561 124.564 54.9632
35.0878 89.4141 7.57189
36.0972 23.8507 141.912
18.6746 28.4857 49.1239
22.4187 4.85877 85.8216
39.2083 147.614 46.3212
40.5639 99.7168 129.441
21.0646 132.986 65.3131
19.8786 189.739 77.1856
24.2295 95.6456 32.6601
35.2095 110.681 12.7533
34.66 208.65 4.60748
22.9851 39.4553 25.5438
26.6516 68.75 26.1707
22.5508 134.681 53.8114
27.0419 85.4163 9.80696
19.4386 24.2867 10.1417
21.4801 77.8781 123.704
26.2738 12.1433 32.9357
34.6811 177.859 70.5398
19.2786 123.524 50.6602
20.4386 189.552 17.0729
17.9144 137.279 87.3801
40.6813 182.46 45.1465
17.9953 86.1321 149.158
27.5718 76.3113 1.8491
18.3661 94.1424 15.7296
22.843 148.695 12.4138
22.0374 120.426 19.814
29.7579 106.431 114.102
42.1234 102.452 144.994
41.3346 78.8938 1.7587
24.3137 105.964 30.8956
29.9741 174.874 97.5797
25.0641 119.438 142.673
20.2172 13.0486 29.6537
32.2094 2.02783 68.1659
19.9898 104.379 44.3738
26.1472 112.126 84.3023
20.3679 147.171 28.7573
40.5312 179.604 12.1107
27.1519 146.767 41.9748
33.9035 132.553 107.021
22.6252 98.3324 103.535
40.8656 68.1549 122.702
28.9136 175.388 77.9074
20.2266 96.3705 131.355
18.212 7.48573 20.1832
23.72 170.7 14.0687
23.6158 157.933 11.7282
29.909 193.068 81.0714
33.141 170.532 72.0799
40.4209 198.411 78.0598
48.6298 130.45 27.5597
30.8865 182.902 75.5263
17.8777 3.28845 53.4709
33.4551 5.96691 87.8954
27.096 124.48 15.9887
33.7448 12.0626 64.9474
29.457 81.5475 139.753
21.4565 173.519 59.8265
17.2871 2.54468 99.1948
31.6002 153.402 49.7684
18.5511 74.692 2.24567
20.5803 94.3822 23.4181
36.9127 132.195 56.2383
37.0991 102.447 18.3003
40.5774 101.536 8.41132
31.4389 153.152 7.88447
27.6768 100.126 160.103
18.1719 49.2591 16.3626
50.6503 151.372 48.5639
33.9935 130.034 15.4204
29.7971 195.056 47.6547
34.7689 187.147 54.8954
28.7039 93.0082 139.731
28.5366 59.8469 117.722
26.0269 217.349 91.547
19.6068 100.188 152.363
22.4898 95.9891 170.396
40.8274 174.934 18.4184
18.3562 157.329 92.9132
28.4803 165.268 10.7286
32.0963 96.0177 164.266
42.2491 94.2044 6.55427
25.4512 105.509 147.281
36.8701 95.5265 26.2225
25.8346 49.791 6.24139
32.3373 34.121 10.5078
19.2175 30.8853 137.634
40.5748 182.79 62.0638
28.5467 164.391 20.8486
19.8878 171.559 72.241
19.5494 179.593 20.315
23.1047 60.2935 136.783
38.8506 137.617 10.0026
33.8771 113.649 118.191
23.0723 46.4993 45.956
30.2751 137.414 4.08256
26.9691 42.9054 12.6667
21.001 207.114 2.40303
33.3777 113.197 18.3042
22.0064 218.703 22.3089
35.6927 161.263 2.12183
37.6774 41.1468 19.25
30.185 100.912 129.494
25.4693 88.589 133.583
24.3412 185.194 75.3136
22.0532 184.643 2.21446
23.3702 55.6748 1.63079
28.0683 86.84 117.745
39.2809 201.841 17.7499
29.6245 55.4444 125.794
45.0361 117.002 14.2148
35.3369 86.4991 32.0082
35.7911 108.727 141.408
36.8043 79.8302 116.075
21.08 142.772 35.5466
31.8152 188.291 88.4642
38.0489 111.186 130.996
43.0399 108.984 7.23777
32.7939 153.075 16.159
18.5068 57.8995 116.866
23.021 186.999 56.7859
22.4685 105.31 156.198
37.5089 165.89 62.1655
41.5497 116.689 23.4905
30.7641 192.167 63.0495
39.7103 195.618 10.7165
17.1424 83.7023 125.418
40.9984 71.5772 7.24455
44.0468 115.027 1.89266
40.9935 100.864 136.314
33.5459 158.44 75.459
23.0944 2.02531 72.0435
29.8434 216.773 2.50087
34.6456 145.058 57.1646
30.4178 107.811 6.74688
29.6156 101.456 118.79
31.6253 185.451 7.34849
37.2325 105.371 29.2643
29.0513 91.0482 18.7369
49.3556 161.356 40.7444
28.443 186.047 67.9506
19.5641 91.0036 126.788
31.3889 157.216 1.43862
23.6837 87.3941 104.061
37.9699 175.535 29.9977
32.329 129.283 55.1073
27.022 67.9125 120.156
25.5776 87.8825 126.576
17.7764 3.43083 10.5662
39.2827 182.064 34.8446
39.155 153.735 22.4382
26.12 162.99 45.7137
19.0752 151.2 15.711
22.5062 102.315 128.467
21.064 93.701 1.37447
34.5246 177.073 2.77289
40.494 163.852 55.8874
30.0169 180.144 90.1149
24.7966 203.45 74.2075
19.5587 195.842 79.4242
29.7596 85.2578 155.47
46.0158 140.63 6.81892
34.1902 70.3603 122.175
27.9545 1.55933 35.61
35.501 207.108 13.5633
32.5641 64.8853 19.026
33.675 175.923 61.2483
37.2732 217.049 9.33858
26.9381 1.51869 59.9038
34.4789 71.8022 111.326
24.4306 102.009 117.115
42.262 101.446 121.943
39.6022 110.419 47.466
33.2452 195.144 4.1905
27.1283 160.262 30.4433
41.2484 179.268 1.79853
21.7465 1.3041 97.0729
37.7314 93.844 1.82825
23.8587 195.115 75.8234
40.0459 63.5936 12.3836
36.288 180.557 83.066
26.4005 102.886 164.015
40.9928 189.29 38.6008
27.8493 40.6235 15.9051
39.027 113.52 124.403
44.346 218.937 14.8936
40.2826 174.465 63.2945
43.497 212.363 7.90763
19.4765 17.601 1.17442
28.1405 2.99401 13.2622
36.2896 170.312 48.9152
30.8896 121.911 21.8946
40.6974 152.519 35.019
21.8246 30.416 1.22672
37.3737 161.96 15.6419
38.7933 93.0685 15.858
47.5329 109.79 17.9313
36.9861 103.987 4.78577
39.9581 85.1839 117.024
42.2566 161.056 20.6258
46.5409 116.795 8.03432
20.6003 37.948 104.182
44.2606 138.854 76.1853
37.4312 86.4714 140.571
46.1955 132.162 36.0495
45.0943 146.383 2.38117
43.6731 167.529 3.85156
41.7682 168.139 17.8773
35.4307 146.053 7.22409
