ply
format ascii 1.0
comment Created by Open3D
element vertex 379
property double x
property double y
property double z
end_header
23.669 21.1104 15.6289
36.6589 152 142.614
54.0326 134.811 148.632
41.9428 149.249 135.313
38.3741 97.2339 88.3197
19.1957 109.834 132.556
23.2184 17.0528 8.75124
26.4324 132.281 95.6357
33.0237 95.7442 95.6936
10.8592 130.749 139.63
31.0165 146.61 146.87
46.862 142.088 142.335
28.46 118.117 94.8448
33.2003 143.283 108.145
10.3611 8.37862 30.0275
55.6995 103.898 106.913
49.8461 149.887 138.166
62.0635 125.009 91.4645
44.1744 147.856 102.007
21.6627 134.869 122.413
32.8136 129.687 91.6759
45.9276 114.1 145.86
32.2463 100.408 103.157
21.236 126.264 112.484
24.0631 155.356 145.837
30.5392 97.9656 125.843
30.8863 137.488 88.1118
7.94588 37.6979 10.3445
32.3338 158.287 135.904
39.1435 160.479 134.031
27.9999 137.89 119.741
30.2659 145.16 156.507
46.0624 4.48484 52.1539
45.7867 147.455 127.462
36.5922 117.904 87.8833
56.5399 7.60003 7.85894
46.3923 130.761 153.685
32.9034 122.076 143.699
19.9292 145.312 150.291
33.458 107.02 106.8
28.3677 100.566 132.998
24.9375 110.695 99.7206
47.0431 90.3456 83.0174
29.0915 23.7862 30.7396
46.0854 107.256 108.413
8.50751 162.9 152.013
50.8593 119.628 155.141
49.7627 112.751 138.512
56.4524 27.2458 24.1694
12.1713 129.538 128.221
47.9766 144.108 152.513
23.5496 103.305 130.829
50.2355 120.628 75.037
28.7942 142.214 141.73
42.084 120.107 78.3223
50.7601 147.346 101.789
12.0536 119.824 139.706
57.9672 128.41 138.684
42.3209 92.8138 101.183
18.2623 149.724 129.148
50.7624 10.3134 47.7298
36.8244 102.108 113.89
49.9401 87.8045 97.574
39.0285 28.9957 17.4806
40.51 129.598 76.9523
55.8334 114.36 147.379
26.8033 156.229 150.771
39.3093 131.736 159.805
51.9156 135.45 139.008
34.2289 152.886 125.018
37.8204 137.394 153.52
48.3562 95.4785 90.2982
52.1134 141.563 128.733
25.1285 3.10307 48.7408
32.9488 122.249 107.53
55.8443 144.488 98.7342
56.1106 124.567 154.564
39.4402 113.499 97.9565
43.133 141.387 105.788
30.0781 110.467 98.0184
35.8447 126.876 155.3
15.8484 122.318 131.943
45.7145 100.896 111.737
36.1598 3.18555 52.6139
20.9554 19.4669 29.7831
68.5521 18.2105 34.7179
35.1317 103.899 94.7565
13.6664 14.5142 19.5222
50.4614 113.702 152.681
54.8232 108.057 112.964
18.7349 139.296 131.951
34.6723 131.418 113.573
49.4184 137.034 153.382
50.2656 135.183 83.0422
23.5319 12.5787 40.9656
33.3754 132.387 120.012
36.5738 122.301 80.7981
24.8189 122.727 105.122
15.5473 142.195 139.683
58.7944 140.398 136.691
59.3353 96.3468 95.3469
44.5314 107.615 75.24
16.3492 4.42897 43.5936
15.827 2.76149 3.20867
60.2813 139.036 103.866
38.789 90.9268 118.467
18.2818 13.6759 35.6513
43.3081 21.715 42.1222
38.7032 24.6665 10.8594
27.9265 109.701 87.2494
66.4156 106.494 89.8393
20.6837 21.2205 21.9806
43.6847 136.301 153.426
58.6968 8.63078 49.4567
37.9826 150.232 123.368
42.8056 87.6545 91.6689
17.1332 10.6265 7.53286
33.3776 160.098 143.025
63.6942 23.3876 30.2816
34.8042 109.029 83.8709
44.1059 88.0862 115.1
35.594 159.751 125.742
45.7266 154.464 127.267
8.97909 3.35084 10.5153
19.661 116.564 126.325
44.1881 86.3762 105.26
32.4015 138.667 151.558
54.3157 145.395 139.012
55.0757 111.693 98.3555
30.148 126.368 83.8591
39.2673 125.24 121.433
51.3171 10.6481 5.72342
39.8154 108.968 148.244
21.9774 114.522 138.461
37.6717 125.81 113.291
43.8912 27.8496 29.9264
51.5193 129.644 77.8532
29.2899 137.493 134.064
42.1815 140.905 149.333
16.1019 167.112 144.044
60.672 142.65 122.591
44.0127 146.922 146.339
58.3499 147.479 131.816
57.7845 112.238 79.5963
17.4129 113.246 142.008
50.3219 91.3181 113.51
34.2618 89.333 96.4448
56.6424 117.797 105.018
38.4289 130.347 152.598
55.18 95.7849 89.4058
47.2422 152.049 109.071
28.2772 129.352 123.602
31.5067 146.632 133.579
48.4576 134.834 90.9556
32.7383 136.745 113.871
54.0066 100.84 112.705
30.7201 27.1209 22.5012
60.1519 131.269 100.951
63.1483 114.041 95.0793
58.0348 102.32 80.9467
39.1047 142.965 97.5803
68.3192 13.7761 42.4012
28.7341 105.281 137.777
31.1615 109.642 142.504
48.5869 102.272 75.1037
35.7305 131.9 82.4771
46.2469 123.144 153.831
43.1741 116.75 156.192
16.8228 129.089 141.703
47.9823 29.6124 18.2247
42.4564 103.311 126.881
47.8013 87.1921 109.414
34.6317 101.918 134.279
36.1964 94.1773 122.817
63.2899 107.707 111.661
55.7032 127.657 86.4477
71.6366 17.8468 24.9215
71.0159 111.959 98.4017
42.3852 101.001 83.6792
54.1553 3.5315 54.7714
57.7491 20.2466 10.1065
52.281 2.22147 4.04129
45.3826 9.37765 3.67826
60.4919 106.183 150.066
21.9732 107.465 126.623
77.8189 10.6262 19.0814
46.5408 127.859 134.956
61.2386 107.145 85.9496
40.0388 90.0206 110.279
43.4514 142.671 86.2439
54.4239 120.053 80.3774
50.1188 114.565 77.1767
41.3022 95.711 122.436
16.1545 126.26 126.259
23.1069 107.08 137.528
44.6372 141.056 115.995
31.485 127.341 105.64
58.4944 97.4585 84.204
32.7111 132.877 151.985
37.7328 141.76 147.605
39.4967 141.055 158.77
61.9363 15.6658 42.383
32.584 20.1594 38.7545
62.6477 134.585 120.917
5.73622 39.7712 2.181
44.2391 154.021 119.32
79.2339 6.68312 43.3715
45.07 124.749 117.282
21.7924 118.672 143.212
56.0653 91.0751 97.6515
25.8547 114.889 125.057
81.2774 5.28513 26.5089
49.1823 137.709 146.51
38.9676 98.9824 126.479
40.4095 134.828 87.6397
40.3467 112.353 74.9602
61.0208 20.5522 15.1008
12.1653 115.855 134.123
32.1518 92.1407 117.119
37.68 114.809 79.2155
4.47204 154.018 96.9497
41.3801 123.375 155.144
60.1905 20.5882 36.4567
53.6405 94.2909 107.253
56.4877 14.2637 8.92051
59.2707 141.465 109.909
63.8862 6.57128 51.3305
11.961 131.961 133.73
35.8718 88.4769 112.746
54.6188 148.82 105.62
40.6369 154.52 130.465
23.3587 119.739 121.875
30.4503 128.42 147.389
32.8058 108.762 134.96
27.4264 113.203 139.599
37.832 139.832 81.8759
50.9827 126.905 154.387
44.0026 107.038 133.404
31.1856 123.326 126.257
37.3293 13.0507 46.993
57.5244 104.222 91.2591
10.4963 10.109 19.0639
29.7764 10.731 46.4091
41.441 4.07709 2.09239
62.1398 133.527 130.987
33.5376 100.3 109.714
54.592 128.517 149.457
62.0308 122.06 84.8101
31.3584 20.8837 9.20078
53.9579 134.351 116.577
28.738 134.824 144.226
17.0643 120.629 144.528
45.3811 113.285 78.7887
28.4534 101.152 118.706
54.7202 106.788 76.5925
54.777 20.0512 41.7111
37.2948 111.543 132.872
71.9941 3.14414 55.0462
44.0415 88.1293 97.532
49.3803 145.637 108.84
60.3384 124.722 148.01
31.1332 114.381 150.904
34.432 140.881 94.4881
62.243 6.83127 9.57551
40.6238 119.774 147.932
63.8318 14.9145 10.9602
22.4793 124.465 144.164
38.8306 102.742 100.901
37.783 88.1968 101.359
21.7629 129.587 140.429
26.1808 118.51 147.316
47.351 113.222 96.676
43.9708 128.601 82.1463
37.8156 29.4263 24.1139
68.1104 106.712 104.317
65.7135 1.82224 58.1325
46.6937 130.512 76.1875
46.5618 14.783 6.73675
37.6795 20.7986 41.3783
44.3824 92.9318 118.249
32.4981 123.154 152.423
47.106 2.08599 2.39929
43.6244 99.8413 119.499
79.9051 13.8255 38.4524
57.6941 122.242 142.478
37.6782 13.2129 3.65976
46.7239 141.49 100.035
71.097 8.38347 49.2141
28.6381 110.602 148.612
27.3417 109.112 108.703
5.57095 5.05793 127.038
35.6166 106.748 78.5965
47.2825 93.0163 107.38
49.3887 16.7412 44.7743
50.9871 147.687 91.8211
49.8177 98.0582 79.4227
26.9842 114.482 105.971
18.5415 122.038 124.857
53.1921 138.185 122.382
32.8495 111.64 127.804
46.419 123.072 124.719
27.9307 122.421 149.896
60.2312 102.209 102.054
69.4471 10.6608 12.306
65.8609 135.189 106.674
35.6026 105.534 126.249
39.5498 153.099 107.163
49.1414 158.111 119.616
63.4352 103.867 96.3356
42.7447 125.977 105.361
53.9538 137.395 93.9686
76.5466 19.2685 24.656
66.974 2.06488 9.02361
38.4135 122.37 106.466
36.2918 92.418 106.335
33.2817 121.453 99.2923
28.5106 121.972 88.7867
45.6333 125.012 79.1897
51.7154 99.6097 118.709
38.7504 121.72 132.674
60.0881 138.632 92.2269
55.7208 110.528 89.4421
81.276 2.03218 51.2505
73.0934 3.0035 12.5089
22.9229 139.472 140.816
44.0683 104.144 119.948
26.6432 128.808 142.897
51.9252 134.119 132.048
57.3358 1.30364 9.15031
34.5832 99.2152 129.247
45.1118 122.753 129.83
39.0156 122.827 126.862
33.6849 117.41 140.767
55.2612 130.684 81.6667
68.1064 120.585 94.626
66.289 126.424 104.999
33.8031 115.762 136.049
47.7634 119.764 104.809
54.7923 26.7992 14.4427
35.4638 95.2191 103.065
52.3889 124.325 134.115
56.1727 130.822 144.719
25.7986 118.23 141.398
54.5922 126.811 129.154
51.5643 19.6466 7.22769
35.4777 111.2 92.1593
76.8685 12.3744 29.8353
25.661 107.439 122.402
36.2102 119.548 149.981
59.727 132.651 111.344
46.871 117.795 133.478
5.84746 87.8257 212.058
20.9995 134.474 142.395
39.7397 116.957 139.421
65.8498 126.176 98.7736
3.77154 1.27181 13.66
47.1896 141.564 121.907
67.8516 22.42 18.9033
41.1001 139.498 122.704
55.8031 97.3281 104.53
64.0195 128.185 111.026
50.7087 126.078 125.398
53.7329 131.48 126.066
76.9262 4.32701 51.3818
52.4592 125.954 114.365
39.0352 159.885 145.146
39.8267 106.34 97.9435
67.9643 118.554 103.811
65.4086 131.128 93.7151
44.8684 21.3544 6.73309
79.9994 7.55542 35.6054
53.6765 26.251 32.0034
61.5125 121.974 110.432
57.9051 143.685 104.375
29.8276 8.58028 1.33569
35.5748 126.112 102.769
2.7058 148.818 125.299
81.3639 13.4974 30.3001
78.7781 1.17315 15.8546
