ply
format ascii 1.0
comment Created by Open3D
element vertex 401
property double x
property double y
property double z
end_header
16.7115 35.2227 166.445
7.71622 38.6605 177.695
13.6779 102.233 114.155
22.8585 134.793 137.774
23.1633 162.034 134.67
36.8436 175.185 92.9937
25.2451 149.434 124.756
12.9091 127.201 108.388
28.508 109.275 137.33
9.53219 170.826 77.4248
7.9386 90.467 71.3172
13.4822 133.874 134.559
8.95603 179.141 82.1711
5.9674 125.453 84.2934
30.7618 163.454 136.054
19.266 142.927 147.251
28.1194 119.619 143.362
28.7269 137.709 146.123
38.6662 91.9098 106.665
31.4544 107.674 96.0021
5.19384 216.267 21.6798
11.9862 180.939 56.6897
48.1788 167.492 75.5901
25.0711 201.305 34.1307
42.1829 165.407 117.714
8.4324 100.472 122.003
20.3428 104.043 132.853
22.0382 193.407 69.6825
6.66025 130.525 91.7145
6.15488 210.73 115.9
6.77773 104.449 79.7803
5.45638 213.25 7.66285
20.8076 90.9785 80.1863
19.4935 142.714 124.299
16.2805 168.037 75.9159
31.1899 95.9337 125.5
10.0089 193.335 53.3621
56.0855 123.64 108.993
6.27508 118.581 79.8096
14.893 95.2899 122.023
27.1354 166.965 118.777
21.5248 126.204 85.1724
9.47067 207.957 124.982
3.85199 100.312 105.42
18.3467 178.02 81.0345
13.1927 116.784 80.2987
41.6798 157.774 143.437
20.0981 170.008 34.3128
42.1588 148.101 118.753
43.5592 146.407 132.805
10.7378 92.1653 84.5691
33.9881 104.086 140.195
14.4824 193.211 45.2657
48.9192 171.625 89.7991
7.85535 131.931 106.808
4.23056 127.409 100.111
38.1142 163.138 90.5108
17.1803 204.154 127.253
30.0424 95.1469 115.214
6.16741 189.227 46.3936
33.8671 173.571 108.15
4.92331 131.211 140.46
34.3567 153.29 143.28
4.77913 193.72 70.8452
27.9341 167.739 130.197
26.4911 88.6963 113.104
50.8964 147.826 127.565
49.999 136.583 137.405
10.6962 178.012 32.2656
23.1111 198.531 7.48953
10.8384 173.588 53.9082
14.9577 100.766 94.1433
23.3466 127.81 145.311
7.56701 188.31 80.4972
6.70125 168.18 44.812
14.5204 168.968 49.3674
39.6967 101.248 100.426
9.96467 28.8867 183.897
26.3041 168.152 63.2891
17.3839 34.0206 184.103
28.3652 150.195 113.594
13.7241 42.1407 173.636
43.0231 191.501 24.3316
10.5708 109.388 93.8783
46.1955 132.77 106.421
21.4317 163.655 43.2585
47.3258 106.001 96.8233
51.169 111.283 106.26
37.0709 127.936 147.777
18.6678 188.751 77.6312
5.43459 98.157 73.3702
25.6331 96.1285 98.8611
7.08144 207.437 108.036
18.5271 179.512 30.5222
29.3467 157.526 105.979
34.2429 217.607 56.9029
7.06117 175.088 60.8096
20.6605 169.341 123.642
27.3902 150.615 141.676
9.90341 120.757 121.231
46.112 200.456 69.6492
18.295 126.3 120.879
33.4411 96.9807 133.92
15.7327 90.4378 101.985
38.899 157.895 104.794
38.7016 92.6282 128.969
41.7376 168.997 126.668
9.17823 122.531 129.39
24.6134 171.556 109.227
38.6974 174.646 65.6467
17.7848 140.195 131.999
29.533 195.8 30.0007
20.5839 185.114 69.7347
5.58954 114.767 110.329
43.9251 182.24 85.4699
22.4774 211.002 47.4161
21.253 91.6484 117.9
6.01752 108.294 124.258
20.9679 159.615 121.462
6.71851 130.182 121.147
13.4498 99.2564 129.616
50.4913 138.393 129.137
20.2083 117.516 84.6385
12.8363 130.874 127.575
42.159 138.246 140.5
46.1906 156.308 116.535
3.98917 172.356 68.5452
17.4723 209.051 11.7642
20.0454 108.937 88.9223
24.2968 172.498 51.8523
8.98228 199.457 117.934
20.3154 98.0497 126.681
21.999 202.604 13.5206
19.5591 195.213 118.082
25.9543 178.133 38.0738
23.5251 203.143 44.1078
21.1935 174.33 68.3718
16.2102 123.229 137.457
5.22677 117.372 103.076
5.12365 105.942 114.212
13.6937 43.6332 164.469
39.6274 174.132 43.0544
22.2894 124.926 95.1861
6.29187 214.556 32.1241
11.2849 193.61 65.5421
43.5272 161.953 84.3452
12.3005 106.997 134.12
28.2533 144.504 139.587
17.8118 26.6249 181.01
29.8111 208.878 22.9768
14.665 101.184 84.0648
14.2926 117.332 110.324
20.5706 156.246 127.55
19.713 28.1562 171.603
28.9463 126.722 96.3846
55.2243 132.425 127.13
26.6679 207.846 37.8011
24.7265 193.586 35.3199
21.74 156.239 108.883
10.9009 135.817 96.3575
17.8975 203.591 2.44077
40.2165 166.913 134.553
29.687 199.282 16.1207
31.6485 204.751 8.56682
5.22239 126.002 116.17
34 165.862 108.26
28.2098 212.848 52.2658
16.5422 97.046 67.6585
30.6061 90.5014 105.483
19.603 152.675 116.365
15.1307 213.751 20.668
24.7323 215.353 29.0736
36.83 119.644 148.549
16.6236 168.325 57.4641
14.9943 186.34 35.1178
20.0118 168.75 63.1507
33.4082 173.225 54.1667
18.2448 133.083 92.223
36.1715 136.741 103.194
22.0285 166.266 112.972
24.0648 207.94 122.699
25.231 169.682 44.072
34.5557 169.655 82.992
44.4594 130.875 144.935
15.2954 215.105 108.946
36.4155 188.467 67.2424
14.1118 113.922 137.503
12.1204 209.009 30.4728
5.29151 217.602 12.8385
42.9095 120.311 144.276
41.6978 115.719 92.1422
33.8367 173.671 120.299
42.1883 177.727 59.6928
10.1672 198.962 106.523
63.3363 133.607 123.386
22.174 131.976 100.642
38.3127 196.287 66.1878
58.2005 129.808 136.552
21.8084 201.413 52.0139
39.854 111.961 142.618
26.841 198.662 117.28
12.9839 130.784 114.852
17.0945 194.395 36.2294
9.89614 112.071 86.1971
40.5073 215.909 72.9541
8.07615 95.7669 98.021
24.3533 97.9091 120.86
38.8342 216.671 27.0332
27.2164 197.912 61.0587
11.1566 69.3778 35.5434
26.4867 205.124 55.6246
3.83658 184.644 69.4609
5.27908 106.231 98.5289
6.45178 101.684 131.897
34.5033 188.672 30.1598
30.7143 100.239 102.49
47.9228 125.651 135.501
35.407 182.132 56.2217
46.3353 108.727 140.864
14.5341 98.0578 102.567
55.4668 102.986 135.383
47.2997 97.7968 122.897
37.3658 151.214 110.972
11.6775 167.475 36.5601
5.6212 177.405 38.1708
64.5718 93.3737 133.137
42.9298 178.237 37.5824
44.806 194.999 61.5876
21.0466 145.673 136.414
20.3787 39.7322 176.144
11.5133 206.193 12.0237
42.0576 207.15 73.8909
4.74882 118.986 50.1779
46.7651 129.401 92.3186
12.0086 216.427 119.201
43.292 135.809 122.311
18.0946 201.13 35.3729
44.267 179.908 49.6411
43.1239 161.824 123.807
4.33451 178.134 46.5124
47.7496 171.585 42.7595
28.9754 103.53 127.939
17.1049 194.75 53.3951
12.0368 93.0881 116.124
9.82906 203.668 25.39
31.1942 131.883 100.974
35.8823 202.685 73.5684
23.7047 215.727 74.448
22.5505 207.492 19.3798
19.862 131.95 106.823
33.9316 180.588 36.6916
21.1371 114.622 138.707
8.59883 166.737 68.4199
53.1697 105.789 127.475
17.4412 187.316 45.4231
41.7462 183.69 34.2483
45.4228 177.545 76.1123
27.4616 158.975 141.359
31.6436 214.3 66.8783
17.7449 119.498 96.2083
29.2131 116.354 91.2732
22.1563 136.982 119.302
19.1268 199.674 59.948
46.8699 161.035 135.281
15.2502 200.416 106.122
15.5309 203.132 8.26181
22.0086 218.49 22.2508
53.6072 111.427 142.55
36.8836 161.833 140.667
19.0306 197.849 65.4857
13.4155 127.235 81.3492
17.9239 86.0239 110.874
42.778 149.278 143.681
22.3731 151.888 132.814
37.2065 144.056 146.121
52.1863 154.871 140.762
25.8196 139.751 109.272
44.0634 188.123 31.3085
63.8467 93.946 124.136
4.85194 22.1214 120.507
29.3617 213.595 38.7551
23.4857 104.037 94.7156
4.33042 187.767 58.7645
4.04731 116.875 122.216
9.50297 89.8672 109.333
40.8043 168.229 108.226
50.7376 179.745 37.5189
41.559 99.5545 135.148
13.3163 217.716 73.506
21.9473 195.825 47.7522
29.3311 206.334 69.3694
30.7851 167.625 58.4273
26.1643 213.869 115.598
47.12 114.817 94.9194
31.1534 198.563 66.7691
32.5294 203.164 32.4909
26.2337 208.154 108.652
40.0506 142.859 112.205
47.5911 103.34 135.317
40.3778 107.966 129.578
34.6705 210.32 70.774
35.4163 115.637 93.1725
28.9587 217.024 43.1942
67.2467 111.81 139.872
56.0411 194.819 27.6223
9.71056 187.271 38.9275
48.1807 99.7045 103.602
26.4239 170.331 71.7918
10.2977 205.349 18.9794
49.3358 116.738 139.883
31.9553 206.839 58.6238
51.9559 142.472 118.505
14.9718 168.474 66.4036
27.374 143.303 116.257
60.6145 107.969 141.56
57.956 120.963 134.849
33.2574 145.135 115.035
57.4513 94.8415 126.083
25.9948 184.859 73.6966
26.6781 176.828 75.9056
26.7297 134.697 106.123
9.33711 206.399 4.72252
35.7024 218.703 39.6743
5.97237 67.3879 34.6052
43.4724 188.033 57.0141
34.1835 132.248 148.179
35.6203 99.387 116.503
4.18577 208.019 1.69998
22.4928 218.485 66.8996
17.7618 154.954 133.013
10.3065 107.428 101.694
52.7845 117.09 98.239
23.165 185.009 33.7186
20.9062 36.0093 172.281
5.24175 218.492 27.4043
8.58366 218.855 79.6697
42.8522 214.788 4.71838
11.9263 86.0268 80.6247
60.3324 105.748 118.868
3.73359 77.2474 52.9711
22.0731 99.8842 76.5147
5.86909 36.498 166.476
7.7967 27.5131 171.498
33.1426 214.56 16.1956
31.4301 173.041 42.2042
3.53773 116.877 90.8256
36.7545 212.116 37.5234
38.663 135.851 111.254
35.6559 174.66 71.9587
25.1184 218.969 81.3457
37.1036 182.735 67.878
65.0044 120.432 135.514
30.1044 188.367 70.4513
45.6511 135.473 97.96
31.3035 218.521 32.8582
70.015 105.635 131.141
55.2882 204.489 77.3387
44.7525 105.175 111.137
46.7228 215.702 19.9331
59.0345 186.462 47.7379
41.3739 154.292 126.529
38.5513 174.38 50.0041
27.4133 218.919 50.8078
59.5706 134.202 113.519
17.4106 87.4034 83.0352
54.3264 117.407 115.797
47.2707 218.544 74.563
37.4553 213.394 5.35532
18.5953 216.835 33.0145
55.8487 200.636 69.6192
71.4516 104.116 136.662
63.9306 102.612 139.565
55.3053 195.507 39.6049
47.6594 210.468 78.0641
4.56574 24.947 218.474
54.7882 214.487 76.7283
36.5682 209.924 12.8231
12.4735 219.016 65.93
15.8367 208.498 5.17057
49.7 103.746 117.652
36.8654 122.406 94.1875
33.5301 218.682 65.5669
52.7649 134.231 111.074
45.6302 216.849 32.4501
18.2123 135.512 110.74
61.154 122.592 116.751
51.8678 199.194 66.3753
5.16745 202.245 135.189
40.9382 201.553 25.3738
62.2585 215.519 66.7473
17.5233 219.104 79.7619
51.2366 186.061 36.1175
59.0783 188.182 34.1264
7.44899 218.817 1.16499
16.473 156.306 124.562
54.0526 134.738 119.199
4.26953 198.495 195.14
41.7661 200.911 31.8066
57.6036 181.134 42.7766
39.0135 210.921 18.862
53.8072 122.842 102.649
