ply
format ascii 1.0
comment Created by Open3D
element vertex 457
property double x
property double y
property double z
end_header
16.241 27.7782 88.5449
6.81012 97.7383 92.9531
12.1337 26.2547 81.2225
7.62706 5.59675 171.297
20.8567 45.14 26.6049
8.55959 23.3031 204.725
16.3853 56.6638 198.863
16.6868 175.702 42.4339
9.75944 20.1739 56.3025
6.24858 27.1972 54.6317
6.87431 17.558 88.8317
28.9374 15.3887 75.616
7.19479 15.0347 112.03
9.82928 155.081 12.3202
13.6067 125.241 102.334
21.0052 38.1875 23.8246
15.8552 44.4916 31.9313
15.7271 143.563 111.614
23.9139 12.2189 36.748
15.8738 136.776 106.289
16.3286 32.6472 31.9654
5.47047 99.293 46.2618
19.1277 51.5384 29.6981
15.8985 59.3248 37.0773
25.6767 44.5681 20.6784
18.7904 20.4321 82.8877
44.8013 62.2323 26.4929
32.2984 42.9891 17.0646
5.45679 11.8511 184.071
14.9264 19.6626 175.947
6.00372 42.3868 78.5402
13.1282 79.3047 227.115
11.735 173.194 11.9067
6.47837 145.096 128.142
33.3658 126.448 114.389
9.06426 64.1831 226.386
11.3594 30.2968 209.168
15.2795 66.3906 81.7529
12.2451 36.8755 34.0332
12.2279 22.4091 47.2375
6.05825 33.9888 75.2933
6.62822 52.4667 83.7713
31.9397 35.7276 16.171
15.5354 11.8442 163.137
36.9227 58.2194 24.2394
23.3844 53.0499 90.5619
11.0723 131.623 117.249
12.1714 52.1645 36.056
20.3476 111.682 130.663
14.2658 4.55706 165.63
44.5924 55.189 21.5267
40.6988 68.3732 81.1792
25.2557 52.9886 25.0197
6.1837 36.6039 57.7629
24.0201 38.0848 191.574
13.7535 3.49116 58.7638
31.1572 28.7647 17.6955
9.30141 112.91 130.95
14.389 17.6577 77.8124
8.20981 10.5326 117.219
55.1131 166.741 37.2447
11.6568 69.1758 54.0766
19.6518 61.5127 86.4724
10.3269 141.08 132.958
6.94121 33.5519 46.2314
7.47328 38.5424 226.493
9.28937 183.008 12.7442
17.9576 16.6378 12.8194
5.34287 33.3037 66.3311
5.48478 143.149 119.269
7.41091 7.55717 222.837
4.37732 144.235 71.4799
33.0245 65.2819 29.2542
33.958 200.262 7.30205
5.57119 125.813 108.645
7.09654 51.786 63.7326
20.4677 56.9699 32.6677
52.6873 174.497 18.4379
20.3562 69.1239 78.9177
29.7597 57.9554 26.0645
13.3212 69.211 75.6714
29.3093 6.55652 41.6307
5.41909 135.558 133.068
5.88265 55.5121 47.2188
25.6096 28.7625 19.899
99.3546 217.975 230.594
22.5103 145.87 117.161
7.75753 27.1051 45.2839
26.1309 73.202 42.4428
5.96296 38.3584 84.2295
29.1259 7.35114 35.2453
7.16752 47.1842 50.0674
6.84522 188.498 6.10457
29.3663 9.95677 70.3761
21.2047 122.412 104.53
24.2616 18.6601 77.5665
4.6462 13.5827 209.666
21.1746 165.288 4.19997
18.2498 41.112 197.397
24.7935 62.2438 31.3045
49.6851 119.75 19.7474
41.9221 23.078 16.7122
8.82482 128.676 104.591
7.20978 61.3209 61.5093
21.8905 2.07032 34.4321
6.82047 13.7898 12.2981
11.3142 8.87912 42.596
9.40388 30.7511 87.5103
37.0203 12.9605 73.4196
23.3533 75.0588 57.7757
26.8542 176.087 6.39503
5.33897 26.9278 73.1029
5.23941 164.405 59.0756
63.9008 59.4624 35.8867
33.4025 7.19634 66.608
7.65318 56.2997 77.2968
7.83742 108.762 123.903
21.2909 69.1428 45.0557
22.6016 8.93133 65.6137
6.22368 55.1004 56.005
6.17395 58.9999 70.0906
51.4905 14.9564 75.3341
15.8398 27.781 220.224
6.08759 2.33597 55.1209
6.50259 175.575 6.69299
44.0916 192.442 13.5715
17.3473 16.9148 44.2689
27.7366 9.31218 29.2775
9.55593 63.2834 45.2835
32.9874 68.802 34.8929
38.3986 37.5702 15.1967
15.1121 70.2167 69.9561
9.89732 4.7882 4.25086
3.96313 153.828 233.684
20.5121 20.083 30.8011
18.2145 69.4585 52.5929
22.4456 188.369 15.1771
34.2381 48.5559 19.3807
28.3927 6.57082 54.0875
17.2576 31.615 203.995
18.6945 13.3357 72.0476
22.947 32.8218 90.3477
21.7606 204.811 4.59172
9.24648 36.8868 90.804
50.6374 173.672 39.7622
6.661 4.73396 13.6064
39.0455 63.9009 27.7718
25.1103 116.192 108.975
14.7263 2.0812 46.7348
20.078 12.7488 63.2069
6.41305 158.808 3.90075
37.3132 78.141 45.5138
9.81794 204.538 2.80779
32.5796 77.7586 64.1907
16.7143 111.056 111.377
26.3198 119.545 149.183
16.6893 3.42098 17.0038
13.9932 37.7061 171.993
28.9546 77.5274 52.5468
34.8885 191.286 2.44636
12.5005 24.6616 171.452
23.9107 64.6048 82.6501
5.29476 84.9556 94.2167
17.867 72.6628 64.7239
5.37602 121.434 137.591
6.14276 50.0399 75.3388
69.1182 53.0118 55.5789
6.14116 58.4555 89.7388
14.0861 195.455 10.7469
11.0585 128.469 139.781
6.04893 27.8174 80.2242
67.8989 50.9126 64.6755
5.2705 214.944 84.0269
27.2171 37.1218 19.0463
28.3823 147.382 15.7638
5.64979 90.9292 218.595
47.3801 55.7432 87.4397
52.3527 33.4176 16.663
6.4357 65.0469 70.954
33.7596 9.30611 28.8792
42.9543 62.902 85.354
7.60362 54.2522 41.6538
34.342 21.7979 83.0404
34.5061 16.7703 21.6514
102.274 218.378 254.002
22.0381 32.4429 21.7785
18.2706 6.07893 42.2351
11.5595 62.258 85.4013
61.7276 60.2868 56.755
28.2003 67.5556 80.7449
7.53159 47.6584 43.962
15.1328 25.4465 5.54641
9.5623 18.7351 64.12
29.3814 114.005 129.578
12.863 26.4114 41.2966
4.26364 118.033 128.656
14.3405 13.4956 65.4101
35.8456 16.8005 77.9458
34.821 4.47468 33.2742
13.9032 8.79103 9.52412
38.0693 73.7061 76.2954
43.3754 78.1493 50.1836
27.5265 14.074 24.7504
13.3858 108.786 118.505
14.4458 202.515 5.37773
25.5653 19.9044 22.6851
6.30203 11.4251 52.6046
44.5716 39.0076 15.3467
5.47388 43.5783 59.0977
18.8006 42.5782 208.534
37.3316 29.9043 15.3286
9.27541 48.4272 94.0354
5.33256 188.891 28.7565
30.0742 76.8734 46.9856
5.03433 87.8662 89.5655
9.9847 29.6023 4.63148
53.0583 52.6327 21.7077
14.9836 11.0736 35.2957
51.5373 143.884 15.4796
75.0954 42.3733 53.1213
12.6322 19.9617 18.5225
10.0418 65.0132 78.5927
71.8625 47.8052 57.5713
4.72838 148.997 77.6061
58.4938 17.0977 73.812
36.0451 61.4079 85.4629
45.5082 73.8635 39.3884
12.2478 147.992 121.179
6.24026 76.0711 145.103
9.78118 16.0119 38.0604
40.9965 4.70296 59.4488
44.2247 74.0202 74.9304
49.3988 170.024 28.4919
11.279 44.7523 36.9035
6.18094 60.391 161.37
5.65114 94.2873 50.6926
18.0868 48.7292 92.5603
8.20763 22.8062 29.441
32.6601 69.2821 79.1546
9.34331 18.118 12.9909
4.68806 135.203 63.6203
50.8465 62.7021 26.9177
34.3609 52.8606 23.0125
17.8863 34.5393 27.7111
10.9009 218.398 109.169
21.394 71.4318 73.3137
21.4349 171.09 9.50526
43.2279 75.7332 44.6424
6.96746 32.7562 82.8996
24.1241 74.5504 50.2461
5.942 45.6681 87.5946
6.79101 68.3248 63.663
16.1361 13.7443 54.034
13.5018 19.7205 74.1159
34.8788 3.26063 41.57
6.72309 3.94278 23.0511
27.1162 76.2189 67.8726
8.47077 41.9216 39.6871
29.3938 74.329 74.9337
23.2718 218.648 105.21
26.3793 24.127 83.8621
40.6915 23.8838 84.0254
5.58651 102.382 209.269
12.1954 70.2178 61.7448
34.0577 4.8853 60.0075
37.806 70.7 34.8249
15.2098 146.808 129.117
12.2509 54.2966 91.4582
23.5817 65.285 36.8822
22.9449 73.9632 66.0825
30.635 6.84748 162.359
6.37003 20.1739 20.4976
23.9719 177.579 13.3531
4.62547 185.323 61.9705
11.6163 57.2584 41.3189
5.76903 2.05516 31.9021
23.7702 15.0962 28.0772
14.022 188.493 12.0971
62.4385 52.8855 68.1235
15.2182 26.8427 33.4857
19.8824 26.4231 24.9261
51.2871 4.40892 60.933
5.25552 188.975 78.444
29.9904 19.8143 20.4961
26.6983 10.2379 163.201
48.5684 8.53813 68.0429
17.3649 14.9703 6.68438
43.8578 49.275 18.4143
26.8034 11.1578 62.2632
45.5061 3.1255 45.1509
8.18088 24.5589 62.993
73.3226 37.3361 59.7996
12.5809 120.679 139.682
41.731 5.85474 67.708
35.6964 76.7916 70.5063
46.066 7.03098 27.3094
4.30852 122.456 117.501
5.2515 30.8339 2.78524
8.36397 177.158 36.3864
37.7416 31.8217 88.1522
39.5715 9.74261 66.0301
49.2802 75.9261 45.4974
6.03761 50.6057 91.3881
20.6023 18.733 37.0851
46.1677 45.3278 85.1391
22.9381 153.281 5.98074
58.6313 50.8371 22.9401
17.8885 72.2836 58.4903
5.59899 27.7478 63.8786
24.0563 218.564 113.023
24.853 9.54067 47.0086
54.4736 67.308 35.9671
69.8422 36.8541 65.1558
10.3006 34.288 40.3757
11.9063 165.172 7.75319
45.2351 68.9702 32.7934
63.3961 40.4565 73.1297
17.8924 3.89867 175.853
35.2098 77.9054 52.2241
12.6111 26.0729 15.2793
39.3255 177.791 35.8155
50.6911 42.8328 16.6051
71.6924 43.215 62.1737
19.8456 13.0816 45.4289
5.34118 7.30953 44.2355
6.02184 29.291 112.796
15.7387 57.8815 89.4327
32.2621 4.39064 47.5621
67.4397 56.8498 41.358
39.3864 2.83331 46.3396
51.2558 174.318 10.1238
36.1175 22.1931 17.2204
49.8007 67.9761 33.5778
74.9665 33.0947 55.3561
22.9061 10.207 52.9575
4.54646 184.683 227.496
16.8501 65.4271 42.3479
10.2306 34.549 192.389
68.3748 55.3618 47.3585
51.9385 71.3197 40.6443
7.04279 38.9183 44.0556
10.0294 18.9648 30.0787
18.7762 120.969 139.058
13.9228 20.9168 66.55
7.18883 60.9921 51.6969
8.40426 139.319 13.4993
48.9947 172.647 34.6998
22.0308 7.9388 17.6218
29.1532 43.2688 90.6768
29.5559 195.541 13.0427
7.5412 61.3267 83.0338
6.15959 135.97 3.53561
35.2669 192.045 11.2646
29.6842 206.424 2.77905
14.3277 1.52539 11.0326
15.3846 218.748 101.017
24.3923 129.229 105.107
33.0928 73.8118 41.0587
69.1446 52.1807 34.7064
7.82309 198.741 2.5253
6.41397 218.545 35.2844
30.7159 185.296 6.46976
27.6489 68.9926 37.9519
62.3132 10.6313 64.5523
40.371 16.7413 17.5403
10.1106 67.7494 69.266
30.1563 30.5209 86.7582
28.1062 125.027 106.239
28.5922 52.0669 89.4973
70.7494 34.7426 30.5561
12.3701 115.489 137.064
10.3653 23.2861 72.3287
45.1525 12.23 74.3677
47.9587 182.065 31.1639
49.5562 76.1345 51.8515
34.4354 4.22037 53.9736
26.493 137.297 109.564
9.69752 9.61196 25.0069
27.6011 38.3202 89.3093
66.5539 57.3866 59.7069
72.1518 44.1305 35.2508
13.192 41.0381 92.6304
29.3352 8.92375 22.9528
50.7962 3.70596 35.3162
76.0518 35.8477 35.7125
39.1895 74.2949 39.1138
53.1938 154.344 10.3941
72.8445 48.2634 49.3321
72.1434 28.4224 58.3667
44.2742 28.7752 15.193
55.9045 62.1573 30.2333
23.0711 197.345 11.898
16.399 23.0445 224.027
52.1085 73.6382 56.2715
29.6713 118.351 118.541
56.8015 42.3095 17.7459
19.5515 10.029 2.28279
18.0849 157.081 11.03
9.8623 34.0032 212.126
36.5287 74.2825 56.4218
18.3766 141.411 2.19685
55.6829 8.40723 66.6708
57.2935 69.1331 45.4963
30.3294 78.0741 59.1675
70.8607 29.8505 63.7295
71.6928 47.8194 39.5668
31.536 120.868 132.074
30.6709 59.9695 85.2756
7.05124 146.67 13.0992
13.6743 65.0569 46.4892
75.8901 38.9613 45.1055
18.7522 1.36984 5.82507
32.3884 136.593 114.345
56.3494 52.7143 76.2485
35.9855 68.7572 81.8984
68.3933 45.0261 66.6506
76.5552 29.3539 50.2135
30.257 171.271 3.60972
19.4631 42.6079 91.8668
70.5485 41.2577 29.4329
66.385 18.2996 68.3598
75.3379 37.4712 50.0717
64.1205 46.8619 70.9044
49.3476 20.323 17.3431
16.2274 1.71896 32.5645
77.2783 25.682 45.6633
67.5853 38.8971 69.4628
12.2279 1.5596 225.494
39.7813 5.0924 31.2872
66.9567 31.9169 71.1084
27.0582 115.283 144.075
58.9988 46.8472 75.4338
37.4087 54.5304 87.3534
32.4804 48.2584 88.4161
75.7269 34.8604 41.9029
27.8848 5.41641 60.02
32.2245 182.366 13.4467
49.6744 66.0767 81.0488
40.7428 45.4948 20.1166
64.3103 48.8413 23.9849
40.7694 3.17514 39.3809
61.1774 66.2461 39.7542
10.6005 7.63807 51.1415
7.50393 66.1096 54.4166
55.0087 71.7107 50.367
62.9474 56.8836 28.7322
48.8945 70.6515 75.0109
43.8103 78.3457 66.7936
4.5708 19.9981 13.249
77.4826 27.217 38.9313
37.029 42.0948 87.604
59.4554 58.0306 70.9155
40.8463 78.1204 59.7385
63.8459 61.4222 43.8583
52.7414 24.152 17.7991
50.5543 15.3959 22.3513
54.6164 69.923 67.1574
