ply
format ascii 1.0
comment Created by Open3D
element vertex 1609
property double x
property double y
property double z
end_header
36.6035 11.3635 50.1935
46.1737 65.1057 154.581
32.7955 69.1362 126.085
23.4956 9.99998 254.685
84.6292 139.935 78.2876
13.4976 62.0222 258.491
57.2915 78.7103 171.138
28.6964 91.19 104.442
55.7793 47.2538 230.054
64.72 28.3284 99.6689
85.259 101.922 178.823
49.5076 23.1977 91.5883
55.6281 69.2233 167.603
37.6324 11.5682 61.046
33.3731 14.8989 242.63
50.6185 66.584 161.691
35.5079 9.4397 39.6963
72.9488 94.0652 180.625
30.7532 184.958 141.01
53.6346 62.5863 157.543
38.0301 17.0238 43.1369
48.2535 58.9074 151.755
39.9148 190.574 133.649
38.4742 5.54229 71.2632
48.8944 4.17794 92.3486
83.1061 179.201 169.739
47.529 131.271 180.125
14.1382 137.47 145.026
116.687 108.098 135.272
55.7783 62.438 164.028
22.9161 90.5526 144.343
14.2445 135.877 138.142
63.3343 39.5235 126.767
66.0295 46.5546 130.376
97.1406 92.8244 170.408
53.424 35.9455 51.994
104.329 162.027 157.181
25.347 157.966 110.683
90.8652 80.5037 169.86
45.3314 2.82232 85.5869
86.2778 81.8601 70.6705
92.3284 34.9136 125.97
26.0615 66.8794 254.043
61.4634 31.5446 88.8255
128.659 65.6847 37.5619
54.6377 190.027 115.166
35.6788 91.1653 95.5345
69.5162 51.5147 86.7865
77.5247 14.9729 112.516
29.4807 132.931 101.025
92.5813 88.3086 174.6
54.2 31.2236 226.889
36.3153 23.0478 234.852
123.909 70.4172 21.0407
105.457 156.068 161.492
40.4074 18.5386 65.566
42.599 88.8787 96.5255
69.4406 27.8056 114.738
32.1898 185.293 134.013
30.7894 96.1549 162.198
97.3058 26.0569 117.198
20.4646 94.7444 136.352
86.7412 26.4925 229.937
46.9883 29.754 47.6809
40.0723 53.4084 103.429
53.2589 187.348 161.615
59.7919 59.5219 161.906
26.372 123.399 163.939
56.6163 173.286 173.024
64.4655 85.2157 176.155
46.2737 29.9884 40.1286
115.848 100.253 147.653
57.718 41.1012 230.73
26.9526 135.345 105.451
49.3765 90.6175 78.9651
87.8067 58.1787 234.599
44.9948 148.876 89.8632
62.5324 52.9764 155.313
65.5087 25.4683 106.289
125.256 71.4086 13.1145
88.7689 71.036 29.0783
81.9137 117.297 71.2813
58.9979 24.392 223.736
91.1154 158.768 176.243
26.2524 97.1499 157.488
26.3602 179.413 134.585
31.5709 160.789 106.478
66.9172 96.2651 181.105
37.4079 173.06 107.338
39.1653 10.9682 70.2019
40.6866 16.4952 73.2739
27.0031 93.3645 152.778
121.876 90.1275 111.791
42.8995 22.622 49.8055
61.7185 18.6016 105.129
43.6995 16.7808 87.9196
27.7377 171.29 157.273
60.0254 108.589 78.8642
66.3878 198.45 136.725
34.8321 73.2118 154.08
43.8158 186.825 115.732
139.387 58.6081 28.2904
77.6873 39.0033 118.138
37.6929 17.8369 33.8767
37.1817 183.228 117.752
52.024 196.791 137.675
16.4756 170.054 138.286
86.3867 85.0878 174.723
17.5539 49.878 244.461
16.4226 135.156 114.185
86.1618 39.7883 127.543
17.2626 109.256 138.183
94.2484 94.105 72.8349
33.5058 66.5378 118.285
7.32291 4.83322 260.646
59.2591 3.04014 98.8744
119.178 92.1717 130.246
80.5847 68.6467 24.1786
46.2701 9.73946 247.889
20.5934 120.282 114.632
47.7294 90.3181 173.769
115.315 95.3822 134.623
11.3474 44.7697 245.455
45.6053 83.6424 169.534
37.1884 179.858 159.379
36.56 154.747 174.499
13.2792 35.6475 250.013
66.4884 33.5717 123.966
37.8596 179.013 110.393
34.894 4.10845 61.2654
6.18162 53.962 260.651
68.8308 43.965 88.8476
61.2812 196.055 119.818
118.005 72.1779 20.4535
92.3147 101.666 175.34
87.5387 72.2396 172.861
67.8177 68.8633 173.626
19.7952 40.6925 239.572
121.143 104.37 119.503
39.5255 17.1638 54.4851
84.5717 161.374 180.033
46.5157 189.287 158.058
44.6372 39.981 230.418
85.2529 8.92132 106.586
54.2655 19.6925 108.019
106.508 140.755 164.338
51.0981 193.016 154.031
74.112 60.3439 168.09
56.1711 21.4629 97.65
103.711 182.361 122.476
29.1469 182.269 125.623
76.6591 148.23 79.7265
156.893 30.9007 12.7466
23.7585 24.4325 241.422
59.282 40.3526 56.2443
70.4607 197.836 131.133
70.5211 120.541 73.6017
41.7798 105.94 175.659
45.62 192.177 124.593
5.50172 11.7491 257.853
35.5739 111.626 172.389
39.3508 52.796 234.56
39.7707 7.30712 78.4048
66.4067 58.5153 19.76
71.9559 57.1502 45.4696
103.088 107.75 78.3535
107.902 47.9772 128.377
79.3264 191.752 112.625
28.687 117.889 105.865
20.4552 105.606 153.79
26.2406 177.279 127.997
93.2191 78.0155 70.2578
5.18368 33.5181 259.031
62.3624 46.1976 50.3788
44.3521 67.838 248.481
58.2778 36.7478 61.9542
48.8389 48.3877 233.375
48.9467 197.333 144.096
70.5623 59.4877 31.4159
121.313 105.405 112.995
119.525 79.9382 116.581
151.572 34.5348 18.2321
96.9714 51.7404 143.062
95.4039 40.3094 223.578
54.9725 62.378 77.3327
7.91734 38.8161 256.716
64.7788 52.0733 120.822
32.698 85.3441 161.423
53.1055 64.1746 101.78
157.122 33.4108 19.1994
79.5473 196.145 121.127
13.033 143.977 133.478
87.4662 14.9441 106.265
11.5148 53.3707 252.94
31.9343 28.8302 232.305
87.2644 4.9328 110.016
160.806 21.2341 20.2161
65.6497 197.497 125.339
71.4146 79.0427 77.2288
106.108 60.8959 137.063
60.5532 198.484 130.748
144.907 55.962 12.6235
37.2839 162.753 102.328
150.783 32.8208 50.2543
6.38774 48.7615 254.131
79.3426 192.832 155.563
57.6517 85.5502 177.328
61.7568 187.372 106.563
41.554 187.025 152.545
52.0969 71.5858 261.438
21.2023 132.727 110.539
61.6243 55.5532 2.0049
67.6227 58.2602 231.118
118.905 113.887 122.975
54.0983 6.23778 97.5962
149.317 43.2458 18.2769
100.229 71.5345 32.4915
106.11 73.8901 16.7306
35.2609 124.138 89.9383
108.541 179.703 119.898
62.9237 18.2048 97.7165
83.7683 197.009 132.641
18.8742 120.108 151.527
69.449 55.6004 159.109
19.2319 112.847 151.382
129.563 67.6339 23.5021
27.5532 130.202 107.896
108.46 157.812 153.964
16.4543 153.62 123.842
43.2606 137.347 179.039
74.0479 61.7863 38.2772
158.333 15.1301 37.449
32.4132 159.287 170.37
93.2873 7.98689 110.804
102.692 69.0208 42.2786
60.0629 95.6156 177.766
6.61158 16.4441 249.493
95.5525 66.7642 45.2515
63.918 3.61228 244.772
68.5878 16.6527 113.252
120.749 84.6017 105.404
30.6802 119.784 96.1693
67.5499 197.765 143.952
68.2473 10.3567 230.153
50.312 91.0641 91.9268
42.0742 22.9957 57.7272
43.6404 6.89744 89.3431
80.5328 154.383 181.456
35.0868 5.15526 51.2168
32.7752 104.322 168.634
67.0242 21.9251 112.854
121.188 102.401 126.083
121.879 104.395 133.369
36.2876 79.3218 159.893
163.482 16.3328 19.3867
77.4069 73.3551 71.2878
51.9311 68.0555 85.255
122.436 99.3017 120.582
84.4173 172.079 171.586
60.6948 118.218 74.3476
94.0817 46.3474 139.67
138.363 61.7617 20.79
73.4223 41.9554 101.608
105.633 70.4367 35.9506
52.8602 73.3957 97.0046
59.6508 187.064 166.044
36.4274 9.26131 10.8884
73.0917 66.2193 252.779
79.4851 64.0683 35.4234
67.3577 61.2829 3.81578
76.5175 50.7196 148.954
43.9034 148.229 178.912
27.2976 165.024 163.798
42.2291 26.8945 32.9513
27.0289 85.3996 123.812
59.6539 127.777 75.5323
37.5772 101.214 82.2824
17.9607 104.163 143.248
83.2422 128.041 74.1189
23.7606 155.276 143.076
44.2965 172.858 171.803
30.9566 115.799 167.566
67.8729 195.806 154.213
50.5634 73.7366 166.535
161.306 12.316 33.3572
41.4878 24.2767 40.758
109.092 179.408 127.336
57.0768 196.821 140.491
6.24508 33.6063 248.639
106.447 166.559 146.578
118.027 87.2867 133.228
109.633 152.544 158.649
37.8421 109.1 86.4218
60.6304 55.4896 15.1754
16.4958 142.233 140.144
109.07 52.8426 132.296
33.3385 72.7249 138.479
22.0643 89.5283 135.42
40.7993 140.565 87.6337
29.6394 181.948 147.995
55.5664 101.286 179.933
128.325 65.8604 30.3158
149.719 42.8274 39.5029
44.3346 72.2456 260.889
45.7635 193.194 150.127
62.6555 5.90829 235.771
54.292 11.5994 99.0218
35.0769 41.9961 232.81
88.1417 91.0397 72.1846
120.3 94.1202 122.086
21.9451 112.71 156.459
98.0847 64.642 54.4464
42.4537 71.197 254.375
104.62 178.184 105.928
21.2175 69.561 260.685
67.3815 140.832 185.012
96.7901 102.027 75.5203
64.1758 139.226 76.7119
85.7564 187.854 108.251
163.483 21.1255 12.4452
31.502 76.5969 148.886
47.7018 37.3431 6.58091
45.288 27.9052 97.1427
18.8908 153.478 114.791
108.635 104.284 80.7972
22.1268 173.483 139.112
43.2799 76.6468 166.333
57.8284 20.9017 112.473
29.1576 80.5475 111.623
21.2658 138.927 109.917
17.6062 140.999 124.781
116.911 118.747 144.332
55.2884 12.8805 233.212
50.7982 181.213 102.868
16.879 110.523 145.049
38.0413 141.286 175.522
13.6191 144.752 125.964
112.09 162.321 144.84
18.2012 95.1632 125.072
49.2922 189.885 117.135
56.3336 132.757 181.041
32.5429 176.064 159.238
80.087 63.3528 43.5706
47.7695 195.849 130.117
48.2032 32.3781 226.641
46.0777 81.1776 88.5723
101.089 97.8017 76.0654
117.891 72.7818 13.3667
35.4095 89.9335 86.4266
61.6317 192.507 161.524
85.7294 60.2247 161.557
88.8211 44.7103 132.459
106.389 178.036 140.633
77.6369 106.731 181.871
31.5103 69.7123 110.137
118.206 76.6983 123.579
119.778 79.6996 110.601
70.0143 44.2414 59.4163
55.2875 1.95759 241.25
104.495 73.4649 3.89098
117.074 71.1423 29.6255
82.9439 141.269 181.349
21.5768 171.931 129.541
110.474 74.1746 1.95641
158.537 13.8635 47.2619
67.3139 51.0461 228.737
49.1121 11.2859 94.4388
69.4806 3.31666 106.187
63.8721 54.4432 8.52841
44.0713 60.8103 146.472
49.2457 42.2584 126.247
108.246 72.2885 28.2406
63.089 74.2842 171.565
52.7812 64.2906 248.808
79.5137 51.6675 58.1296
77.7923 25.4355 80.0624
40.7858 169.576 102.419
16.769 149.72 129.922
44.0261 184.498 160.141
84.5455 6.94086 238.686
159.814 28.1525 18.7228
75.8803 142.179 77.3467
23.2027 130.26 118.197
69.5607 6.86879 248.369
35.9228 111.639 91.791
47.5478 115.632 78.539
56.5129 53.1043 151.934
57.5216 55.7384 231.012
101.587 174.879 152.078
71.0234 177.623 171.653
52.421 6.51249 237.249
79.6582 42.6786 132.704
38.2678 168.801 167.105
105.461 15.7433 231.028
74.7916 172.647 175.313
77.7327 196.742 131.769
6.66474 43.4741 255.457
37.1411 186.989 142.635
39.4086 82.5102 165.346
19.77 95.9134 146.694
120.215 98.264 130.886
16.7982 99.169 128.908
92.9853 114.027 178.212
45.6298 49.7816 135.048
99.8582 111.662 171.553
97.5365 21.6559 239.388
66.5107 59.6972 13.6259
94.4351 186.379 145.779
58.3019 48.7338 73.8889
20.0163 125.696 155.263
49.063 30.5683 59.8207
76.5901 148.247 182.353
119.87 83.9996 124.824
41.8296 67.103 111.23
81.1055 58.888 54.4135
73.5891 195.707 154.716
117.022 100.892 138.556
153.101 24.0805 47.2792
51.5837 143.436 82.6983
61.6299 78.9583 76.8006
75.3651 80.9974 175.557
121.577 97.4585 112.015
40.634 191.059 143.782
30.4487 73.8259 117.047
22.0125 86.117 130.717
95.5297 65.5127 259.063
76.1291 47.3546 135.118
82.5576 35.3365 223.104
105.784 2.63709 113.55
14.6186 132.378 122.032
78.6114 9.13047 109.424
36.0801 95.9343 91.3754
68.7398 60.2167 40.1181
106.259 171.997 107.257
35.8642 11.864 30.3593
47.4182 61.1375 104.724
75.3109 54.0918 158.377
42.1484 11.3227 83.0175
43.775 181.648 108.86
88.1606 174.282 93.2931
118.34 127.252 145.078
104.448 174.883 112.358
36.7149 145.882 90.718
96.464 107.226 77.3022
78.4517 22.9637 120.284
22.5737 80.6758 126.991
118.907 134.649 143.848
93.5076 169.155 90.4466
38.4617 34.6906 230.355
60.3418 156.557 183.265
43.6841 160.198 101.332
52.0898 84.0696 86.305
47.6356 28.8724 54.2141
147.296 39.1935 52.611
60.2158 125.177 182.978
29.1483 55.9826 240.474
101.225 30.381 223.683
31.8324 155.446 105.751
21.7619 98.6802 121.995
77.7524 45.8481 224.792
59.4267 191.024 112.471
118.331 139.52 127.121
21.7375 158.26 121.946
71.471 73.5547 70.6171
140.574 59.5908 14.9369
22.869 159.517 131.9
86.3465 194.282 119.406
50.3807 32.9346 82.2769
98.7077 72.1161 3.15726
13.8875 114.177 130.903
69.6037 41.3355 118.277
73.3681 123.001 79.5478
46.0112 29.2175 232.983
51.051 177.539 170.572
68.6557 126.762 185.069
99.4717 112.954 77.152
68.2139 46.5923 120.741
84.4756 62.7037 49.9059
33.7632 152.043 101.541
88.3982 191.258 113.714
84.2063 21.8381 86.4555
32.8819 178.782 118.726
81.5189 73.0061 172.928
74.543 66.7448 72.0404
25.6394 104.899 159.994
18.5415 58.0219 249.635
58.7161 190.431 152.133
87.2971 44.7322 137.921
39.8114 162.182 172.084
70.9326 62.6846 8.66563
44.2813 195.208 137.57
56.6719 95.294 74.692
119.028 117.74 128.54
64.0328 64.7649 79.1749
164.963 2.65494 16.3415
67.905 61.7493 73.2128
101.241 180.256 147.295
80.6943 79.3428 70.7531
30.275 167.592 110.057
66.1445 97.3076 80.9059
65.3664 54.853 74.4197
121.03 119.783 104.651
38.6487 187.436 124.119
59.2255 72.7336 73.7306
119.916 58.1173 238.191
96.1739 126.283 77.1443
45.3253 14.6892 2.54901
26.1596 177.8 141.738
126.27 65.2863 45.4091
66.6 72.5835 75.392
97.4277 69.5067 39.4539
67.0985 185.673 103.585
75.5482 171.222 90.482
79.1616 43.8058 63.4303
46.0653 162.848 174.893
13.351 32.1292 240.17
83.1562 49.9176 62.3426
32.011 1.97946 29.6741
117.974 120.357 133.95
162.298 5.75796 42.3166
129.64 69.3844 7.47263
108.906 178.182 135.342
46.7273 33.9652 29.1403
151.271 25.5132 53.569
64.4003 59.4749 98.2236
50.6998 169.492 174.591
119.259 128.456 107.496
59.8681 49.106 126.734
41.3204 68.319 156.882
18.4323 104.237 131.139
36.5744 70.6794 105.495
114.27 141.305 105.981
36.011 9.17095 20.8838
20.2815 88.7975 122.956
93.3128 113.115 74.9815
59.975 67.5303 249.083
65.2408 192.049 112.266
72.9927 195.997 122.849
89.0317 68.7629 3.91906
66.0032 66.9771 69.574
78.7013 91.6105 71.5862
119.124 71.8843 4.20984
16.5752 169.094 130.23
31.2416 72.6599 260.477
50.9167 30.1547 65.3378
71.3458 38.7925 113.673
52.3739 107.808 79.7953
115.023 109.188 146.602
46.6723 70.7696 99.1478
61.7959 65.5466 169.75
149.363 45.4463 25.0159
102.133 186.47 135.135
13.619 5.48308 256.295
105.292 67.9105 50.0262
20.4121 103.327 136.834
62.9124 62.8356 87.1154
16.0078 136.125 132.106
119.349 123.435 140.251
107.35 102.245 158.5
57.0578 47.6069 4.3342
160.715 16.0653 26.6801
96.4763 7.36465 237.993
69.1181 80.3928 176.355
90.5863 54.4451 150.005
73.4877 185.205 168.079
16.7694 165.066 122.811
94.9505 71.5139 30.0628
79.8151 15.2094 93.1515
88.889 41.2066 224.515
112.172 73.3612 20.3668
6.97789 27.8528 260.281
107.284 111.656 164.549
36.1308 3.64788 252.962
110.932 70.1412 35.9471
118.85 123.501 125.486
46.2393 121.139 87.4441
68.6631 58.0097 80.1663
87.4944 28.0766 224.11
50.2329 43.0938 19.2698
60.2562 101.278 84.5231
46.7643 61.9987 239.031
122.664 109.52 125.48
123.591 3.58027 109.415
36.0843 138.596 92.6944
66.9495 71.7559 254.038
41.0238 15.9297 4.193
27.2841 75.0744 142.91
15.8861 154.408 131.521
87.4043 191.237 151.913
25.9473 112.107 163.066
97.4974 18.8792 111.648
34.1881 67.1582 248.551
20.6882 130.94 149.682
83.6957 32.7117 124.592
100.365 84.7405 168.517
97.617 157.359 168.534
25.6096 34.2923 233.288
69.482 50.4584 151.961
22.8895 117.435 108.02
36.3771 65.603 109.702
56.0414 184.211 104.986
89.055 65.9785 46.3624
74.0319 58.0694 50.0144
45.0141 137.366 83.2258
67.7883 148.418 184.326
9.89229 8.74565 252.683
33.8405 69.9708 145.593
31.1424 147.336 97.8916
25.8334 83.0661 149.004
89.2644 56.596 59.2027
47.7622 35.8642 37.1464
89.235 101.754 74.3956
134.411 60.867 40.6689
98.4331 180.124 105.58
140.88 58.7972 34.4848
64.5907 41.1826 63.8774
69.5036 3.98347 233.398
19.0363 158.514 142.839
20.5143 124.931 112.561
22.2858 16.315 241.033
37.0434 127.661 94.8522
39.782 11.0091 237.77
108.786 17.9423 110.462
67.1401 19.0685 229.032
50.0842 39.7367 25.2959
120.466 114.076 97.9105
100.657 74.2288 11.663
42.3403 178.62 164.255
116.739 57.7702 123.605
78.7296 160.399 83.6507
81.8101 7.76903 231.123
121.094 101.553 104.038
77.0148 4.3277 255.078
22.955 165.195 157.685
56.7595 63.4948 236.635
55.0557 49.5005 8.95691
109.71 112.376 156.666
120.75 92.8598 103.953
32.2523 3.47774 16.6853
150.724 7.12724 69.8014
68.1591 48.825 53.8227
45.7908 164.757 96.3325
95.087 13.5148 246.32
85.6605 169.993 87.9486
22.2384 99.4633 143.086
29.5898 142.338 97.5269
83.7154 125.572 182.703
36.9249 117.87 91.7043
92.1119 137.762 80.0457
42.0625 18.1249 232.366
55.1057 45.2717 19.3168
100.493 56.7566 139.71
64.1386 46.9132 75.2608
105.259 167.492 102.926
18.5587 139.753 117.899
118.089 94.0957 140.859
121.707 114.636 131.419
84.9022 186.593 163.902
52.3779 161.312 93.911
115.534 73.2522 7.21879
86.0447 193.146 144.3
67.989 80.1946 70.1765
16.2325 148.542 136.724
71.9026 198.723 147.915
91.8986 69.7201 16.7971
14.8395 141.185 130.22
46.1234 39.9315 32.7949
33.5357 6.64341 27.1118
41.3095 5.68194 253.81
27.2555 124.208 103.892
46.3659 102.599 83.286
146.495 51.7822 36.4851
78.5713 105.28 72.8107
99.2349 90.4212 74.155
162.749 21.9188 6.29363
85.7793 68.0932 22.6951
16.1118 123.391 145.673
90.6415 61.221 253.426
66.813 49.9231 143.247
117.705 142.425 120.155
23.008 96.9549 117.103
51.251 152.486 87.6248
78.2464 136.711 184.317
98.6043 121.254 78.1415
54.6915 57.5906 148.868
22.2826 168.61 144.443
17.2153 146.257 117.812
86.1567 20.1969 119.194
134.344 62.9911 14.5168
164.786 10.2545 29.2502
50.6789 39.2832 13.3394
41.2872 18.8942 25.3399
44.6039 22.1993 15.098
46.1327 69.7126 86.8999
75.2958 155.593 87.0217
70.9441 21.9617 118.327
88.6942 56.4825 155.641
58.0552 65.2553 92.6463
33.8122 175.685 112.855
119.953 109.769 117.615
163.119 2.14708 48.1996
102.68 64.5563 253.891
132.689 62.503 46.6336
65.7743 171.328 175.617
91.5771 19.1206 228.334
45.0789 24.3462 65.0711
23.5078 141.474 105.509
115.632 127.965 151.357
25.9207 61.6006 247.162
27.8244 176.795 118.88
142.785 44.7132 54.7856
117.353 116.052 137.162
65.3411 121.289 73.4139
103.659 15.5768 104.228
80.1547 188.423 164.206
106.554 61.9263 58.7592
73.1267 106.959 74.9255
147.107 23.4513 70.3153
100.14 65.8383 48.189
53.4499 44.7285 40.2577
13.3214 115.507 140.156
21.18 158.459 160.524
100.744 72.2102 26.2653
160.107 27.4662 5.96117
118.042 105.429 142.268
29.5456 2.85206 252.859
65.9693 107.223 71.5661
108.418 163.389 150.787
42.092 57.5064 135.648
23.5951 162.571 112.335
144.515 53.8719 30.1742
119.151 133.585 102.285
96.0305 40.3082 130.76
95.4445 83.3453 165.659
45.6168 71.4521 162.476
29.5437 92.3506 93.7338
161.077 3.98194 6.6214
133.592 62.2492 34.0765
90.7633 124.495 179.495
49.9457 34.9764 1.77577
25.7458 74.7997 123.926
93.0216 12.0395 104.401
52.5153 72.133 252.557
52.6207 52.4848 124.334
110.789 88.8489 142.445
63.7233 50.3515 147.061
39.7302 72.2084 94.1198
18.6295 161.908 151.102
48.5889 100.227 78.4442
105.677 83.5257 162.933
93.7955 136.063 174.24
72.671 47.9056 145.398
59.7805 22.08 229.012
49.4081 5.39076 253.417
18.8409 8.16079 257.85
59.7545 64.4666 72.9567
25.7743 152.917 154.019
121.167 129.787 129.94
23.5988 168.015 116.947
86.089 66.6117 37.3967
120.222 88.2981 119.86
80.7688 185.34 103.437
79.5232 170.338 177.054
66.7869 64.4562 235.75
67.2286 25.5746 224.76
88.4534 135.792 180.259
108.312 68.3531 43.8552
40.0891 3.74683 243.919
60.0991 167.711 89.9877
112.033 86.9342 83.9123
114.741 67.0413 45.5233
25.3537 80.7423 114.872
25.8195 119.582 158.227
51.8388 42.8204 4.95635
59.0503 53.6605 8.03852
71.4859 109.621 70.4143
67.5499 130.654 74.1408
75.5238 118.752 72.4714
98.9502 188.821 129.377
120.81 110.898 103.577
66.145 59.5355 166.915
147.865 49.5762 3.62502
18.9257 2.92293 260.522
37.7074 151.851 93.6212
107.095 41.6247 124.847
114.358 59.1955 242.687
27.2532 96.8235 113.614
53.5925 39.1451 47.1097
151.648 35.0522 40.4933
95.5605 57.2171 147.985
76.3052 39.2664 125.509
43.663 61.6062 116.049
97.7785 176.373 99.553
86.6954 73.8785 70.8134
16.2037 126.145 137.01
76.5337 71.2097 174.159
95.5871 72.5561 10.3388
43.3743 26.9664 4.14825
105.303 147.052 160.074
39.2738 14.2178 15.6769
135.05 63.7144 254.856
60.3332 52.4961 22.0986
48.5343 181.598 108.078
57.2832 50.4982 16.7856
39.6968 49.5966 113.268
83.5321 61.6089 72.1447
76.3491 121.44 184.754
115.744 29.0301 221.65
36.9412 182.726 151.833
78.3352 162.059 179.897
44.0348 35.3263 22.9997
75.5822 80.5942 70.9841
27.2834 107.513 114.48
48.4977 23.8373 77.3271
118.056 136.211 111.884
28.289 79.3756 121.432
154.345 26.1662 42.1134
147.214 29.0119 251.052
57.3836 53.8336 120.788
108.794 165.091 108.273
91.1043 49.7542 143.441
69.0623 180.205 96.1812
105.327 10.4612 235.722
33.2622 2.74276 3.71292
77.4207 196.928 143.481
163.745 7.00887 36.2804
120.986 68.0704 41.5259
154.982 31.9432 35.167
51.2918 16.971 89.0284
37.6684 76.7785 98.6094
56.3086 195.289 123.863
34.2053 152.057 170.607
31.245 136.524 166.678
24.9475 131.188 162.716
76.7079 180.175 170.846
110.808 10.6171 237.463
13.111 121.347 135.821
21.3679 89.2059 111.221
55.4214 32.5658 84.5313
68.6885 13.56 94.5657
135.48 25.1621 235.61
74.0864 132.27 76.4977
98.7287 61.6604 143.632
74.9941 63.3332 20.4103
4.19498 20.8816 255.609
82.5607 61.3758 167.087
109.367 130.068 161.92
20.1648 147.09 147.985
104.57 180.363 112.874
114.035 165.578 135.278
102.532 7.00649 112.768
114.683 154.567 116.983
112.232 5.34957 111.837
23.0689 167.525 122.915
86.63 196.723 126.76
124.743 70.6649 1.84501
58.842 49.5634 139.099
27.5753 79.4234 139.277
109.161 64.2541 53.0939
111.809 169.267 116.843
77.8235 66.7691 6.20393
113.045 170.829 123.637
47.8841 38.1317 41.6494
77.2348 23.3449 223.406
66.9536 167.721 88.7585
65.2476 189.043 166.699
83.3923 51.9744 154.316
57.7977 47.0498 44.1342
56.1587 92.9451 67.1118
71.6747 104.803 181.664
44.4697 12.9702 91.6352
59.261 24.5238 86.171
25.6798 159.316 165.234
70.9063 38.8867 67.6896
37.7938 17.3103 18.4174
89.3877 178.231 164.178
68.0962 166.594 179.856
55.587 80.1744 83.1985
72.9796 20.3298 226.978
61.2682 12.8707 231.945
75.8131 2.48835 247.61
78.1961 12.9193 245.118
127.258 20.4915 240.978
159.674 25.7979 13.3605
115.525 142.269 143.212
48.4841 180.992 166.23
113.92 138.329 150.282
48.9953 76.682 91.2247
102.734 8.60075 242.699
156.717 32.2933 4.57333
54.6633 48.3941 24.4327
157.583 21.8997 34.2782
59.3252 176.427 95.2304
65.7459 36.7359 223.196
152.264 40.5489 12.9543
110.985 5.55395 240.662
50.4001 113.667 180.718
60.9618 200.227 143.679
31.684 5.50424 247.617
51.7806 125.209 179.69
36.0689 59.203 113.944
90.1688 2.60709 249.961
68.0348 54.9604 25.4414
42.8224 153.987 176.182
24.813 151.344 110.215
24.6526 115.057 114.189
40.2599 117.617 82.9098
36.7726 21.8651 25.7277
131.384 67.8379 16.272
112.923 161.94 139.334
102.712 155.719 167.277
20.9903 133.77 154.884
100.241 185.854 119.263
113.483 15.0724 234.35
95.8282 188.18 114.839
111.573 131.851 156.428
45.6755 32.0867 3.42314
116.445 147.896 115.522
3.93417 54.3709 97.3782
62.6117 13.7457 226.136
29.1056 78.0202 105.33
113.124 153.933 106.565
92.7285 170.429 168.357
117.458 108.625 151.108
58.4345 165.656 179.035
145.926 47.9262 42.7324
30.5982 138.586 99.4058
67.0977 42.0993 76.7108
104.286 183.4 128.692
20.5218 166.923 151.827
72.464 44.8465 138.795
70.7211 90.2627 69.8223
84.3853 107.498 71.0774
35.4074 167.195 102.902
57.2621 110.646 183.807
28.0539 15.8208 241.246
149.659 16.6713 70.4744
35.2467 185.264 127.727
75.2679 85.7474 179.234
19.5339 144.485 152.138
12.9344 2.10953 260.976
148.588 22.8111 63.694
62.3556 27.699 76.742
150.814 42.5748 32.5788
117.891 126.245 113.056
64.478 28.208 92.4222
12.6431 27.0201 247.449
69.668 191.642 159.033
80.3528 66.3837 29.6614
94.6917 180.72 156.673
50.6967 164.47 178.975
37.9932 60.9623 144.488
42.1416 25.6963 229.296
63.924 88.1907 73.1178
105.62 162.461 99.6474
81.147 88.383 177.276
42.5312 175.696 103.761
47.0616 66.7465 106.994
93.0617 191.437 141.914
16.0233 163.601 128.697
51.4645 54.9756 139.256
61.9253 45.6376 137.435
34.0682 1.56942 45.9696
69.3172 195.495 118.197
7.9513 27.0317 252.625
78.8962 47.1277 140.761
65.8765 46.3817 136.257
86.0667 54.885 144.859
34.7157 101.824 93.063
53.8726 119.405 77.4723
128.62 9.04729 240.554
17.3892 139.829 151.666
18.0847 148.362 142.167
100.723 40.94 126.287
17.162 12.7638 249.4
51.2741 44.6758 10.8565
27.2952 176.476 150.741
104.336 21.8769 228.222
111.188 148.577 154.714
96.8673 59.725 58.5554
38.7946 72.0853 159.026
40.3608 29.4386 25.4052
30.0721 3.11165 259.825
148.191 40.9373 47.0185
55.9565 182.581 165.759
154.614 15.1518 55.704
93.9397 150.755 174.142
84.9749 66.2884 242.485
18.5621 132.821 143.448
118.949 125.221 95.3118
53.2357 156.974 180.714
43.1923 27.311 19.2476
115.642 71.0162 38.2197
57.771 114.16 180.343
114.186 167.773 128.617
47.6308 35.1756 20.4128
91.2289 181.38 103.108
57.1807 73.3686 94.2231
59.6217 150.055 182.203
56.0158 33.9105 123.705
68.102 151.549 80.9039
38.7484 158.245 98.5842
100.791 71.6869 159.397
25.8507 149.956 164.292
92.3502 43.7583 130.717
66.1719 59.4835 104.441
39.7113 69.2159 100.916
50.245 18.6968 229.147
48.7296 29.6671 10.4518
78.8266 196.5 149.406
166.309 16.4021 3.01153
121.982 118.213 113.665
16.1343 129.707 126.747
57.4226 103.786 73.1453
23.3856 93.0778 107.837
73.7044 57.543 76.9973
72.3411 85.5937 73.8861
41.8422 1.42806 79.8301
74.9033 53.6836 54.3342
113.54 106.83 104.594
146.933 48.4267 29.6781
160.58 6.1266 50.2891
80.4039 2.29366 110.146
71.8283 49.5942 77.789
103.496 48.7543 133.739
24.4463 147.197 105.909
119.118 129.824 138.016
16.1524 160.852 133.551
119.009 112.367 140.668
30.0612 84.1224 155.729
80.0759 180.189 96.9521
74.0558 70.6749 259.438
52.8172 79.2451 87.2437
118.853 77.9724 100.574
50.4713 109.827 75.3519
85.117 68.4824 166.963
31.2536 168.849 164.69
50.6446 60.0877 112.05
119.334 72.4914 118.54
63.3964 46.3596 95.8855
91.2578 121.316 73.9504
151.311 38.8849 29.3573
141.371 61.7749 4.54753
163.914 12.1942 22.0548
32.5762 73.1884 100.017
49.2863 128.107 79.6763
90.9808 184.792 106.813
58.1152 33.4022 68.1057
72.1325 96.9093 72.1642
57.8595 5.83486 261.891
58.6632 87.0217 82.0435
81.0559 38.8864 127.952
117.807 2.55899 111.843
23.397 10.5942 244.853
41.125 64.1088 89.1565
71.8319 133.492 185.983
133.843 15.8073 244.627
104.031 92.9502 164.893
84.5657 48.6002 141.89
26.2862 146.779 158.443
71.5837 189.061 163.296
39.7726 8.92034 249.163
60.5797 16.2631 86.6654
58.5318 72.5523 86.1218
98.7937 137.11 80.7935
82.1086 69.957 70.9006
116.094 155.975 137.935
104.874 103.201 166.358
16.0295 164.652 144.192
5.89437 47.9917 261.873
65.5421 29.5126 221.586
88.0615 163.378 84.9775
91.1016 68.2775 71.1955
146.895 51.3856 9.77851
89.4588 25.8905 121.192
46.659 10.5427 238.059
115.441 148.245 130.872
72.8154 67.1497 174.595
64.0303 53.3189 45.2669
83.9477 42.4808 134.162
68.4092 111.233 184.506
75.5106 7.29325 235.446
36.486 89.7624 166.107
73.8987 181.817 97.5271
69.4227 2.16456 239.776
90.6488 61.669 54.6334
90.5638 67.6392 35.173
123.672 19.8887 235.108
17.094 123.91 126.007
18.857 137.595 157.754
96.5492 30.3874 122.469
62.7383 43.6515 69.3794
61.0896 73.031 256.738
25.3215 140.785 160.583
40.784 92.3997 171.666
39.1302 131.851 89.0518
118.342 88.0858 144.049
24.1907 23.3423 234.841
60.9777 7.8681 100.162
80.8432 99.0701 72.6632
166.546 8.28374 3.80571
45.2134 91.7186 86.0012
122.676 68.1969 34.5336
101.857 169.015 159.738
31.231 83.6119 101.073
105.225 109.44 169.426
15.4479 127.731 144.48
144.907 2.01749 84.5055
92.6526 59.4529 74.6002
120.844 133.387 120.523
19.3556 148.388 121.971
38.6582 4.34554 1.50578
119.5 126.924 118.771
143.52 28.7815 70.1074
73.4202 27.7923 120.411
24.7318 74.5342 131.977
118.251 81.4425 130.722
16.9643 129.942 133.935
88.711 114.142 72.4947
48.7451 28.0026 71.4939
96.1515 56.8962 153.485
63.3115 52.9728 25.038
112.139 174.677 129.883
89.6329 147.322 174.966
91.1964 69.0038 165.332
75.1648 62.6786 2.40098
119.368 125.389 133.904
37.6322 72.1721 261.235
111.787 140.523 155.693
33.8459 63.807 131.755
73.6979 187.493 105.493
104.063 24.0502 113.767
15.3425 163.057 138.581
99.2225 46.4988 132.937
141.019 15.5018 253.093
58.314 65.9869 100.89
135.422 9.36535 256.313
105.219 71.6229 22.1056
99.8729 63.1084 152.867
59.7005 154.853 83.7292
150.152 46.8038 11.5426
71.7894 7.307 100.228
55.1773 45.985 29.3764
102.774 126.019 167.136
154.71 4.00507 62.7898
112.335 107.981 90.9101
107.044 117.557 83.171
74.8725 62.8889 30.5606
60.7314 48.5797 131.503
86.1707 27.4232 125.477
39.717 44.8319 99.9179
98.4761 131.632 78.3298
144.387 10.5929 81.3337
105.447 62.9029 143.113
108.805 95.2665 80.5626
95.5328 192.526 123.064
19.9159 111.634 130.419
83.5687 110.06 75.5621
50.9609 106.31 85.5187
86.7634 57.5232 71.5724
134.652 63.1354 27.107
144.747 21.5885 78.1746
46.1616 54.1663 125.029
87.2668 156.923 84.1542
156.456 25.3932 37.2066
52.0211 86.5607 172.365
92.3736 47.4115 79.7044
62.9193 101.346 69.8838
151.72 4.41499 74.5969
99.8373 169.448 93.9064
79.8802 64.8593 75.0815
87.5872 67.7481 17.4587
87.3582 163.44 173.074
115.66 65.2213 51.027
43.2936 132.015 91.4834
63.9448 158.494 89.212
112.81 162.015 111.687
64.9263 68.6987 90.0295
62.2394 181.106 98.8983
159.749 12.6966 7.80901
94.668 72.544 168.107
125.543 60.0587 57.1534
46.7208 25.9646 105.313
136.368 4.56471 94.4452
96.7242 115.821 174.186
42.7078 99.2395 77.9739
37.2522 126.576 172.352
89.9134 14.7193 231.292
26.7261 172.473 119.276
34.1445 79.6182 94.3813
115.318 26.6816 230.622
86.6492 38.0424 73.4303
121.219 126.603 101.08
44.9201 31.3184 14.7944
32.3179 143.425 171.39
112.222 61.194 131.031
58.7468 51.9064 38.6812
80.5364 86.6015 73.8325
52.1519 176.738 98.6776
95.8385 9.23362 233.143
76.8666 58.6387 164.163
31.1887 105.521 97.8985
115.195 72.146 129.726
47.3627 65.1319 112.929
51.8961 140.559 181.991
87.0481 148.143 180.221
164.601 12.488 14.9443
66.9956 173.71 92.0566
81.9595 67.7626 4.15115
30.4124 114.604 100.509
78.6885 17.5464 233.029
46.625 36.8416 14.4727
55.875 26.5591 80.7486
76.3469 15.8536 227.815
144.418 56.351 24.0755
27.7603 84.8822 107.554
151.126 17.2717 64.0326
101.219 28.3323 88.4641
85.5451 112.894 181.905
29.2665 111.4 96.4257
36.7535 70.4814 96.6094
17.0869 118.978 124.684
24.5858 171.97 150.341
44.0587 22.9423 71.8535
167.902 1.58965 10.8982
92.8498 153.38 84.7866
80.6591 64.0882 18.3605
105.987 65.0941 248.193
149.107 37.7767 260.644
87.6889 186.738 157.96
109.407 11.1827 108.411
60.6161 134.217 185.541
39.1963 120.952 177.133
145.098 38.4605 58.0763
34.6512 2.1606 12.9281
67.4432 62.479 87.1527
24.7314 88.0746 117.828
112.001 172.161 134.843
44.4212 7.84291 259.605
111.191 161.27 118.939
55.4648 45.8202 35.626
22.5389 101.893 126.004
83.2862 10.6827 247.02
165.568 2.36723 33.5528
99.7834 35.1856 123.248
39.5336 17.9099 8.91756
91.9734 19.7868 237.897
103.427 66.6541 260.902
55.5921 146.04 183.337
119.263 69.7975 107.09
77.3217 166.193 85.9772
103.697 30.7194 118.731
100.176 184.559 142.614
98.947 2.86063 243.216
153.173 36.3598 26.1689
120.569 20.7927 241.372
46.0367 110.997 178.631
110.946 158.852 112.749
78.6647 51.6782 72.3476
110.306 91.8039 154.072
151.254 26.2008 59.6315
31.123 131.666 168.87
27.6365 108.942 105.459
101.508 18.704 224.406
60.8774 70.8998 98.7638
164.094 6.53153 11.1804
112.034 17.4777 228.48
101.02 84.1742 74.2145
101.984 57.3077 235.767
145.458 53.9869 19.7972
100.827 10.6698 110.964
98.2531 162.434 165.482
115.16 85.3989 91.8762
83.9925 50.5629 227.427
105.271 169.73 143.1
87.3464 178.136 96.7279
53.5344 158.776 89.1866
114.281 135.717 98.0448
68.5823 45.0679 225.166
132.636 54.5987 248.493
149.776 4.25016 80.5104
44.2573 24.5118 78.3859
64.1848 35.1871 75.4578
20.7696 105.106 118.345
166.782 5.70536 20.9402
160.653 3.04371 21.838
98.4808 71.4035 19.7554
19.8051 145.708 112.66
73.8207 57.9085 19.5653
43.0324 20.7809 80.6994
83.2974 47.793 146.767
99.8994 16.4456 231.966
87.5528 13.2987 236.097
11.1505 95.3827 108.956
58.6623 177.964 171.864
66.965 98.2938 71.0164
112.131 164.588 126.804
110.944 75.0356 11.0373
50.4579 41.6532 29.4481
101.589 60.1655 148.156
149.584 12.8089 76.2131
52.798 48.9376 135.146
111.22 165.109 121.575
15.0998 118.212 144.614
121.781 108.255 130.151
104.487 132.01 167.645
58.3727 51.6466 30.1775
85.3154 65.4728 262.041
40.6481 55.1041 125.184
158.019 22.1531 2.28126
42.5583 23.2005 8.11344
66.8886 159.009 180.769
106.237 171.591 138.906
49.0206 97.5288 178.156
21.8822 103.17 110.621
121.153 129.342 123.934
58.3861 89.8171 77.3351
32.6616 15.1143 236.732
73.3755 45.5081 130.763
136.48 35.6103 240.41
53.1368 119.374 182.766
73.5954 162.581 178.946
59.3753 18.6053 92.624
96.1246 19.2357 232.296
28.7568 96.239 99.7939
118.531 147.596 124.183
93.7888 177.641 160.86
114.963 151.88 146.397
135.338 36.2747 234.523
33.8179 124.396 97.0521
40.771 88.7992 86.4193
108.903 68.6605 142.061
84.1104 3.22375 249.242
94.5273 60.9563 157.704
73.8241 61.5867 234.952
96.1089 52.0197 64.7353
58.743 145.811 79.82
91.7353 69.4989 39.0558
96.3904 63.8624 160.988
134.897 67.7518 260.188
72.8955 32.9428 224.529
155.806 29.9941 29.047
136.36 16.5748 254.51
77.811 56.6344 72.9388
49.582 86.8167 83.3218
74.4778 64.4861 7.84076
80.9401 58.5434 232.283
104.875 96.2873 160.657
145.224 29.7313 64.2597
66.7814 181.036 170.731
6.65114 25.0106 245.444
94.7447 71.6407 24.1011
40.1745 3.96494 260.737
18.0044 119.711 131.828
21.8202 99.1845 132.009
146.988 32.9328 56.6249
87.2285 44.4707 69.6646
53.106 194.441 126.594
146.301 49.6131 17.9265
95.4429 18.0118 103.694
113.458 99.5071 154.109
120.341 135.849 132.908
102.488 148.42 169.661
92.1473 52.9433 75.7535
59.743 7.57044 251.394
107.504 170.87 114.386
92.0326 161.506 89.95
111.64 176.214 120.736
35.5494 4.69389 259.988
21.7221 103.656 150.242
158.435 25.7607 27.6717
140.727 61.0378 258.524
31.9752 123.39 170.466
72.9138 45.2126 124.305
105.461 89.6917 78.8885
50.6062 23.6081 83.8697
59.8555 30.6652 71.7238
127.778 31.0356 245.225
63.3458 55.707 31.484
45.5983 130.604 85.1997
97.8286 145.4 84.8962
103.116 63.8437 55.368
90.433 71.8057 109.114
95.9825 1.68322 112.739
113.117 148.581 139.298
155.67 36.4852 8.31374
120.332 139.296 110.775
36.9593 134.889 173.938
77.6314 70.3733 247.235
54.5246 134.273 77.6373
39.8048 7.38312 5.57495
24.8938 153.318 166.239
79.1782 174.982 92.8122
78.7538 7.40908 249.647
123.738 62.6055 51.3417
91.9376 19.6794 115.922
133.328 30.4128 243.321
17.1617 157.27 152.041
68.589 42.0421 140.427
100.989 116.659 82.4493
140.928 25.9591 79.2222
121.648 8.64839 237.493
93.7515 2.79521 243.597
77.1889 43.9774 74.4427
117.479 100.375 92.975
166.062 6.41946 27.8878
70.9863 47.76 104.456
73.1097 64.3262 171.233
106.068 76.4322 154.469
63.876 56.7043 38.9919
33.9418 64.964 140.139
150.45 41.7763 2.38613
96.0116 26.0809 224.572
34.7343 89.1015 100.111
29.5762 80.9545 117.458
77.3015 197.433 138.702
120.035 95.3052 96.6761
50.3068 31.9872 74.2141
117.623 141.865 136.164
129.029 25.4591 240.679
153.581 11.7326 60.3974
145.882 24.4339 261.962
47.037 113.783 88.2069
99.6849 76.2334 73.1013
23.8533 84.6616 139.745
104.819 159.179 92.4827
106.051 67.9396 148.496
15.2206 134.928 127.134
121.657 117.699 120.983
100.374 51.3524 137.93
133.587 59.4455 245.506
87.8147 8.68996 245.208
92.4306 70.4884 7.22621
84.0746 19.7027 226.35
96.1671 191.382 137.153
92.749 32.8502 80.2087
55.3198 33.6391 77.3605
106.738 81.6264 158.047
23.3209 108.729 108.414
102.29 69.5737 154.357
160.713 25.9233 23.9235
137.567 54.6882 54.3057
114.395 69.674 259.922
105.097 54.9714 230.995
80.1834 62.0066 48.1707
63.1957 67.3955 241.757
105.823 183.173 136.618
133.384 13.1697 252.411
59.5586 72.7986 261.072
69.9054 11.939 108.858
60.8788 78.5158 84.6549
125.997 32.6803 230.443
35.9756 1.50677 8.19786
112.733 122.732 157.417
114.419 92.991 87.8931
118.932 131.193 114.635
135.111 58.884 251.88
91.9496 194.853 128.987
64.4837 73.6814 84.5255
48.1841 169.508 97.0842
117.192 8.64347 107.523
40.1891 122.642 86.9905
91.1802 16.2104 243.09
159.717 19.6024 29.2018
95.0778 128.19 176.895
122.393 6.26969 246.684
99.2814 127.538 171.735
125.473 15.1606 249.517
77.6556 51.0378 155.24
157.842 6.3533 56.8549
37.9587 174.18 165.931
53.4619 168.218 91.323
57.8597 67.1983 105.755
141.73 56.7751 41.865
166.021 15.2887 9.75866
79.984 13.9584 239.176
140.367 6.40785 89.4669
37.2517 60.137 127.024
14.4424 116.563 135.306
115.251 117.424 150.515
131.245 21.6048 250.653
143.017 49.416 49.0343
155.37 20.0566 55.451
85.0689 66.1543 9.51308
149.139 44.0068 6.89239
134.899 66.1147 4.70978
76.721 35.0132 76.2676
8.96055 39.0162 52.4756
68.9226 119.128 186.69
78.2756 64.4147 171.155
96.3001 65.9584 73.1585
117.446 82.5502 97.0629
3.55573 60.639 96.2923
115.964 78.3473 134.474
80.2741 65.5391 11.7843
26.1966 102.135 106.276
100.072 100.366 171.454
53.8681 22.4531 78.4491
121.645 12.3813 231.408
129.305 7.48848 106.621
110.731 121.513 161.934
158.666 27.3312 1.37989
72.9865 65.3931 242.174
142.506 33.4161 67.5098
151.667 10.7798 66.0714
113.543 60.0857 61.9495
154.391 37.5444 1.60263
111.313 159.778 129.036
124.391 33.6542 222.836
81.7402 7.12609 261.062
87.4544 144.902 82.8314
167.025 1.52633 27.8068
89.6214 61.4679 49.7954
110.726 62.892 248.084
100.127 58.5462 247.047
67.2038 185.429 170.443
111.564 140.252 94.3861
77.453 2.58088 240.791
74.3231 36.4109 221.215
110.85 129.379 90.3038
20.0297 109.258 122.978
139.681 31.9583 255.247
99.3054 144.271 170.518
147.225 25.8657 257.205
20.7404 161.545 119.67
120.56 2.74774 257.012
6.0281 22.668 262.111
133.868 38.7352 245.128
54.513 45.6799 1.13905
147.607 46.7584 254.976
87.6414 36.4561 78.5438
34.0383 131.924 96.0994
135.574 23.9041 248.088
129.059 54.9865 239.368
114.942 151.985 137.347
128.047 2.06457 259.728
64.7674 57.5333 34.55
116.442 71.0882 95.446
107.434 83.538 152.38
90.0322 2.0087 240.999
90.4838 148.18 80.9707
143.224 16.0165 83.128
33.5308 1.22433 39.193
108.861 56.0249 238.743
140.367 29.4381 249.071
10.6862 63.6875 262.185
112.404 45.2356 121.527
31.0123 127.165 104.931
90.7969 9.50737 234.145
80.8771 26.53 226.91
84.1213 50.2522 75.1232
104.819 138.031 84.8633
92.7191 6.5449 258.483
120.483 52.871 233.153
140.517 25.3973 258.281
101.668 7.58901 252.128
88.1222 195.022 137.936
51.9915 60.3782 118.625
95.8786 60.8408 239.531
92.3908 194.247 136.688
102.818 55.4122 63.4008
93.8546 64.1565 246.909
143.324 34.7033 244.202
48.0935 158.63 91.0857
39.6263 24.5732 18.0338
111.411 71.948 147.716
119.579 71.2437 247.946
113.588 74.1887 140.291
134.266 3.93785 261.413
112.236 77.6365 146.158
108.345 155.23 99.9128
115.247 156.267 125.136
112.463 32.3972 110.985
159.149 6.83317 1.28494
129.914 60.2233 52.5404
21.3198 113.691 122.307
117.408 117.336 95.5345
61.1721 197.796 151.417
143.109 53.617 1.39094
37.5839 106.438 172.907
114.994 160.672 132.904
90.9285 16.0962 97.5372
143.57 27.903 74.224
115.619 116.904 154.586
21.1233 161.636 125.051
21.238 153.086 156.259
113.586 52.3014 124.603
44.1074 111.718 77.5894
116.34 63.3142 128.815
116.687 46.8689 117.632
115.462 152.719 127.131
67.3291 84.148 71.8086
130.34 1.98173 249.952
144.483 57.186 3.26666
110.749 29.4374 225.597
122.496 65.5655 244.842
109.204 88.0123 148.535
111.712 101.483 87.2903
72.6425 145.617 185.053
100.445 63.9202 242.146
63.1451 182.13 171.877
96.9503 1.54832 260.228
142.986 36.7378 62.2638
117.736 19.0057 235.586
46.3489 36.0883 105.144
72.3804 33.1753 75.3376
107.861 123.995 82.313
68.8078 1.41666 254.916
142.771 35.3252 251.734
