ply
format ascii 1.0
comment Created by Open3D
element vertex 200
property double x
property double y
property double z
end_header
6.3668 140.677 125.284
18.9081 134.731 108.368
11.8724 130.562 108.124
14.6369 151.54 120.976
4.12663 130 129.893
23.8644 92.4467 84.9059
23.0985 158.335 124.608
11.017 110.093 88.5224
24.6741 100.265 80.2144
11.529 137.892 112.293
16.0811 122.483 108.042
24.1186 103.099 115.337
7.83234 145.562 131.149
10.561 104.202 85.6421
6.00266 126.473 136.326
3.64778 127.703 116.031
13.2516 125.493 145.919
12.8123 111.395 103.093
31.8857 160.381 123.341
23.8946 116.478 80.9643
46.4055 143.59 145.221
8.98194 119.4 137.105
42.172 151.666 144.547
19.0588 102.795 129.444
44.7369 148.435 114.828
36.0862 157.462 117.162
5.38859 132.939 137.252
19.9108 128.573 102.771
34.7392 151.418 110.811
17.8468 150.545 145.149
55.2194 128.289 127.189
50.0796 145.509 120.931
53.4353 132.525 139.074
12.0176 150.175 133.034
31.6906 101.726 83.4285
24.7717 97.1506 93.6483
7.08991 142.533 138.517
31.051 140.131 153.613
24.755 110.838 82.3768
18.6997 88.8936 91.5252
18.1336 100.269 80.4744
14.7103 113.665 84.0299
18.962 151.58 115.685
11.934 136.863 146.658
55.3089 136.412 131.327
9.8548 120.086 99.7285
4.35408 115.486 98.7958
30.5722 90.9751 89.9357
8.7833 123.196 106.868
31.1477 111.561 83.1289
45.3998 130.161 145.737
15.3994 97.8708 112.831
17.5417 107.705 81.9855
9.6204 96.932 106.134
15.0389 153.783 137.3
28.0227 161.875 129.792
15.8208 94.5479 91.7418
35.3913 107.729 135.681
18.087 146.156 110.562
39.0058 160.828 124.04
13.0007 99.4635 97.8414
8.90153 105.94 94.187
42.509 116.999 141.125
17.7048 158.219 130.532
6.4706 138.595 141.922
23.4028 118.803 89.6873
51.8261 153.75 135.202
8.493 103.017 110.147
19.228 144.875 150.062
36.1441 104.71 128.414
21.3498 129.795 151.974
52.5939 148.969 127.174
33.9593 154.607 145.359
49.6295 126.284 142.623
55.8369 139.707 125.247
5.13513 110.478 117.407
50.7767 150.67 141.808
8.48245 114.226 94.7863
28.1107 112.163 110.456
6.56707 110.551 103.102
25.8111 105.629 134.948
11.303 114.558 112.524
10.1823 108.301 125.38
21.3271 90.3323 99.6292
27.4991 106.013 80.2312
13.2123 115.544 91.0387
15.6654 86.0125 98.1643
50.2669 155.194 128.647
28.4232 156.766 117.011
15.3234 95.22 101.676
23.7309 138.318 153.332
3.45523 120.567 119.686
40.7471 158.796 140.256
29.0932 117.455 89.1088
15.6158 108.923 99.4254
25.3268 151.756 111.449
28.602 149.534 149.448
52.6233 145.973 137.75
28.0157 156.631 145.031
31.1296 90.5018 104.621
33.2564 106.901 86.7186
28.9499 112.888 141.799
23.3954 125.734 99.0257
34.186 116.535 144.397
37.5193 161.56 131.866
32.0659 112.623 90.7535
27.3412 145.843 107.634
51.281 113.164 135.627
17.1463 138.637 150.243
51.0256 138.618 142.626
22.8774 106.028 108.876
6.92834 99.5772 97.9684
26.7985 161.909 137.69
28.8521 128.455 153.667
4.31071 135.974 113.091
28.1983 140.012 105.075
50.015 137.223 137.165
32.7966 161.118 138.052
55.9305 139.309 138.183
54.0163 144.546 130.606
22.3824 118.633 98.3063
44.6127 154.093 121.98
10.5271 105.949 119.094
45.3606 117.364 109.878
20.2629 118.596 146.12
26.1009 116.692 105.945
44.1404 129.283 115.534
35.7555 122.658 150.238
46.7451 108.79 127.179
10.794 95.3882 86.4048
18.1649 104.364 105.243
34.1142 113.43 110.066
25.6987 89.3204 94.1864
20.5117 91.135 111.134
46.2124 124.037 117.376
7.71843 105.069 101.747
48.1073 120.872 136.211
16.0012 116.702 98.7361
12.9242 101.68 93.0669
32.8965 94.4066 100.072
34.9085 105.255 122.102
44.4673 141.832 111.558
17.8812 117.665 86.2454
19.5396 110.087 113.207
34.2261 106.64 115.13
2.51758 113.112 112.537
34.1829 117.864 104.807
22.1941 94.3835 107.303
11.0756 112.192 135.002
13.8997 92.0692 107.331
23.1788 85.5336 104.843
14.2519 101.363 83.1013
7.12763 125.142 112.532
21.8471 161.007 134.566
34.3843 102.64 99.4357
39.0419 131.413 102.483
42.7801 135.061 106.684
15.3696 112.61 139.774
20.8208 113.065 108.988
49.063 112.309 116.905
25.6434 95.8455 103.41
22.2306 157.107 143.189
36.1247 143.582 105.265
41.8432 107.854 120.812
34.8505 98.9233 93.4271
9.10172 96.1759 99.7933
29.1674 104.075 120.995
34.7469 103.697 91.7387
30.0863 126.874 149.434
38.5746 134.325 150.955
50.7384 120.921 126.091
42.202 112.704 117.057
12.6748 107.118 131.773
38.5564 143.683 150.519
49.9434 119.102 130.317
52.9864 125.222 136.368
43.572 166.143 133.259
30.3557 98.1816 103.159
34.7919 111.293 95.3782
55.4615 121.548 120.338
31.6279 96.1013 95.5067
27.8069 94.1701 99.5153
6.85884 117.823 111.624
56.6939 127.021 113.791
44.4472 159.853 126.973
44.296 111.081 135.579
32.9 128.558 109.553
34.4717 98.4246 87.6807
40.5334 114.495 109.275
7.93167 118.138 123.515
42.8117 126.36 110.172
25.5645 107.381 119.19
5.14377 218.125 125.252
28.2095 101.611 105.507
45.7443 128.047 103.053
29.2575 94.0128 85.4287
50.7115 113.678 125.584
8.12353 85.3432 99.9822
38.9522 109.534 110.47
7.2702 113.221 164.037
