ply
format ascii 1.0
comment Created by Open3D
element vertex 114
property double x
property double y
property double z
end_header
14.1109 140.882 125.054
24.9372 123.738 115.451
30.9974 138.169 115.953
13.9224 112.849 120.61
13.1161 38.0336 180.867
13.5871 119.727 114.521
9.38784 20.4546 232.117
19.1973 69.1148 43.518
13.9193 137.212 48.5594
9.0941 4.63669 114.833
28.5738 63.749 143.708
10.7471 69.2987 32.6398
24.4852 7.91653 129.724
9.68643 107.619 110.732
9.35191 64.5228 48.166
9.68928 72.725 68.9211
9.45784 62.8985 241.074
11.5527 138.594 55.3289
20.4579 121.937 135.071
9.45251 40.0499 225.087
10.1036 61.7476 42.2235
9.39006 48.1453 10.4982
16.8152 22.3628 189.947
37.7145 127.331 123.307
11.4804 50.3318 151.088
14.539 15.1857 183.772
10.4311 181.747 41.508
9.84401 107.995 175.879
9.7349 102.356 65.8527
9.93409 120.394 61.4022
10.6748 129.121 135.132
21.8795 109.103 124.464
39.5631 114.404 111.592
8.99013 96.9418 214.193
24.9657 6.63571 156.909
9.17393 38.9229 49.7826
9.27309 71.756 47.9974
9.49864 94.2576 138.135
10.6394 214.452 57.0798
15.6583 38.7978 169.394
23.8089 143.269 113.591
8.84487 58.7109 150.182
9.68507 40.9459 3.10128
26.2267 3.62758 169.692
9.1965 42.8593 126.834
9.55476 37.7697 252.599
13.1927 148.139 48.6706
11.8107 26.1607 181.604
27.9496 144.629 124.038
26.4553 20.3916 150.177
11.352 101.931 157.366
15.2003 3.40543 157.817
15.7786 127.17 139.241
8.95964 58.8741 136.662
10.121 119.116 137.719
18.8855 60.2212 148.777
9.89563 104.696 184.405
10.652 59.1181 12.1344
12.5297 111.175 138.562
14.4406 129.736 115.42
8.78932 91.8944 173.686
19.7463 3.58981 161.677
9.0084 80.1829 69.079
31.2346 6.4204 162.24
39.0399 112.502 118.439
36.7937 106.961 130.436
9.22476 36.7098 89.2822
31.0546 13.6008 153.272
9.76082 117.48 178.83
9.2126 39.5841 212.343
9.94595 127.302 35.9759
15.2025 163.908 57.4048
9.45605 87.5027 2.84756
8.98037 36.2813 56.6823
10.3913 127.788 121.533
36.9631 2.66446 151.062
9.22053 77.4084 33.8097
9.52493 101.251 195.226
26.1403 5.03352 150.676
9.04765 101.443 147.593
8.86835 79.8994 98.4806
10.8393 158.791 260.332
16.1843 117.706 141.98
15.9018 145.575 117.63
10.9867 66.3097 208.894
18.985 16.5094 191.155
16.3472 115.123 133.116
20.0597 29.6568 154.027
15.7102 1.49805 168.841
10.5044 141.214 11.5212
34.351 140.22 124.849
27.435 109.265 131.197
9.33599 46.5114 3.18005
32.0395 1.45108 170.621
36.9329 4.22083 168.221
8.94577 33.0389 96.9549
19.0923 36.1534 172.393
9.96107 70.8531 157.122
9.81093 127.695 58.1271
21.5682 107.028 132.741
16.8756 1.30665 151.077
14.4562 107.553 131.063
20.0245 146.474 121.665
10.8722 134.511 8.39172
43.06 136.922 125.203
27.4544 2.26481 144.858
42.4052 126.996 134.703
20.5896 161.221 57.7408
9.51925 114.318 172.541
37.5872 108.914 126.981
35.4473 10.3888 151.488
28.3681 73.6869 4.64347
28.6429 87.5349 12.2434
39.3894 1.30318 156.347
