ply
format ascii 1.0
comment Created by Open3D
element vertex 165
property double x
property double y
property double z
end_header
20.0341 68.1683 239.905
6.98943 18.8617 177.397
3.68838 70.2793 216.459
4.07582 6.33797 164.387
5.86001 166.139 87.7005
17.7327 6.49831 241.121
5.14662 59.4166 148.013
4.03721 123.803 218.635
26.9911 39.8142 198.997
5.53784 16.4285 184.412
11.9315 62.535 133.466
13.2719 89.2852 232.444
4.79883 65.2056 114.794
13.1754 116.964 135.322
11.5392 158.482 109.762
4.69065 142.257 136.425
5.41502 53.3695 100.042
9.09895 15.8814 165.867
3.87222 209.492 256.886
12.4188 105.483 111.915
11.7093 120.098 142.932
12.9513 26.4785 62.6838
3.93106 115.847 147.311
12.6934 126.684 123.747
3.41047 167.173 139.928
4.81614 38.6125 234.29
3.5995 59.1556 252.855
5.45524 209.777 222.513
14.4229 40.1491 226.617
6.76977 110.553 145.762
15.3753 151.232 106.993
2.61691 80.4976 153.711
7.48516 148.943 113.928
2.88065 125.277 140.928
16.7673 218.173 136.261
4.0795 119.638 36.1797
3.62411 141.164 260.018
24.7449 8.95165 168.734
28.3385 37.7921 219.576
7.81687 78.7201 58.1633
20.7715 4.03895 259.747
21.0405 92.1131 230.15
13.623 139.701 135.594
15.1845 17.0679 219.795
3.54565 138.635 110.871
6.06507 115.497 128.024
8.50952 42.6173 241.856
3.17028 9.81412 66.2592
5.12646 139.707 119.899
3.36182 152.254 241.171
4.62494 131.303 201.904
20.6005 72.1959 254.419
12.8992 214.896 50.9803
3.61866 115.398 134.486
3.40702 178.325 239.699
4.25837 2.98403 261.403
7.01369 218.602 28.0578
7.45127 87.8101 143.227
9.94903 204.91 68.6687
8.34663 96.4729 9.97093
10.2184 179.981 20.8007
4.16888 56.9363 135.622
27.212 40.6609 226.862
6.89615 126.549 117.514
13.4127 43.6934 233.52
7.53212 36.9524 63.6632
3.64423 113.257 85.9347
16.9624 127.225 110.14
9.09594 42.3591 220.319
3.46886 58.5214 184.925
2.53756 68.4307 67.912
20.4449 26.3271 226.766
5.96374 69.5486 149.036
13.9713 100.728 222.568
4.60774 102.871 135.894
3.81532 64.0108 3.24989
5.1948 213.818 8.29656
16.2541 184.435 104.999
2.86831 125.284 151.528
19.5347 79.0172 228.231
16.2168 126.487 133.201
3.19008 168.081 233.779
3.12585 107.192 43.2109
2.23205 35.0541 258.546
4.80558 109.596 50.8308
21.1809 191.851 91.3174
6.01211 127.725 261.369
2.74345 88.2577 120.007
8.41062 126.565 145.979
6.09081 131.866 257.901
3.12509 168.233 244.295
12.7651 137.082 100.436
8.89761 29.9094 257.944
3.34008 120.235 20.8651
11.3519 218.611 45.1182
4.39512 30.6901 48.5537
12.015 73.8127 250.179
15.5884 44.9859 245.957
10.7209 88.5351 218.978
5.28487 188.708 91.7929
4.04052 209.788 63.91
9.14698 159.385 147.629
14.282 174.131 24.4507
7.30495 57.9599 70.2279
2.21598 5.81045 124.151
16.6581 51.3644 246.122
2.93856 122.843 121.176
3.06129 23.0132 64.7479
22.9075 52.86 215.504
9.08418 207.422 58.7825
7.35568 161.099 141.081
19.8948 41.476 235.842
5.97628 63.2852 121.992
7.25 66.2882 179.272
11.5931 68.5563 218.783
5.27889 22.1834 243.199
4.12325 179.519 64.5897
9.89098 172.574 29.7524
6.24447 109.97 139.448
8.19491 63.8147 219.243
4.06528 157.642 54.2217
30.2123 107.157 226.911
5.83043 26.619 7.80023
2.21605 94.0039 122.767
13.8044 183.933 32.6158
18.1116 21.495 180.023
3.3202 66.6092 58.7399
12.096 146.912 127.254
2.36238 103.393 196.911
3.40295 32.5327 19.8749
2.57533 130.36 130.962
7.70796 72.9962 57.3501
22.0485 34.3547 194.459
27.9848 101.146 230.035
3.49209 127.48 89.8312
2.76139 37.1143 98.3736
23.6512 91.0965 225.243
30.35 1.82375 257.535
2.54087 102.51 89.3561
10.8699 179.383 95.5348
3.22461 9.87416 185.671
28.3527 23.3632 176.078
6.72887 86.9835 223.788
23.3415 134.627 107.473
5.73282 216.943 243.151
6.49661 162.487 82.4566
2.31237 112.08 91.2806
20.4931 36.8369 236.334
5.56369 61.9608 186.877
8.34004 76.3123 245.609
7.72662 97.1293 226.417
11.5942 133.807 142.164
3.89314 153.731 47.6581
2.52356 101.319 48.2248
2.27656 104.696 204.302
7.09835 24.3647 224.274
23.6486 131.712 109.777
21.641 31.2205 200.324
3.30393 27.4181 225.893
6.30045 137.424 202.126
3.65775 121.573 32.5181
12.6023 180.675 105.969
3.05788 43.1279 93.1354
2.07324 2.10602 129.469
3.64445 202.092 65.0848
