ply
format ascii 1.0
comment Created by Open3D
element vertex 763
property double x
property double y
property double z
end_header
45.4254 50.6941 150.387
12.9463 135.606 147.87
14.3132 58.7451 173.624
18.3124 41.9632 163.351
18.8703 52.921 90.6978
16.2096 54.3309 69.6534
48.8558 55.8079 159.042
18.8164 84.9813 133.287
17.451 49.4863 175.508
54.272 68.8975 170.065
10.822 71.231 68.4456
18.9507 105.973 195.674
21.539 30.4516 161.568
35.9258 47.0534 131.144
13.4832 42.368 144.726
27.5174 150.463 93.0429
13.0003 24.0082 147.643
14.4731 62.4693 57.7259
20.0401 40.4044 143.374
12.7668 62.0934 73.3461
14.0626 35.4636 169.803
36.6475 45.035 158.3
15.8939 73.9279 56.9942
10.4913 64.6032 104.97
25.6275 33.5072 90.1926
21.417 143.844 90.4911
13.5847 32.2098 162.724
13.0268 78.8315 207.61
15.1805 29.3425 129.317
38.2048 80.0593 159.718
34.1831 150.861 125.276
36.2212 100.932 121.084
13.131 70.7799 76.145
13.5911 47.2331 95.8266
12.0864 129.766 90.217
21.0411 69.461 174.831
46.7343 62.4999 151.952
12.3357 98.2502 87.8497
11.2788 64.9196 80.9229
41.848 44.0731 154.316
10.8833 111.348 165.738
19.1767 146.765 85.8026
25.5334 91.905 97.8528
10.6456 151.36 133.331
35.1927 55.178 135.712
11.3712 98.7717 99.5381
27.4013 163.173 169.978
10.9484 50.3766 100.019
10.2445 31.5941 155.734
12.9079 112.443 185.958
18.8849 58.0987 81.7372
23.4151 81.2144 114.08
12.5087 41.7854 106.668
36.0678 153.678 132.289
11.3842 137.419 105.9
20.2558 101.098 256.644
31.5273 69.0944 158.098
35.0273 67.0655 170.893
11.0039 153.688 109.082
33.8911 100.466 104.242
17.5698 52.9094 167.508
31.8285 123.576 186.244
16.4624 45.8318 115.248
12.1485 152.271 101.395
41.6132 115.947 81.261
33.7442 73.7694 111.339
9.817 47.1308 214.03
12.4584 23.2114 140.644
19.2205 132.367 160.734
10.6135 58.6162 213.847
43.9712 91.6712 154.886
14.3464 45.8025 160.289
11.4649 33.8529 120.094
35.7605 86.9404 186.618
16.0363 25.652 193.953
17.8992 41.4441 75.5793
13.3285 58.9125 95.6999
29.43 51.9411 123.842
12.9142 97.7873 78.2978
11.3731 133.901 128.623
12.6291 72.2237 114.63
11.2984 103.225 199.039
10.6024 87.1694 188.847
20.8386 76.5748 200.971
14.2629 49.0817 108.385
11.2629 51.6487 77.1352
22.2359 123.601 183.899
19.8987 159.968 176.526
25.9759 65.4346 99.9472
35.7258 39.3328 148.534
12.1752 75.0702 61.5884
30.1894 78.041 154.331
11.9598 65.6493 88.0365
15.1742 80.3103 51.5578
27.8533 134.239 111.398
37.2047 111.272 118.872
19.5899 99.5676 77.0594
39.8732 64.9297 148.882
18.1851 153.116 95.1818
23.3558 97.9101 199.186
16.7564 19.4613 120.177
14.8723 42.3985 127.186
56.4342 81.8495 129.913
11.7507 110.81 104.747
10.7451 39.2786 209.802
22.9999 46.372 171.983
34.9945 91.2698 116.788
37.1174 74.466 150.395
32.2733 134.021 77.7865
36.857 78.3531 135.466
16.0425 46.1085 81.9304
26.1038 72.8751 98.4015
16.1954 78.6707 164.589
13.9832 57.9703 184.967
40.6205 128.945 165.883
45.4993 140.615 157.342
12.0875 27.688 187.603
14.9637 154.206 151.863
16.847 31.2645 173.854
34.6282 79.645 170.038
36.0619 98.1459 255.904
10.6931 97.4323 113.229
28.0691 31.6343 145.689
19.3607 87.8158 204.06
46.9209 57.4949 145.675
19.9007 39.3012 90.2626
12.4301 72.6137 203.331
17.1226 39.3169 202.714
43.3285 61.8518 128.287
10.8984 123.386 95.8187
43.0799 81.6578 148.204
20.778 71.4243 112.016
15.9893 32.2143 89.3276
31.9381 95.0396 173.401
30.7975 89.1555 83.4389
32.1326 36.8018 141.648
40.4412 70.2328 136.584
9.98747 111.529 126.328
37.232 142.764 102.45
17.5953 137.266 92.4065
29.6845 112.039 69.8142
37.4278 106.486 127.174
10.9987 43.527 204.306
18.884 81.7607 64.6101
11.18 73.69 83.9919
10.8943 135.026 169.861
12.0818 55.2289 90.0894
26.1733 152.553 173.78
11.7246 125.727 83.3972
17.513 145.732 120.685
12.8725 17.8454 156.087
10.9771 90.2901 258.4
40.0409 86.3433 122.228
19.6035 165.131 139.115
37.8234 117.117 130.662
26.8739 33.3193 154.724
24.4579 161.133 135.311
10.7395 92.6468 91.6058
36.2743 127.426 150.707
11.2212 102.514 122.773
41.5995 123.022 160.646
29.8405 39.0467 129.406
11.1011 52.3309 208.064
68.0202 114.101 154.265
23.7556 161.574 144.485
13.0759 90.3448 161.54
37.5267 106.159 172.475
11.6524 82.5513 74.7827
40.105 133.293 172.287
11.783 106.855 98.7748
9.8847 104.841 168.956
33.0064 99.5826 156.44
16.2671 48.5909 75.7899
46.1365 87.6356 172.609
13.9293 44.7364 196.308
25.1997 131.908 80.6876
11.9969 109.307 133.555
16.0891 172.525 144.86
19.9752 24.2239 113.34
10.6242 11.4494 130.711
24.9729 103.995 71.5159
34.0569 61.1501 128.045
12.281 66.1711 121.875
25.8302 46.782 142.417
26.9445 129.456 178.413
24.284 85.6272 126.028
26.0222 139.704 172.336
49.3356 143.216 126.256
19.6262 49.8625 143.268
20.9735 37.5872 82.4693
19.7685 28.0381 151.412
31.9811 145.086 120.445
36.472 93.1067 178.113
27.7792 73.3346 168.835
16.3112 73.3852 176.877
30.1458 142.04 87.1473
44.0712 97.5505 163.706
44.7538 86.3652 92.8659
12.4166 133.664 96.8027
38.0431 62.0206 156.528
11.5607 159.535 152.874
41.3028 87.4813 163.265
10.2842 83.5634 99.8982
13.3517 150.691 84.1316
26.5971 86.5604 109.908
28.1972 154.306 110.939
24.0449 138.524 83.6541
20.2595 92.373 138.229
22.8043 39.729 148.994
33.6874 119.464 147.663
20.8802 140.598 76.417
19.4454 164.136 163.152
42.2847 157.804 177.864
18.123 112.718 68.46
34.4543 99.0448 179.066
44.3269 149.282 123.151
21.8038 70.2499 156.964
11.6522 93.2898 172.388
21.6693 133.404 171.947
20.0341 29.9857 95.8295
11.2691 38.8065 176.326
45.9139 81.193 103.119
26.001 144.079 158.214
37.636 55.7473 126.875
52.3847 71.9304 131.878
44.7069 104.497 153.819
14.8026 77.1423 185.042
10.4273 118.239 156.908
10.5655 106.031 70.7425
11.7255 83.564 114.422
38.5257 145.091 110.22
40.3953 114.409 161.164
12.3621 65.6531 67.6057
15.0839 79.8516 140.832
30.4807 58.302 118.866
17.2177 49.8705 156.687
32.8334 92.708 106.494
38.5698 104.15 116.413
27.6885 147.251 125.679
46.9781 85.3611 140.908
11.9545 36.2125 189.014
23.7525 121.411 190.255
35.7495 53.0601 149.58
10.4559 80.1029 156.56
26.1496 45.2647 126.056
32.3034 146.371 159.99
29.7673 59.9309 164.107
27.4848 97.2308 70.9604
10.2771 119.339 120.765
12.0218 100.141 154.295
20.6107 73.4673 101.796
57.3134 96.5501 146.33
10.3401 123.881 155.425
49.0035 80.2152 166.899
37.894 116.346 154.61
19.4679 72.8506 168.759
11.4505 141.211 87.7938
21.1489 102.647 154.57
36.6796 110.101 132.429
42.3494 155.878 200.769
42.6389 145.441 167.789
10.997 30.6051 106.172
48.3051 129.098 96.104
10.184 115.852 92.5424
16.3384 81.632 107.24
41.2776 130.116 157.201
11.2874 128.849 111.835
13.1385 142.54 142.171
29.7976 153.089 133.774
46.8354 70.1558 136.798
10.7674 16.4103 115.134
10.632 121.005 173.474
36.8635 92.739 256.349
23.2974 37.9237 127.42
22.5546 62.6849 175.66
15.6235 51.5257 194.382
27.472 97.8043 81.4743
9.44282 32.1885 130.157
39.484 139.185 95.6132
23.1133 31.4724 127.777
11.6608 41.7257 182.764
9.55789 113.406 148.49
22.0943 148.117 99.3774
34.4854 103.938 78.0656
19.0259 82.4403 195.309
28.244 66.7095 167.579
10.6472 81.5114 182.323
23.0248 101.219 63.4447
41.2796 105.637 179.097
9.47868 77.5928 132.184
11.3207 56.6337 82.4948
19.5758 100.543 166.804
23.3443 153.487 133.673
25.6679 91.6671 134.155
10.964 155.42 140.426
49.9103 84.6447 184.988
27.7538 104.929 163.296
41.991 132.783 93.1596
45.171 92.9039 92.9803
20.2526 156.554 169.388
38.2066 146.991 151.041
54.0088 82.9803 111.305
27.3518 82.7961 199.562
42.0201 142.643 114.55
11.1211 104.742 256.756
21.1622 133.543 153.431
11.4098 142.506 124.519
12.8462 97.2217 165.328
17.7832 65.955 183.222
15.0776 25.3545 166.246
16.464 64.3786 160.415
11.8126 14.9082 141.371
11.699 91.8168 196.134
15.9611 106.483 145.911
39.9115 43.4053 144.399
39.5741 61.5853 175.176
32.2361 157.204 118.165
11.6992 149.649 147.394
45.2852 143.238 146.425
33.6375 150.876 99.7866
15.9525 35.8984 99.319
11.5948 125.295 137.53
28.5119 84.6648 136.452
10.8171 129.045 155.176
21.4841 166.551 171.051
53.3819 64.7887 158.053
41.3019 76.4913 170.902
62.7444 97.0995 159.074
11.0708 90.9887 81.6433
24.4018 135.022 181.375
60.1512 91.9496 181.879
34.1262 128.199 140.237
19.0241 18.5251 108.542
32.1063 82.2205 109.712
33.9764 107.424 255.564
11.1421 124.563 165.539
45.4033 136.29 151.196
22.9977 136.579 100.321
28.2544 93.3447 192.116
19.2934 38.1769 153.575
42.8198 124.701 91.0262
16.3588 130.507 103.787
10.211 40.1621 166.447
18.6602 112.971 61.9524
11.0067 69.7804 212.283
22.0026 36.3582 96.4095
29.1978 143.341 94.0879
11.0814 138.982 114.894
16.5259 55.8078 103.671
21.3867 54.3611 115.072
17.4891 131.635 178.149
10.546 141.929 169.879
36.2665 78.0828 118.333
10.4133 115.423 81.1648
25.3219 85.0376 259.953
43.6516 138.421 106.885
35.2358 106.876 89.593
49.7567 135.596 122.388
11.3677 84.6114 65.4033
46.8492 48.432 139.591
22.9522 37.5241 161.731
11.8571 33.9306 183.214
15.0902 29.8503 117.442
14.583 55.1577 127.857
15.379 161.046 147.308
11.1814 90.8572 100.744
12.9698 122.661 67.7884
10.5479 106.567 111.543
19.9224 36.058 121.906
36.7209 96.8373 163.29
44.1472 79.0017 110.632
27.5673 127.609 150.05
30.5962 123.907 133.254
14.8011 38.5643 81.9316
35.1975 150.852 107.349
51.2279 102.712 95.1176
40.799 51.5896 140.296
32.0101 112.228 151.739
25.8383 63.9056 111.749
38.6194 85.5851 173.143
45.7396 96.4277 126.621
36.8244 107.675 165.366
40.7077 96.7466 122.607
41.7473 135.495 101.685
37.4434 146.307 177.11
36.1953 111.955 139.148
48.521 97.9606 181.445
48.0389 63.8279 136.305
11.166 124.721 101.807
23.0331 45.2735 133.732
59.2785 100.48 137.204
14.676 63.2476 197.477
16.046 125.359 187.679
25.6467 52.2839 118.509
32.9115 135.53 88.9487
11.4197 165.116 155.17
11.176 27.0295 202.886
49.6816 130.322 104.319
33.1791 83.5255 90.5448
39.7774 94.915 91.5103
11.7903 50.0466 123.057
49.7293 98.889 141.95
20.9224 141.967 166.967
10.8493 150.127 165.717
39.1494 120.658 177.174
40.1676 113.125 177.944
42.7548 129.314 84.9438
22.4891 55.9739 105.765
10.2744 126.8 130.051
32.4164 70.7698 100.191
51.3228 72.4293 151.797
18.9438 89.5666 58.5737
10.3459 48.128 175.836
18.4162 85.5813 260.766
11.5479 91.9814 69.3971
31.3063 89.5658 194.602
17.261 24.7239 102.173
43.1655 59.4837 136.12
37.3255 143.164 156.903
33.5878 53.9053 141.804
13.9913 27.2562 111.418
12.9166 35.3257 110.949
34.0393 120.703 173.795
28.4174 39.6638 156.447
22.1922 104.164 139.293
33.998 120.388 76.2481
10.7611 150.239 121.631
14.0064 25.152 176.034
22.7241 134.111 140.124
13.6566 107.382 156.077
19.1902 99.5182 94.9646
27.2587 110.391 77.8969
39.5228 74.1087 103.704
9.3895 69.3087 139.646
43.6571 147.869 131.681
11.0497 37.2625 95.8221
19.8295 50.2192 134.105
13.9072 170.326 167.158
16.6107 93.5863 53.9657
37.9916 87.554 157.346
51.1548 144.134 135.731
10.7661 42.8997 119.179
16.3025 73.0743 190.742
10.3643 62.5254 162.492
38.1485 94.5894 188.852
29.1364 56.8466 137.671
34.1803 67.2478 108.756
17.7548 43.4894 89.0111
19.0423 62.5703 99.2355
31.393 119.101 113.684
12.7419 106.646 191.917
25.7742 124.234 141.781
56.4738 88.0046 138.254
39.8664 66.3556 126.297
16.5338 23.3317 157.989
15.5369 167.673 151.468
16.9234 126.326 142.784
37.3319 116.086 122.6
22.5887 155.5 111.763
11.3415 93.9026 154.131
22.2598 80.1263 103.832
44.927 134.556 140.842
47.1852 89.1708 149.262
44.3311 130.826 106.373
26.6524 152.025 103.39
38.5876 59.5369 166.984
16.7064 96.9693 70.8664
30.0246 36.0587 135.642
12.4209 49.9346 138.591
15.2034 76.4376 72.6578
32.8287 138.156 174.192
16.5666 55.7939 156.541
38.8426 151.776 114.572
10.8203 114.146 139.714
23.7425 138.023 148.263
12.4478 86.8082 154.755
15.9889 43.7444 187.957
33.9759 83.7605 121.098
14.9758 21.1062 128.884
51.0448 69.2889 142.996
11.1219 52.1012 186.138
22.2677 30.6205 105.98
58.1471 78.2337 169.583
10.8085 33.2749 200.362
17.8663 105.515 260.186
41.1092 93.3496 168.9
49.1926 76.7404 142.456
24.119 111.581 257.45
56.0034 95.1668 174.583
51.7795 72.8834 174.02
22.5931 89.1539 80.9512
14.1213 153.809 126.116
28.6528 137.848 155.608
9.21267 32.7858 143.887
10.9466 138.965 134.014
35.5254 69.065 139.354
37.3304 126.678 79.367
37.8545 78.8351 96.6586
41.905 132.605 128.318
28.6236 103.426 99.1597
27.1845 102.941 257.06
25.4043 100.907 149.792
17.1485 67.3305 102.794
35.0956 112.806 79.2575
43.6738 82.3377 180.784
20.1013 88.4408 65.5379
16.2928 39.7236 116.722
28.5918 92.7852 90.7102
21.3328 148.927 169.422
51.489 107.318 103.462
38.2523 75.0208 108.694
11.4119 85.5819 79.9563
41.4729 87.567 261.827
50.2028 93.1683 136.644
18.5486 36.8694 193.786
15.3199 105.206 183.455
10.6086 93.7279 181.44
25.5685 32.0517 136.172
14.6856 120.699 183.221
9.79248 97.2507 128.236
15.147 117.976 136.593
18.3975 138.818 111.708
10.2857 119.475 111.355
11.8244 107.68 177.202
10.2268 27.1702 117.673
22.525 132.072 68.7491
45.6615 106.823 146.181
16.824 157.599 139.13
24.5015 119.44 72.7175
13.1388 35.2792 148.71
18.516 93.6534 145.577
31.9772 128.453 113.056
44.5744 65.0209 145.05
42.7146 57.367 162.205
15.7619 69.2712 195.527
9.64148 71.0718 99.2025
51.2738 98.9223 150.787
41.6606 115.549 98.5902
19.4727 24.2504 125.977
37.2752 42.0278 136.093
39.8661 105.807 98.7367
17.1538 128.696 79.8075
17.4353 25.7855 137.528
22.3462 148.813 124.138
60.3969 72.2442 163.38
35.1376 110.333 192.337
39.956 69.9958 130.459
11.0478 115.771 100.543
25.6234 142.565 112.635
40.2914 105.322 85.9531
13.5858 58.4529 116.716
37.3824 128.654 94.272
21.9001 57.5412 122.609
18.4745 143.995 99.9335
9.97685 88.5198 145.184
47.1285 74.4056 175.321
54.6039 114.164 100.324
17.7442 26.975 120.862
50.8894 80.2368 180.314
42.9868 114.671 90.1491
47.5823 104.08 185.792
10.348 143.432 77.6926
11.0189 54.5818 153.988
45.7081 88.1994 99.0162
9.66553 76.3989 168.729
11.1123 42.4039 87.5883
26.4032 59.0113 108.514
44.4834 98.6984 155.409
9.68083 59.0336 100.554
41.4417 136.068 161.638
44.3257 121.69 109.867
15.2346 78.2217 147.907
62.9492 134.581 123.536
65.7497 106.9 152.126
30.3357 114.147 137.494
9.94342 53.1512 197.038
34.9176 136.451 149.713
46.5425 103.022 133.359
52.8726 55.7088 147.65
20.3545 59.007 109.839
11.9977 78.8869 93.2173
21.1988 30.9992 141.686
9.95445 60.9539 61.4841
16.1441 129.549 167.988
15.8873 23.3163 182.529
18.8899 156.799 128.545
33.8554 132.374 84.5707
20.1094 143.03 158.724
46.5365 90.1752 184.94
12.5795 57.5567 201.13
16.7374 102.374 136.942
13.3684 88.0917 109.124
15.5192 115.276 159.766
35.6004 78.8103 142.746
19.0998 116.84 194.381
13.3551 81.7706 192.005
17.7616 94.6573 66.8702
43.7591 95.0701 187.957
23.3908 57.045 150.026
66.7188 97.2086 123.616
13.9716 130.347 120.209
31.5469 63.3007 152.219
38.4964 131.151 144.482
55.9278 104.475 109.992
56.81 81.4705 179.157
25.8704 125.533 73.8734
10.1097 81.3218 174.616
35.4675 141.332 116.278
25.0911 72.9655 161.908
47.6736 72.379 127.566
53.383 124.009 100.412
35.2896 82.5631 150.867
28.7561 131.18 141.412
26.3539 129.437 71.4452
52.3701 89.6579 184.261
41.5524 90.2893 178.933
9.11169 77.2234 123.966
36.2143 77.5902 127.303
51.4636 75.85 114.991
11.0838 128.804 173.445
33.3243 96.5457 126.123
15.5637 131.477 139.122
53.3802 137.488 147.874
39.7533 114.446 106.65
10.2017 105.188 83.4161
30.2582 149.036 167.464
16.8402 145.035 151.484
53.467 95.5184 184.512
56.2276 90.282 170.601
68.743 113.091 115.422
9.92918 81.8478 52.2986
15.6458 147.094 159.191
18.6749 93.2941 196.468
12.0119 87.1265 169.605
14.032 158.845 115.427
66.7352 112.599 146.575
14.9399 165.91 144.3
11.1761 173.632 152.409
11.513 167.369 140.206
10.0052 132.71 183.944
46.8555 89.6433 129.404
61.9894 102.033 147.014
11.6657 165.24 164.456
57.1752 112.846 107.205
48.6683 113.794 95.9438
34.9361 87.9199 258.761
33.7236 128.951 106.601
54.2479 69.0272 164.591
20.0152 46.2668 122.758
39.4715 121.313 112.222
11.3354 144.171 100.95
54.1903 88.2427 177.368
38.5313 111.243 148.876
15.9329 65.3766 204.128
45.3362 100.676 91.238
12.7578 107.892 261.694
9.73949 68.5239 181.802
17.5649 93.2129 186.846
10.9188 120.746 73.289
29.5212 99.7561 94.7325
39.9414 108.473 185.577
13.6447 47.8218 186.984
30.0426 84.3255 117.4
19.8406 113.601 262.09
37.9908 104.826 111.477
41.1288 71.031 122.092
38.236 140.925 172.883
9.55213 86.2569 136.236
41.8557 80.1116 117.42
53.895 90.6527 151.217
9.88834 58.3444 144.839
65.5346 128.587 146.351
23.1538 91.5454 187.695
25.1911 135.743 93.4886
36.9483 126.909 126.415
38.7584 105.834 107.373
14.2935 91.6259 143.709
12.3521 98.8644 183.816
14.4938 170.364 158.448
12.7855 68.5386 153.786
42.9899 80.3843 96.9377
26.5405 114.769 193.336
16.216 77.1332 97.5065
10.7185 17.3727 125.842
12.0947 156.626 162.059
19.2534 98.2444 175.284
17.2918 38.8314 136.173
37.6929 116.708 89.3745
39.2149 134.673 118.98
13.3031 100.26 66.6917
9.05446 46.0996 135.606
34.9203 117.314 168.919
32.2442 119.632 260.582
35.7138 114.619 109.933
34.5857 98.7598 85.2332
19.2262 154.025 163.321
33.8991 139.391 94.153
9.61601 120.47 188.89
25.1309 102.429 144.807
61.9954 115.134 111.49
41.855 107.68 259.463
44.9373 67.56 171.446
36.4838 128.289 132.941
8.37276 58.0767 176.475
8.96603 57.0247 119.815
50.1695 133.624 131.134
40.2377 101.299 189.44
15.6689 33.7705 107.87
12.9741 65.8739 62.6205
22.3531 109.618 74.6343
43.1844 128.221 137.745
55.8187 90.8683 105.413
19.7541 135.635 121.924
32.8143 124.72 117.557
57.3438 73.9461 159.823
53.423 91.3749 114.388
17.6787 175.68 164.118
34.6346 118.456 142.181
16.3006 151.704 167.994
48.3582 85.2856 107.957
10.7871 64.099 205.41
31.587 127.193 180.312
57.6022 100.535 119.126
56.2091 79.0712 141.662
46.6539 140.871 116.865
58.0976 74.582 152.412
39.619 129.538 103.994
40.0636 107.846 193.507
43.0914 142.378 136.448
44.0626 113.945 107.248
28.6552 83.6884 96.3931
54.1728 69.9351 155.1
53.1721 84.4655 118.628
58.7871 81.4048 155.635
11.8264 42.7064 79.1428
52.4237 84.4343 123.767
55.0943 97.8581 98.7966
27.6985 96.9118 62.0046
58.2512 81.73 173.624
47.8869 93.9151 103.857
59.9873 120.472 103.857
11.6668 158.615 169.078
31.3577 151.698 170.373
58.5844 137.662 135.192
59.7887 87.8708 112.336
49.3268 134.168 115.761
47.5769 82.7966 128.323
57.2073 125.02 107.44
10.5027 168.665 148.481
67.1177 97.6935 146.024
48.6964 120.018 98.9228
18.3431 34.6483 158.17
11.8852 46.5132 72.2293
63.1128 82.827 145.845
52.4083 131.708 110.426
11.883 41.6017 191.239
67.4042 122.403 108.036
21.8864 96.6426 191.8
62.9232 90.7055 153.101
42.3556 63.0154 166.352
15.75 98.4327 128.983
33.1334 103.362 167.771
62.6044 85.686 128.224
