ply
format ascii 1.0
comment Created by Open3D
element vertex 974
property double x
property double y
property double z
end_header
35.6657 135.802 43.5258
44.5603 113.374 25.1435
15.6369 177.37 17.3079
42.8402 89.3002 98.6542
16.6242 199.321 96.0567
33.2006 113.354 97.0969
12.2903 208.261 92.4431
31.4433 124.496 19.7893
44.6895 123.999 151.592
31.5493 36.6078 131.161
13.2085 119.118 122.864
23.0707 152.352 20.0324
22.9437 113.014 147.312
16.217 103.215 141.726
14.7437 205.182 196.304
18.7048 124.201 132.884
30.9019 137.438 128.975
35.2272 211.48 175.283
51.3215 110.989 94.8304
33.0452 185.901 99.4325
35.8897 79.1361 131.998
38.2279 127.014 106.201
42.5254 146.914 129.082
33.6476 143.284 125.631
24.5331 80.937 115.875
17.7106 111.621 154.795
27.4372 85.1181 126.166
18.8228 123.461 115.13
24.5408 206.109 72.2681
31.2958 194.095 53.0188
32.2685 119.515 100.946
16.1586 110.622 143.219
17.2216 131.678 144.357
40.294 135.928 112.095
34.1323 144.246 133.914
21.5186 66.9254 149.139
9.66078 211.193 172.026
37.2995 82.8711 124.578
15.5842 111.401 132.712
25.787 133.032 123.18
36.9298 94.1444 119.379
35.9258 77.4871 118.561
39.9816 127.86 13.5527
12.7317 125.728 150.111
17.6912 126.189 17.8884
37.7651 89.3908 105.869
32.6944 161.913 33.3249
28.2704 213.148 56.3772
36.4938 182.577 90.9263
19.6662 209.372 90.671
24.7233 111.166 109.983
39.08 143.405 119.936
16.0133 131.555 133.866
37.2524 105.136 36.5493
14.5467 170.801 5.78963
27.2297 94.948 103.06
16.1387 215.327 66.6245
29.4909 46.8957 125.895
20.9888 200.126 87.6581
16.9089 133.5 21.1667
45.3386 33.1043 165.474
37.8374 102.42 112.122
26.406 100.472 141.761
19.843 122.62 155.698
48.0961 125.363 20.1613
35.6309 58.7866 176.429
42.5775 206.863 162.337
29.2347 200.178 102.903
17.8175 199.503 68.6909
39.4606 129.72 119.28
25.1326 145.15 39.7622
21.9558 139.34 42.2716
26.8179 129.6 130.92
29.0486 91.7786 119.726
27.5114 160.577 23.4175
40.9301 90.7108 161.219
20.4062 187.447 17.177
37.9139 107.583 163.797
36.4851 97.3555 128.703
14.0495 98.3083 150.135
21.2758 123.463 148.087
30.3969 141.796 42.5201
17.4363 116.887 24.6908
26.6592 114.486 136.772
41.2279 29.5511 149.651
48.2225 162.466 3.44626
37.1348 187.733 189.057
28.6862 209.088 182.231
25.1064 133.789 20.7983
25.083 215.407 210.761
33.6926 29.407 136.185
16.1457 68.8181 159.481
48.5628 124.93 125.096
33.8199 46.5351 170.094
45.7026 138.436 105.223
34.1793 89.4916 141.583
9.64506 126.625 36.6421
34.34 126.836 98.2197
9.77296 118.956 38.814
31.9055 135.992 119.897
13.5324 63.1101 151.499
20.2424 97.6342 145.848
30.4991 120.234 163.505
46.3648 123.143 101.332
25.4171 211.626 176.549
26.6559 106.179 165.226
32.8766 37.2161 138.879
40.2941 217.347 70.7914
19.5626 208.766 74.6064
16.2325 131.614 43.3995
25.2354 161.94 5.56191
26.8311 83.8464 107.437
44.7981 47.9875 175.527
37.1203 101.111 161.025
23.5671 116.802 104.587
25.5936 35.3294 168.957
9.881 120.961 30.3782
16.4493 70.2002 168.469
40.3639 132.5 37.6518
38.2273 136.485 145.543
27.497 123.482 100.245
52.6608 132.73 150.313
20.6115 192.442 99.8907
42.2131 49.8998 166.543
41.4734 139.132 137.876
48.0489 132.942 33.0628
12.0005 98.0336 137.528
46.5547 186.162 88.4532
29.8327 73.006 158.684
26.137 194.421 95.2063
40.0406 117.303 42.1271
15.8657 116.454 149.037
25.0828 126.338 157.899
17.5915 111.67 108.218
37.108 112.766 155.366
27.3145 132.555 109.285
36.5546 115.308 125.077
12.9982 137.479 30.9295
20.049 106.294 162.403
48.2888 116.523 97.0441
19.1832 117.617 138.357
54.5633 54.4536 179.371
39.9209 96.641 97.9936
29.8131 169.127 4.64424
42.7309 44.6722 126.137
43.5313 62.0767 186.265
35.4472 35.3738 180.797
34.721 183.72 10.0814
18.7138 165.759 2.54491
34.1593 101.962 120.644
42.9818 169.455 74.2707
32.771 155.828 26.3246
23.7189 201.663 182.231
33.6871 96.756 139.506
22.5982 101.706 101.366
37.2774 117.055 116.966
15.9102 99.4894 110.842
11.1347 120.326 138.655
58.8999 177.321 76.8293
44.5176 105.796 140.943
42.0648 80.1839 177.469
41.5833 196.298 169.973
23.7407 139.351 126.944
35.2908 40.2978 157.931
26.9556 44.589 173.266
27.5548 40.7975 179.827
43.0458 211.815 46.2988
40.1065 126.306 22.9849
28.0679 85.821 134.434
50.4243 139.485 149.055
37.8512 191.393 60.8228
45.6078 139.858 129.572
35.2098 139.764 19.8138
32.7041 129.151 122.998
39.104 156.518 17.8569
48.7755 137.873 116.775
48.3864 125.135 34.0086
39.2406 53.9861 171.38
20.5706 108.912 124.702
26.6521 187.063 192.188
23.9698 124.15 140.311
52.6476 124.942 96.0084
25.898 166.597 28.8422
21.1121 58.1718 176.899
21.8046 85.1074 170.078
32.3027 192.881 102.262
16.5121 213.982 174.51
20.7025 124.419 49.2681
26.2057 67.6214 138.557
40.9575 72.5809 120.244
15.9892 123.104 44.4629
34.3659 216.238 181.146
43.3993 121.922 158.47
16.728 56.2289 141.403
41.5714 122.202 107.867
52.4137 141.914 130.149
38.7013 80.6922 110.688
41.1398 108.455 107.61
57.4252 38.7305 148.283
49.8982 205.423 100.9
16.2271 160.151 5.90563
31.4494 213.331 167.605
46.0393 217.898 50.8231
29.4171 135.194 47.9529
38.585 133.576 102.261
30.5018 111.892 129.368
24.8937 217.181 165.114
46.571 56.5587 171.206
21.9074 192.823 180.748
12.4124 198.736 213.348
35.5897 142.555 29.4575
20.0723 205.938 191.457
48.2779 106.195 108.754
51.5884 122.187 117.585
37.3518 91.1433 134.849
40.6753 209.119 58.3746
61.7852 89.5373 107.595
58.7683 113.475 95.8297
31.8233 116.594 109.128
36.3214 175.988 11.2221
33.7362 214.4 215.617
24.3715 90.3018 164.601
23.4522 178.064 23.5026
42.5482 105.621 128.774
15.1071 138.603 37.4575
29.8341 171.294 31.5677
37.819 99.369 152.171
16.4205 139.282 45.5398
32.5809 32.6952 170.129
39.1665 189.133 53.3287
43.7731 92.6955 124.242
25.0914 106.068 133.183
18.5769 101.57 133.696
15.2787 187.789 89.7544
45.3215 107.113 117.377
64.6873 105.912 99.951
20.6749 123.017 124.695
40.1721 84.9434 117.763
26.1439 189.448 183.962
13.2539 209.543 78.5728
45.2668 97.8728 164.158
38.8144 119.149 20.0067
45.6728 124.68 44.706
40.847 168.616 83.6305
39.0354 126.28 34.389
27.1197 120.569 31.1892
17.6432 63.3866 135.04
60.4422 138.067 128.103
30.2524 125.077 12.7578
41.9174 99.1522 106.001
23.07 215.6 186.92
15.3438 61.5229 172.068
10.1927 126.98 140.518
31.3904 204.733 46.5131
13.0871 39.0906 109.891
18.8091 134.835 124.406
15.4684 217.828 182.463
37.7151 167.054 4.69626
26.3217 196.601 196.628
26.3845 182.848 12.9532
22.245 137.67 24.2613
16.7322 200.689 183.302
18.0726 212.982 52.6166
32.6906 190.738 171.885
23.8726 70.337 173.893
19.1318 81.3554 144.068
31.2142 106.96 158.502
31.5696 167.415 13.922
23.0692 92.7323 120.913
23.1272 134.38 135.463
62.9147 96.6568 101.542
26.5415 53.1567 162.919
28.2774 46.3023 157.366
26.465 102.061 124.59
58.115 188.736 61.0256
48.4331 211.592 187.061
14.5373 76.4748 146.568
48.8761 145.942 122.455
52.4234 35.0526 169.627
25.2054 117.819 116.611
58.4264 98.1423 107.95
39.6358 203.4 204.79
30.5037 173.842 76.1655
21.4275 147.573 35.1166
46.7216 194.153 62.5649
29.8058 112.67 35.3311
35.0766 31.2388 156.552
27.2904 217.72 94.1595
16.2687 55.5593 129.378
45.3464 105.125 97.1978
34.5931 165.439 24.5077
39.0057 31.5396 169.907
11.9648 202.086 87.8359
48.9665 73.6987 108.556
47.5789 82.8657 114.509
50.1582 123.928 134.887
63.119 138.409 110.821
27.9293 129.877 41.4512
42.7651 106.624 154.143
29.7326 115.412 157.072
36.6337 81.4565 102.188
33.0131 75.9662 170.997
42.2714 187.516 180.108
28.3752 118.687 145.969
50.8041 99.3733 108.742
24.542 109.724 19.4377
26.2874 99.0155 163.285
11.9056 107.225 119.867
35.6113 78.4117 158.347
21.2033 122.385 32.7555
18.6407 191.692 187.53
45.9612 103.681 167.859
20.6536 215.768 97.3308
47.3847 87.5134 105.324
14.3542 205.477 187.877
67.3427 131.41 109.6
36.54 43.0666 183.062
22.6147 194.61 65.9166
30.106 120.647 134.516
26.7266 218.212 179.081
50.434 211.888 91.6966
54.2402 132.701 138.082
54.6293 128.333 158.81
44.1187 91.6662 114.208
47.3884 176.761 87.8236
17.8266 85.0007 164.796
32.046 136.891 147.137
18.2739 218.325 203.858
33.1841 124.5 154.336
24.5254 174.264 13.7197
54.4924 45.827 181.021
47.3173 144.058 139.478
17.6901 98.2539 158.109
13.9882 79.3667 160.204
53.2626 115.943 105.612
52.7821 37.981 131.356
24.5472 204.736 174.511
58.753 32.0785 144.931
45.4614 111.995 162.637
45.6317 111.254 133.915
72.779 121.646 119.748
32.5948 169.196 200.165
39.8927 115.441 101.452
33.6186 136.7 108.823
31.7174 185.777 63.3804
25.4657 134.684 36.4482
26.2637 186.856 96.6913
20.8809 140.461 32.4571
51.8451 119.144 161.352
45.6105 155.209 7.79615
64.3246 127.524 152.969
33.9742 203.676 185.24
41.1518 72.5872 107.885
40.2146 134.922 31.475
43.6249 207.321 95.8514
30.7364 177.881 83.6657
20.1588 108.774 30.7456
14.7319 131.526 29.5155
20.5851 75.5659 136.034
31.6302 106.088 150.52
40.7496 153.877 2.08123
21.6612 218.271 195.506
27.1364 53.4014 181.787
10.3858 96.5089 144.675
73.0157 134.185 139.957
11.0599 80.4537 151.619
22.9017 189.471 71.971
32.1803 136.462 34.5451
32.6481 194.763 190.232
31.4329 105.868 28.488
54.7819 141.425 111.131
42.7327 112.577 93.5972
39.3366 36.6217 139.123
52.3575 72.0074 166.245
9.5601 112.983 139.628
33.3274 213.8 196.749
10.1116 191.226 208.527
15.5894 210.215 99.433
35.3398 29.8653 177.185
11.3799 195.119 81.6732
16.1128 127.317 33.7907
27.0823 42.0967 133.269
28.7141 53.0958 172.811
11.949 94.003 128.729
44.5196 79.9916 127.428
12.967 59.63 164.227
39.2961 131.763 151.815
30.392 139.06 140.728
19.9247 110.257 22.1661
68.3888 130.782 130.267
38.8201 58.3095 127.254
23.5252 127.129 109.259
29.4035 62.7419 159.602
25.0075 53.416 125.305
12.0501 185.95 76.4111
14.7281 210.083 199.882
49.3005 129.397 111.358
29.9975 140.93 27.354
30.9531 140.367 114.702
27.4622 108.508 122.485
23.8619 77.9522 166.611
10.0694 110.088 147.569
36.1803 118.009 141.326
23.6269 198.908 52.056
10.3181 202.266 77.0821
57.6224 146.378 134.523
27.9244 122.634 124.41
16.9088 91.0075 147.337
25.0475 114.652 163.377
24.4921 112.948 156.243
26.8834 35.6044 140.811
41.3452 208.953 184.989
49.3143 118.328 35.3583
20.1647 117.227 16.7611
25.1064 108.721 141.718
19.8716 162.627 28.5902
29.9098 183.527 93.5424
42.6756 189.627 171.84
41.401 177.366 74.8696
69.2997 124.658 137.047
37.1931 47.7393 177.568
52.7455 109.425 129.437
26.9902 200.679 189.186
38.8041 136.949 127.105
14.5647 48.4406 137.288
21.1987 206.913 54.5246
60.2735 113.615 166.538
30.7457 213.672 72.6911
36.5596 199.897 175.531
51.6893 208.433 167.428
27.6667 124.509 151.426
9.91873 167.642 91.2263
37.6966 112.15 27.5071
33.7687 40.3796 123.964
20.5273 211.564 194.882
24.5269 179.701 5.25251
38.504 108.375 122.173
29.2498 186.518 73.6498
33.8127 70.9077 119.332
32.5536 94.719 156.002
42.7378 215.474 175.265
20.788 109.015 41.2269
27.7543 142.289 132.358
58.7243 123.806 97.9991
31.8426 176.09 16.8913
48.2032 77.1145 173.271
38.4591 133.987 25.0332
28.1986 183.895 183.759
54.2605 192.757 97.229
47.6257 62.1214 178.082
42.046 162.581 13.7053
44.0774 73.0036 161.243
20.2166 52.2209 173.984
44.896 115.777 107.845
26.4813 110.526 42.9466
20.4365 202.643 103.488
34.2038 100.901 97.4292
58.5325 124.635 104.891
24.7577 98.4095 112.871
24.3535 109.846 99.744
37.9302 93.3509 111.951
54.0325 205.995 193.998
54.7549 101.777 97.2926
38.3255 109.429 133.968
37.3496 47.4179 128.506
13.1319 210.607 60.1648
37.4653 182.102 194.498
46.054 37.7257 175.695
33.6024 116.112 23.2626
57.3287 120.007 123.88
14.3642 72.8461 151.592
32.8982 57.4948 166.407
36.3191 64.055 183.179
27.0812 101.547 153.312
15.0014 217.605 75.4437
35.1395 126.065 145.816
60.0647 41.829 138.887
17.9004 94.1743 121.601
21.0202 39.275 135.73
37.9498 217.599 191.917
61.1853 47.7265 180.125
41.9935 130.267 43.7642
29.0304 185.582 201.262
8.22471 108.101 132.064
43.5007 109.339 32.3335
31.1511 168.038 41.2521
53.3118 131.03 121.439
22.7221 78.712 154.152
25.9681 133.534 143.01
40.8372 143.983 111.407
26.3077 181.237 65.0604
48.2248 134.374 111.149
40.1287 118.362 131.584
35.65 133.103 136.563
40.0758 199.453 183.577
36.7854 69.5102 124.883
19.5039 106.107 113.725
31.2334 30.2183 150.393
31.1166 193.404 68.4544
16.9176 124.458 142.356
50.3681 93.8374 102.001
12.4565 16.4897 228.091
42.4429 23.7551 157.313
31.828 143.368 35.5441
55.2235 82.3729 107.918
47.3586 202.195 166.646
43.6557 166.172 3.19788
52.265 104.837 118.389
12.9341 96.0523 121.369
57.1867 47.8644 130.556
52.8169 203.559 173.298
22.7913 40.3616 164.79
20.7394 125.891 26.0411
35.8806 207.461 102.792
34.2784 103.088 168.056
30.0625 217.62 172.677
50.6392 193.463 184.357
27.5079 108.984 25.5589
29.8359 197.932 165.569
43.3574 54.5259 183.408
41.5475 203.798 104.912
34.3618 127.724 48.949
67.1046 140.578 132.906
10.2292 103.888 125.217
64.3727 128.9 159.76
46.1802 190.18 101.845
20.5205 204.187 169.813
20.0989 43.9543 127.768
30.1646 127.079 109.041
33.9857 217.062 94.8442
25.7148 202.16 58.3004
17.0321 50.6817 149.83
40.6695 215.251 217.29
25.6463 184.811 23.4826
51.3001 91.1842 110.15
28.4041 196.832 62.3555
44.5502 100.76 121.073
48.1906 43.6799 171.81
38.0627 118.314 33.8535
55.1875 215.25 57.365
45.4031 113.057 123.469
67.1905 122.064 102.407
30.8181 122.325 41.817
39.1598 125.39 126.097
42.002 170.599 14.8014
30.5788 115.305 16.1439
34.3536 107.021 103.948
41.613 132.754 134.49
49.4755 116.042 128.155
50.4509 103.775 101.459
32.0434 123.806 32.2884
47.1779 31.9942 156.392
20.919 75.21 160.728
24.8531 122.938 21.7411
28.9308 80.3013 155.658
20.8436 196.386 198.195
47.8244 25.4198 164.428
25.9139 37.0466 158.056
44.7547 78.668 151.826
40.69 127.845 50.2536
41.5451 37.1026 163.872
31.6631 77.7222 110.424
33.1622 117.663 38.9366
21.4576 177.996 68.3148
18.4675 200.438 49.5775
49.8317 67.2689 111.706
29.0503 82.3022 172.934
24.6349 93.3487 132.203
26.5566 208.252 169.184
30.688 200.077 178.506
29.4444 107.084 102.069
25.1001 214.405 203.544
25.3775 45.0782 138.678
39.972 104.854 97.1233
20.9294 89.6107 155.156
30.1479 207.233 66.3187
35.0076 174.894 93.9365
28.9804 89.8449 158.478
28.4665 67.7043 182.369
13.0746 122.723 23.314
18.6327 89.0793 112.321
47.229 85.3042 121.512
19.4243 211.114 205.797
29.6402 163.154 39.8157
52.48 59.7703 168.892
9.17705 85.5513 236.079
40.4895 215.985 166.309
62.0038 92.2767 114.438
33.3377 113.123 146.355
28.2562 209.665 196.17
12.759 85.2593 129.396
36.1695 215.851 55.4907
20.7577 194.904 58.6188
50.6342 146.403 112.654
60.169 136.308 136.481
64.0955 137.489 142.138
37.3718 190.691 181.744
43.0489 196.684 53.3467
30.4593 50.0998 133.475
30.0383 90.1959 108.785
52.6317 62.5259 182.722
36.4071 206.081 214.828
36.6078 210.021 161.422
11.4312 182.673 71.4972
23.0884 61.8113 125.829
61.3528 143.52 116.801
48.2597 132.985 157.495
58.3021 84.0698 162.317
57.3028 76.2491 111.26
22.7923 143.12 19.6793
24.8142 206.002 100.164
32.5722 130.704 23.564
22.9371 114.605 46.3916
27.9173 60.95 182.155
32.4944 64.4966 134.085
17.5805 193.2 52.4228
58.5262 70.6791 115.509
35.2789 33.7343 163.972
22.7126 131.062 45.6137
32.6789 207.575 53.0759
33.6602 132.483 14.5398
31.1336 122.463 48.4939
33.8724 83.8428 169.455
43.8919 142.143 149.451
30.201 138.27 20.7998
48.3294 171.187 13.6581
42.8163 194.566 89.7298
22.7679 75.504 128.118
21.7189 99.7529 126.54
42.9565 196.711 176.844
13.4937 65.0456 227.646
36.0169 206.798 191.833
51.3979 105.607 158.284
28.7032 198.172 204.099
15.5556 116.628 33.1877
19.0568 96.6561 104.806
35.2749 89.8521 126.522
39.916 75.7322 173.788
31.0899 189.546 208.479
43.6866 122.338 37.8909
47.8581 97.8976 115.13
30.5919 112.46 117.416
12.1084 196.073 64.5395
46.1368 202.898 181.916
19.5457 47.1836 138.59
17.1463 85.6181 118.834
31.9331 73.0296 181.183
45.0497 199.966 192.157
30.6256 214.541 188.998
47.8521 92.0053 160.706
10.6494 191.475 87.0453
20.9635 83.6782 122.229
70.8638 140.471 123.14
32.9382 179.941 70.1793
48.9299 55.7043 128.473
34.9151 193.191 94.6678
45.0428 133.261 147.937
35.097 204.127 164.163
42.4393 81.7727 168.159
56.7679 97.0604 116.977
16.7418 200.987 78.176
41.1067 175.563 67.3048
37.3409 177.417 61.0134
30.397 97.8309 131.939
30.4641 209.999 100.01
61.6106 34.775 163.009
24.6536 117.758 51.4314
52.866 47.7664 172.889
41.6177 99.0124 135.663
25.0667 191.086 172.365
34.9308 93.7045 147.425
44.9417 96.3744 150.733
46.0855 134.281 24.2283
21.8679 217.291 176.649
58.5309 214.11 93.4712
52.5144 105.765 136.488
55.4465 148.483 118.091
11.4487 215.335 83.9655
19.5343 46.0704 170.151
24.9769 89.2384 141.035
63.0789 117.381 99.1142
42.4383 123.811 139.731
62.4657 129.318 118.781
29.6097 131.149 31.33
16.3136 85.1444 154.239
28.2018 191.083 178.561
47.3595 32.0173 177.422
14.9162 205.573 66.5918
37.5308 27.5893 142.824
36.7866 88.6041 151.604
28.9969 142.76 48.8076
53.9499 107.987 167.09
43.6551 73.2457 180.474
32.8021 84.9563 115.835
20.7266 200.32 204.585
54.7201 37.4309 161.19
12.0678 166.098 19.7101
55.6615 132.566 106.55
70.9974 106.536 103.602
63.6049 131.664 147.029
43.5925 138.485 18.9648
47.1037 40.5926 130.3
33.8692 218.873 201.496
65.3846 144.299 137.407
48.0078 218.265 217.208
43.1266 123.346 118.041
41.1107 66.2948 153.726
35.0862 50.7335 140.145
42.2948 93.7977 142.794
14.1767 159.72 22.2078
57.1222 85.7929 114.586
68.3706 96.3254 110.153
20.6681 184.958 63.0383
58.6263 135.143 154.239
51.9142 67.6503 174.568
31.164 177.318 24.9294
37.4431 128.293 158.149
15.6449 191.376 73.5083
34.0651 175.228 1.69706
25.5433 189.217 58.4274
28.6107 56.9277 136.306
50.9403 134.609 26.8907
43.5739 193.267 204.14
48.1284 80.5272 107.384
45.2223 74.9036 115.432
55.3911 111.328 161.675
40.6174 198.232 211.612
37.5588 201.042 97.0473
67.6812 105.048 146.46
19.33 182.852 93.5217
23.2644 30.9189 160.704
33.1736 147.32 25.5052
46.8518 103.77 161.123
10.6569 51.1851 219.202
13.9811 74.7927 136.868
50.7426 207.666 56.5935
20.8004 218.642 58.2716
23.3964 54.1105 153.626
33.262 156.693 3.93405
70.2014 113.45 103.652
21.9583 45.3217 160.776
22.9118 84.2769 134.521
18.2918 117.428 130.649
22.6845 205.338 210.739
50.3885 120.633 109.899
45.1549 199.599 97.7323
56.3417 128.108 164.956
55.3683 91.0166 122.027
45.4199 52.6581 122.291
34.1948 204.094 201.097
23.5982 91.6039 111.4
43.6204 205.672 214.502
16.838 183.467 67.0524
36.2772 170.157 89.4533
49.4471 197.409 103.384
39.6358 181.744 185.668
47.6833 41.4109 159.262
47.549 113.571 115.387
41.3988 115.4 151.594
26.8399 134.036 11.7603
39.3691 23.3301 163.565
49.5876 197.056 165.489
31.3957 65.0411 127.197
62.372 205.586 174.291
39.3615 146.645 138.149
60.0815 45.2517 172.635
24.5137 94.7285 156.44
42.5237 184.571 98.2744
48.1895 66.8739 156.646
50.2714 105.948 151.712
20.4388 195.565 78.5402
29.1461 204.121 212.643
14.7588 217.993 192.377
52.5853 183.827 97.1591
42.9666 65.3072 115.349
14.0923 67.5201 136.479
21.3351 208.345 63.4751
47.426 202.061 176.917
61.3701 126.949 138.478
20.787 134.248 51.8582
49.0016 133.967 142.191
31.9916 185.478 82.1735
76.8052 130.184 128.662
71.3051 134.594 146.758
21.2935 75.6605 176.011
32.1223 185.471 175.387
52.6389 117.034 168.584
42.3681 108.348 147.835
33.9666 137.036 156.221
53.9969 26.3739 158.543
40.3558 180.219 82.1485
44.1104 217.951 181.807
35.5487 218.882 63.738
51.3395 190.527 205.902
27.9751 218.796 200.709
47.8962 34.6594 141.925
23.2388 214.231 77.2147
50.169 176.502 76.7907
33.9748 55.8767 151.634
28.0739 104.655 108.832
22.0704 109.286 54.7386
12.4982 197.126 56.1891
47.8905 93.171 139.793
37.8691 57.6707 136.476
46.3908 75.5125 131.503
46.5539 118.132 166.717
29.6315 217.131 49.6523
46.7416 28.5494 143.531
65.4185 44.5063 161.685
10.2565 214.661 66.8004
47.454 206.116 85.2071
39.2068 111.055 39.0365
16.2114 117.762 48.1603
26.2603 112.204 32.0875
65.9218 120.759 161.404
9.51645 181.675 189.446
51.6941 48.963 133.543
27.7174 210.118 92.7884
44.4227 117.815 144.235
57.1306 112.678 145.387
53.9884 212.94 173.242
32.4269 106.81 138.462
24.5276 133.303 155.076
24.1977 195.379 187.333
15.9077 201.457 176.925
51.5086 191.343 92.2927
38.0341 190.579 75.8792
16.3805 190.003 80.2591
43.1011 111.501 170.342
10.6396 92.5782 200.418
31.9738 148.337 41.6015
41.8588 70.1616 138.821
47.8164 146.368 144.985
42.5606 218.546 187.537
29.2612 43.2544 144.922
49.7366 66.6161 147.015
31.1338 79.1186 140.34
21.8158 50.9562 143.828
63.6725 40.9183 144.973
37.3912 187.862 82.626
38.5605 185.409 71.009
37.6218 46.7701 162.765
28.7554 71.431 171.482
28.9243 74.0077 131.667
31.8247 105.374 39.3516
17.3797 211.824 62.9183
33.8152 218.616 85.0256
36.6014 74.0061 144.63
71.4777 121.844 110.099
64.3858 101.612 158.421
70.8976 128.394 115.5
23.6648 170.271 1.41997
59.4383 134.666 115.007
42.3099 76.6589 139.175
46.7199 202.764 198.181
42.0628 73.3436 153.149
38.9369 119.59 166.025
38.4161 211.866 95.4228
33.5683 189.648 13.5229
20.805 187.411 77.6903
35.0642 83.9625 153.551
47.3198 214.38 192.396
64.5732 121.99 117.893
55.7834 55.7264 134.073
49.8857 86.0012 169.586
66.8075 134.175 152.016
42.2192 68.2928 183.981
24.2259 175.624 81.5323
10.4494 162.795 65.5806
41.5039 177.181 3.02348
57.7155 143.893 123.818
56.7343 41.3545 169.145
24.6709 209.836 163.735
61.1835 120.901 110.601
54.6671 124.162 154.126
27.7746 217.13 66.3143
42.8529 56.0147 132.141
55.4618 200.702 211.276
39.5164 182.528 19.0353
51.5683 214.836 167.04
33.8504 171.896 65.7596
23.544 218.899 87.0844
44.7029 217.55 163.245
45.7255 126.252 162.111
51.4005 217.812 163.247
51.0282 116.148 143.256
62.8247 51.2807 135.913
71.9998 135.129 116.475
58.1296 124.868 146.012
68.6518 120.609 153.497
44.3862 191.158 190.388
51.6948 201.225 88.8568
47.9897 126.067 167.664
25.1876 106.38 37.7683
47.1319 214.278 60.1954
48.2476 199.495 214.685
64.5402 80.1736 115.993
37.9299 87.2876 165.301
61.4424 140.259 150.004
63.4778 116.968 130.384
59.9215 146.592 143.625
50.6275 202.038 59.3652
33.3526 78.9314 148.02
54.7445 204.016 178.496
48.8451 209.694 66.4683
44.968 84.628 156.463
30.0045 146.283 30.8604
51.3301 193.242 173.96
49.2157 189.165 192.872
8.27103 134.819 208.23
58.7495 202.097 100.457
44.3301 207.22 52.8959
38.1989 123.064 168.209
49.993 100.032 146.644
32.8129 61.1213 146.452
39.7281 195.708 194.997
53.2227 96.4523 154.205
54.0454 42.6449 140.149
59.3309 194.3 204.259
39.6877 201.344 191.381
54.3711 210.524 67.3257
62.1552 116.3 140.299
33.3845 41.8661 150.988
45.6189 57.7076 161.337
45.2184 67.0242 122.423
35.0903 53.1885 157.412
60.2387 212.075 171.481
43.6108 195.339 104.607
51.3765 218.688 89.8328
35.8767 199.189 207.829
24.4241 74.2866 180.444
19.0021 60.498 163.488
45.6884 113.33 45.4169
41.943 206.066 170.83
43.0743 212.572 170.454
50.2008 195.474 194.878
60.0459 130.137 127.983
47.1477 66.7666 129.058
51.2846 209.32 48.6022
56.3748 88.8241 169.582
48.4617 63.7647 133.676
46.7039 37.2518 148.346
47.1134 84.1089 163.575
52.4617 75.4358 127.105
24.31 51.0578 177.117
72.2372 125.5 144.947
49.7033 196.655 209.105
51.5778 74.1183 180.344
57.3927 199.061 96.3401
41.0174 112.778 47.4419
55.5471 206.717 94.0015
60.9635 217.197 169.392
58.5684 92.8242 163.25
61.7479 115.096 157.469
46.6639 185.061 188.538
54.5085 217.608 203.756
33.4321 218.681 75.7955
40.62 173.805 169.901
54.861 179.658 63.1242
53.6684 208.596 183.661
58.4436 52.7389 169.156
41.1798 217.5 93.1434
52.9435 56.7825 160.082
49.1808 185.68 77.7339
61.8671 216.509 204.334
58.304 80.1435 155.96
74.4824 122.641 156.89
65.5625 118.146 149.461
46.9824 189.297 176.364
35.4302 166.918 82.0431
53.0067 63.8427 163.81
55.4425 140.84 142.117
46.5784 53.3397 141.405
56.3168 116.106 151.657
