ply
format ascii 1.0
comment Created by Open3D
element vertex 185
property double x
property double y
property double z
end_header
29.6089 90.5005 107.164
3.21043 127.691 130.547
43.2165 101.381 105.168
10.3705 134.004 126.374
4.39834 134.533 34.234
9.44284 107.864 136.944
20.5091 149.684 120.817
44.4586 99.7245 88.7661
43.3485 143.14 94.8688
39.8256 98.8434 118.21
22.1245 92.9215 125.939
25.2869 125.879 123.904
2.88892 77.7537 95.4007
12.2641 91.1097 115.955
10.8884 95.233 70.2472
20.6179 134.773 124.475
10.2031 146.011 36.5081
3.21253 105.206 55.2088
45.0438 103.055 124.215
26.1949 132.394 99.6476
4.28121 78.4753 64.8117
57.4528 124.58 125.552
16.9483 153.343 29.0426
25.1286 112.906 131.369
2.93478 93.1811 53.7813
3.08904 2.8731 127.877
18.5835 89.0156 96.7021
2.99073 145.054 119.579
5.75252 86.8344 67.2489
43.6822 164.69 131.488
49.3417 96.1697 99.706
137.98 83.9561 271.12
57.6952 116.126 115.343
10.6803 157.014 63.556
101.775 147.696 205.415
34.3998 143.703 97.1278
25.9186 154.592 131.808
25.7601 140.109 104.664
17.2673 165.238 67.9211
80.6074 139.288 204.164
37.5927 152.125 151.451
5.33933 79.2451 87.2592
48.7006 114.933 104.546
29.7949 147.67 110.389
111.386 17.8643 257.798
11.3305 168.601 109.866
30.4647 172.516 132.957
36.7478 155.919 124.898
28.2023 163.323 127.94
3.47379 81.0322 124.3
12.5452 153.523 50.4404
57.935 137.027 84.4192
36.461 90.7419 95.7041
26.9628 94.8759 88.4901
57.9703 155.071 124.294
58.4403 142.565 92.9584
2.63053 104.939 37.3315
28.1026 160.162 28.995
7.14103 107.845 68.7182
13.4038 145.118 128.495
97.3565 114.427 220.147
20.1165 99.1246 134.554
15.9337 170.554 117.031
4.25052 94.6543 96.4324
78.1226 159.713 117.062
20.654 174.176 122.217
101.912 138.437 208.068
2.76169 125.3 68.0275
9.24649 103.293 128.938
38.5164 160.449 182.806
104.146 148.825 265.909
48.6809 105.479 114.972
53.928 106.123 94.9448
51.7452 145.572 95.2695
48.4142 156.76 121.066
39.8904 131.63 195.489
61.6191 130.962 87.0407
46.888 148.428 130.051
41.6379 177.282 127.22
10.5384 91.874 125.987
63.2634 154.668 180.441
5.6037 160.023 96.2047
42.5036 140.223 135.444
64.6561 152.575 101.643
5.10235 118.706 87.8436
19.7913 141.006 127.509
19.0989 125.883 112.112
18.2947 165.414 79.4145
63.2016 144.497 126.702
103.824 65.9472 68.1732
35.0133 154.473 169.028
38.643 149.601 105.489
15.4586 127.176 128.325
21.7475 165.683 128.792
5.5445 95.3346 136.068
6.67123 146.242 58.7684
30.2093 148.234 131.557
37.5914 148.876 175.574
78.477 176.805 166.138
70.7791 146.698 93.7635
12.9876 86.1254 106.567
54.4591 167.845 131.833
41.245 129.997 84.749
2.88687 150.295 85.4337
94.6153 8.83024 212.268
100.355 138.971 198.137
45.4526 157.561 107.645
48.079 150.874 94.3932
2.48456 46.6124 149.014
4.02221 119.427 57.5563
15.0018 169.14 83.1279
5.02649 101.239 103.224
3.49858 97.2828 124.5
14.1484 154.952 128.157
35.935 136.109 64.2335
5.96664 98.3673 82.2039
60.3822 116.141 91.2268
34.402 134.408 129.872
64.4587 124.588 101.924
113.979 103.702 205.447
38.1491 95.0746 108.225
148.903 112.467 198.301
21.0237 161.683 48.0819
14.4354 101.307 84.0109
48.419 109.805 13.2873
38.1554 168.309 134.662
47.2292 97.7397 136.45
65.9234 159.952 115.144
71.7761 157.215 110.697
4.90744 154.72 73.8775
53.6187 176.372 133.01
73.6584 171.966 146.979
38.2634 174.024 90.9955
47.3608 118.131 44.3716
2.14071 142.849 71.0671
4.57028 174.95 178.27
5.75701 107.233 85.2195
23.6466 155.118 197.449
15.2978 158.01 38.5151
1.81484 77.3123 106.337
45.4286 132.608 61.9747
4.52538 134.72 53.9549
126.042 116.7 118.145
72.6726 134.702 92.3968
69.1464 134.617 119.557
100.955 75.8687 92.0511
64.5612 112.04 85.5947
23.9692 164.633 56.22
52.1463 139.81 130.535
40.1789 106.935 29.6138
64.4402 171.019 129.919
45.6147 141.02 192.842
59.2177 161.567 126.39
79.1055 145.694 101.6
34.5166 160.244 127.136
64.1665 118.919 84.5445
6.84764 81.6845 104.132
66.925 179.41 146.659
37.5934 117.921 27.7324
31.8311 149.536 177.466
82.8862 156.098 108.588
75.6223 86.9284 96.096
74.427 145.174 113.355
39.7296 157.475 8.06688
73.2411 163.249 12.613
1.15849 96.7957 136.03
43.553 169.636 51.1503
89.3494 136.115 109.766
82.4661 166.715 22.2667
41.6595 174.532 117.441
55.7897 93.4195 132.884
21.5039 128.717 63.0569
1.58951 196.251 221.599
71.7118 165.975 127.152
105.955 80.1453 102.514
87.9435 160.093 99.4975
43.5496 162.502 23.7337
9.42686 155.943 3.83145
32.1844 130.009 63.8248
71.0953 27.9668 170.649
82.752 162.388 101.399
87.6713 147.297 95.3193
7.8077 104.208 122.572
74.5179 178.017 124.192
9.23944 82.9383 89.766
