ply
format ascii 1.0
comment Created by Open3D
element vertex 911
property double x
property double y
property double z
end_header
13.2295 68.8509 132.519
139.221 74.0632 254.043
19.947 90.2197 86.9965
12.4247 87.2131 118.778
14.0399 167.748 73.5428
4.70275 120.798 61.1468
23.9756 96.4321 156.441
7.59581 119.373 70.2352
15.7772 112.171 71.6175
21.6164 93.4813 100.589
15.4056 95.3576 140.06
20.224 107.38 183.442
7.71292 128.656 85.66
11.097 72.5621 89.8654
8.06092 165.631 83.9582
150.309 37.2079 241.768
17.1567 128.664 173.879
6.621 111.009 69.4312
33.3622 223.437 190.992
16.3703 119.709 167.973
3.76332 139.773 69.0284
17.314 97.9052 160.094
14.9979 75.0738 141.501
24.1568 46.0064 114.713
43.8844 70.147 170.106
24.1044 119.77 91.6948
134.963 66.611 262.846
46.1686 60.2402 158.559
36.1411 174.095 148.645
15.1882 158.124 99.7912
10.6881 175.117 76.7892
9.67098 158.19 131.65
25.4945 85.6007 133.691
43.8307 101.043 46.4317
22.0321 106.639 133.992
31.5242 86.3983 128.101
14.9558 110.037 92.2242
8.76596 100.22 106.693
22.725 84.3253 82.5712
20.4367 174.19 79.6991
33.8412 98.6581 141.552
20.275 61.0944 89.6115
69.6054 138.489 21.7718
22.2257 125.51 136.383
28.3966 99.9505 66.0105
17.4419 131.969 84.1593
31.1513 70.5592 156.797
20.8144 59.0228 139.952
34.683 88.7533 157.225
5.85759 65.6234 103.785
18.5604 128.531 63.0823
8.60451 141.495 133.808
19.1466 76.436 109.873
4.31755 180.77 85.8162
16.0472 107.019 143.161
12.6865 123.609 89.3524
37.6201 177.048 120.804
18.4503 142.82 80.4573
17.4206 141.033 66.0947
65.7452 210.096 106.817
22.7815 157.47 76.1818
122.388 175.385 3.64087
31.8404 96.8791 183.735
34.5349 223.226 206.699
52.6418 55.1 158.439
27.1567 58.3831 97.6681
25.2852 152.698 114.567
29.9262 39.9569 114.454
31.3701 151.365 120.985
3.0674 141.629 168.352
40.712 118.265 186.104
44.3793 225.774 190.961
33.9424 61.5533 146.698
27.2787 45.9001 123.359
12.2047 158.021 68.9686
10.8943 68.4778 121.962
14.453 131.493 52.4222
24.4234 221.73 190.622
20.9297 56.9182 131.898
8.16877 107.889 103.243
26.2625 48.3442 106.447
58.3955 212.093 104.302
38.8679 96.8841 180.126
28.0845 147.767 42.1742
15.2481 117.527 79.5009
42.4066 198.05 85.4576
18.5149 167.518 102.809
56.6799 149.509 28.1794
22.5536 150.109 85.4545
16.8221 46.977 108.704
25.689 105.405 79.5411
17.543 162.838 51.0638
161.46 49.2774 268.124
25.626 89.4325 161.305
9.7548 132.444 135.843
18.993 68.7122 126.322
23.6433 99.4281 74.66
71.4898 125.824 23.7573
8.13348 122.656 79.4943
48.6904 104.687 182.933
9.68167 56.6183 116.74
30.6441 50.7407 100.402
35.3129 94.85 68.1684
12.505 158.424 78.4521
72.6839 212.029 98.9913
54.9409 173.99 167.885
8.11791 147.971 122.316
52.6098 70.2393 175.376
34.1955 78.0224 157.108
27.4618 94.0612 81.9811
30.98 86.6705 80.6255
15.9555 147.312 151.373
44.3428 184.556 149.772
17.9015 130.133 148.267
27.7125 158.162 104.736
162.104 47.7853 237.347
38.039 89.1294 69.8194
16.3536 170.155 89.406
17.4362 151.566 117.55
25.5081 100.169 84.2157
47.1985 110.624 41.113
19.7529 112.67 62.5354
10.9962 95.4196 133.528
15.4616 118.072 87.0042
10.8814 141.626 142.775
26.9871 84.9025 111.674
11.6072 79.6401 113.98
65.8756 214.593 99.7383
30.9668 100.667 93.8751
20.6844 145.132 43.2667
58.0322 198.664 82.2137
23.9948 119.4 76.9336
46.3406 111.871 186.678
18.044 223.765 192.623
35.5208 86.0855 150.471
13.3448 102.236 119.448
22.0829 144.267 104.619
55.5533 166.589 169.8
46.951 53.9943 137.564
46.3789 173.426 167.486
17.0426 155.82 45.302
33.6924 120.312 187.698
25.775 87.2756 168.981
56.9815 110.762 62.2108
16.6661 94.3117 127.422
30.4066 92.6555 117.374
12.3529 104.643 149.594
34.2263 83.6975 163.029
88.4807 126.349 194.202
37.2683 221.066 198.409
34.021 87.3163 140.559
38.3496 190.597 120.468
126.647 165.416 6.86976
7.89516 145.355 79.0404
4.899 72.0623 110.808
43.3406 142.873 40.083
41.8386 65.4822 139.202
17.5627 105.213 167.298
16.4457 119.949 131.907
42.8496 164.644 162.397
21.908 129.797 46.1549
20.8088 163.626 60.7015
21.8425 123.138 176.532
5.62793 136.374 61.81
25.9635 165.192 54.4471
44.9063 152.174 40.7991
45.9086 178.216 124.667
16.3336 104.991 157.302
62.5371 194.324 77.6516
53.3905 131.658 28.3143
25.631 74.5747 134.959
44.7129 57.4208 151.294
39.1578 104.456 184.992
23.6219 117.642 181.946
22.9105 145.445 155.118
3.21305 173.818 80.9971
63.2344 172.006 166.352
34.6814 86.2694 117.536
43.3445 85.6468 162.552
8.40342 75.6262 100.593
22.9035 55.6072 104.137
150.809 42.3299 235.763
39.3205 94.5015 52.8358
9.61891 69.1912 95.9981
63.3969 130.98 22.5324
19.1307 54.4631 123.89
14.249 123.021 96.6581
38.3651 107.028 95.1947
23.1022 169.57 67.1998
68.5453 175.548 37.8842
32.4255 73.0769 85.642
42.0292 92.0051 175.062
3.3073 145.916 156.564
35.0899 94.248 80.1512
39.7308 42.7937 112.106
16.0338 104.608 128.355
12.8989 147.98 44.4344
23.5275 94.8133 115.699
47.5654 90.4804 64.1223
25.1358 94.3193 131.075
34.8743 186.095 112.729
30.0647 146.87 111.354
21.0813 103.746 106.649
82.6722 200.619 177.393
19.4835 118.448 155.182
24.1645 127.848 55.509
9.46646 135.943 112.915
127.934 187.644 8.54568
147.54 79.5708 247.011
34.298 107.526 129.351
7.88772 96.9634 115.737
51.8027 52.2386 150.039
54.7905 109.309 40.1361
47.0298 164.463 47.6432
16.9662 78.4725 123.404
26.3244 104.584 184.491
21.0959 112.891 177.722
22.4119 161.259 84.2998
47.0273 95.4441 53.2542
48.015 199.05 68.9138
28.6443 120.278 46.0201
25.7676 76.4575 143.54
11.7149 146.552 105.101
16.8551 111.212 116.648
54.7671 113.284 181.907
6.03789 137.324 77.3649
41.1068 137.029 182.11
33.758 117.131 41.0371
12.4834 156.243 90.3832
56.9102 51.6745 121.902
15.5687 115.786 97.3312
12.4959 93.4518 99.1154
60.9034 64.2115 173.688
96.8984 123.41 192.001
34.2652 144.865 51.1169
49.6013 108.221 62.7257
56.7157 199.11 68.157
16.479 49.9443 117.6
30.7688 65.9099 90.9117
74.8514 219.983 144.906
23.3224 103.14 144.22
44.7116 216.438 195.535
18.7304 134.616 67.4962
21.4578 114.901 128.491
26.2764 156.951 40.5453
33.5745 163.485 56.3861
26.7326 85.9327 146.095
39.3908 56.6034 146.017
26.35 136.98 157.763
56.655 124.811 24.7966
53.4354 101.547 44.2918
19.1863 112.708 170.389
67.6002 148.602 180.64
23.3673 172.329 130.667
40.3882 122.001 36.4516
26.9098 180.487 93.4368
12.8426 147.222 85.2237
12.059 59.923 123.838
33.0789 176.314 111.005
34.3068 74.7083 135.742
33.202 148.002 37.8212
18.5355 158.246 66.1455
33.3866 152.785 51.5111
48.0889 93.2576 154.276
12.1357 148.938 65.7489
12.3252 101.862 98.7698
27.5227 141.029 46.3962
46.0558 87.6267 73.6358
8.59306 140.902 123.945
8.58459 113.34 62.3427
34.232 46.0321 124.555
27.302 110.426 138.875
3.44002 110.846 108.119
45.1027 218.506 184.402
26.7963 159.192 51.1956
36.3308 192.933 79.7031
78.0089 201.906 191.289
36.8104 179.39 105.462
45.8516 145.414 178.948
29.6436 102.79 135.99
35.0021 181.16 139.68
61.8193 209.197 194.983
12.6765 78.9582 94.5052
34.0789 43.9311 105.701
46.3072 218.306 208.819
53.2073 61.2288 151.628
49.8102 86.6693 168.571
47.9235 106.939 70.4659
53.241 59.9325 133.987
25.7704 92.6981 107.66
29.7893 124.321 182.359
32.6472 106.614 186.813
37.8719 136.966 139.19
52.3343 69.6522 122.636
36.6984 79.9959 143.103
34.1477 93.0545 147.457
24.3639 94.3242 124.839
17.7682 77.5598 133.871
9.41044 77.0138 121.651
21.0154 163.685 71.8134
37.3804 154.246 38.6678
25.718 141.45 101.216
10.1472 149.388 129.432
12.2519 121.325 104.017
49.0427 181.921 159.832
141.056 160.704 6.54179
20.2439 105.6 85.0128
40.936 100.395 100.159
27.6511 182.996 126.107
62.4439 79.5056 172.707
20.1994 159.378 106.945
54.5146 226.108 186.062
22.2558 155.591 95.2083
53.5714 190.504 127.403
42.8354 80.2708 79.0933
49.6074 70.6701 91.8681
10.4943 145.495 115.372
8.43513 135.045 91.6608
34.2551 162.91 46.5148
158.46 63.3069 273.562
64.6023 211.696 163.483
41.4934 71.1789 159.425
20.9719 113.365 86.4721
13.9891 82.8209 103.75
32.325 174.311 141.282
40.4185 147.569 47.9068
33.5784 134.426 180.332
7.33824 128.915 172.67
25.0544 168.751 76.4625
56.6396 49.3218 133.433
21.8936 121.901 99.7248
22.0569 137.933 53.9862
16.6206 130.077 139.229
31.5486 109.974 97.6265
15.7225 140.602 73.3281
12.4029 185.196 82.656
73.2943 196.973 85.8236
18.8656 140.431 144.927
57.3465 179.974 146.022
24.2802 50.0253 129.029
13.743 159.989 118.393
2.96866 123.955 121.776
67.2731 60.7363 168.604
24.6916 129.599 165.667
39.862 53.5922 134.261
56.2882 65.2115 117.268
32.2983 125.175 39.7874
35.8012 129.889 47.0272
34.8748 56.7249 139.692
66.1742 182.626 118.843
73.0758 66.3413 167.969
18.6021 101.226 92.5498
20.181 138.417 109.743
59.0205 139.165 23.7366
41.2173 190.542 91.9692
58.6239 177.216 50.0009
40.7193 182.699 128.422
34.5496 154.992 128.637
42.9841 83.9129 119.684
127.778 156.299 2.54742
54.9148 198.723 100.058
23.6761 154.405 62.481
19.1397 91.0012 93.4825
152.864 75.0051 268.631
14.1628 118.757 113.072
46.9703 182.873 114.283
19.3372 117.036 162.41
48.702 119.29 180.57
20.0991 94.2857 169.684
18.8949 87.8908 106.51
36.7854 81.9594 78.5575
25.354 63.8679 145.103
27.8997 54.6661 138.798
41.174 193.578 70.9768
28.5229 153.187 147.207
47.1415 46.1079 127.128
47.0124 54.7603 101.031
40.8284 91.8427 165.552
63.864 202.704 189.718
34.6377 105.492 78.6853
28.9227 104.895 105.75
32.4401 98.8458 107.397
29.3448 131.295 138.73
28.7134 109.003 90.3588
41.5259 55.5416 140.682
36.945 54.4811 97.8468
31.3733 178.45 130.804
36.5535 61.1036 153.292
53.3354 104.937 173.265
22.777 110.184 73.8024
58.275 192.54 110.572
21.2368 83.6122 115.541
137.488 45.5793 250.961
27.5746 113.541 185.964
30.5588 174.709 79.1831
21.5204 98.3212 149.839
31.9077 91.5144 175.5
22.9295 118.141 49.2554
47.6821 158.832 173.419
21.3326 227.785 180.448
2.72133 125.401 114.82
74.3651 75.2331 168.369
38.7225 74.4188 81.2928
49.7504 216.601 165.351
10.6204 126.918 111.493
28.3438 77.8002 84.2536
26.4599 94.5091 141.391
74.7251 209.072 94.2898
29.6408 112.799 128.47
41.0073 186.388 140.059
28.8856 131.257 107.516
28.4233 136.345 127.684
14.1594 130.194 94.7377
35.9454 84.8227 110.005
30.4009 184.903 103.54
18.1319 145.115 60.6312
14.886 147.598 52.822
11.1403 129.295 101.941
15.9188 150.212 98.0498
22.8933 102.728 175.652
6.53697 137.23 83.9234
31.9673 130.979 172.968
68.9117 224.01 138.273
41.3909 94.4201 155.495
20.0985 69.7245 91.4059
12.5915 119.529 57.0966
39.6866 96.5602 112.416
21.0716 57.6709 116.054
30.8932 69.9351 145.082
41.9998 76.7021 165.663
130.55 174.717 1.84229
57.1385 150.675 178.279
21.7945 146.173 163.893
31.7533 137.062 51.1383
55.1876 94.9851 164.762
21.2742 128.509 111.766
61.3401 177.88 134.89
17.5618 86.9597 137.02
54.9369 179.692 154.801
167.92 156.142 268.09
64.0738 115.966 26.1189
35.8637 145.905 118.245
3.80908 122.029 161.096
45.2154 99.7137 176.375
35.3806 171.055 54.6419
72.092 179.512 148.841
27.7335 125.73 102.699
50.1926 199.554 85.5725
60.6962 151.874 45.4598
41.683 77.8328 136.125
26.9513 121.797 132.189
57.2309 214.188 97.1945
33.927 157.302 149.462
23.3594 118.575 139.216
36.0804 79.0554 104.423
42.4251 177.17 154.926
45.4781 63.3362 92.367
29.1171 116.946 57.5296
51.2046 77.7849 169.731
14.1114 149.802 137.035
9.00342 68.395 114.358
30.0734 108.955 163.493
27.6007 94.8874 150.708
20.1065 137.449 171.501
56.8282 194.512 119.246
43.678 102.009 147.499
13.6337 62.9773 139.608
30.5836 178.24 86.089
16.1897 166.946 110.854
27.8441 168.666 86.6553
68.6027 174.58 156.446
27.2342 169.189 60.8838
48.9211 99.6891 82.4821
64.379 149.992 21.2927
21.8796 120.189 58.0943
43.8206 171.028 138.122
37.6159 63.8528 159.722
21.0145 149.775 77.8404
55.6395 141.102 31.9046
47.6699 46.4979 115.903
12.0273 85.1739 128.489
37.935 47.8318 130.378
14.9986 228.134 201.262
56.5083 75.3035 116.01
53.3283 162.572 155.023
46.2787 181.529 83.5381
21.8571 146.681 92.496
136.088 200.809 5.22699
29.6059 113.888 112.312
63.4759 172.479 43.7637
23.2806 145.119 112.069
33.0043 123.422 56.4108
25.8802 79.5922 104.808
10.7344 142.335 171.844
45.0992 197.836 78.7009
33.5417 98.9466 58.3432
127.846 174.626 13.0834
15.9967 110.938 157.239
59.9057 57.2182 163.997
41.9815 212.863 202.995
40.9249 113.049 40.3751
50.202 66.3466 138.07
39.1303 125.532 41.5142
49.1628 116.415 54.2064
77.7867 212.43 195.524
18.0876 114.224 104.361
36.4072 101.768 88.2699
11.3374 53.5467 109.998
25.3845 112.613 97.6804
15.9378 112.579 125.74
47.1748 135.588 33.9161
8.03484 132.773 146.247
18.2673 135.953 101.613
6.09525 130.449 75.9627
52.5156 125.588 34.3951
59.73 213.652 169.936
44.0587 167.768 144.934
64.6258 159.451 168.843
44.6957 104.445 91.9374
145.663 183.628 15.9395
44.7732 128.83 184.693
29.721 138.216 111.562
59.2608 57.7361 135.149
43.8092 156.87 167.982
40.4611 174.462 129.465
37.5724 125.366 182.87
41.5983 183.041 111.209
17.3919 139.368 96.4486
65.6472 225.679 192.805
48.5912 191.702 112.739
129.255 201.585 10.7292
6.1916 125.888 153.123
9.5855 141.456 89.1916
34.9312 64.5547 97.2954
35.4023 186.717 72.864
22.7515 176.422 107.321
49.5348 187.046 133.536
66.3611 195.538 113.32
24.9508 134.136 162.164
37.8293 111.764 102.32
12.6347 127.552 68.9721
57.0597 185.67 134.47
132.865 62.2152 246.496
59.0051 85.9097 170.986
44.8295 129.13 38.7188
7.34708 128.79 94.9238
41.5339 99.9655 67.6448
167.244 141.129 273.472
50.7672 57.5501 126.773
54.5813 154.072 37.5906
54.4782 169.278 151.625
27.8164 177.37 116.911
156.077 65.1215 231.877
27.2724 157.837 119.556
145.285 58.6412 272.508
58.9067 210.035 185.481
19.2005 230.334 206.599
41.3837 97.7967 83.8935
49.321 175.013 142.496
31.7878 164.934 133.013
20.3996 230.091 198.629
69.0899 191.107 123.712
52.8013 181.356 60.8306
70.9394 92.3202 173.607
38.1548 178.271 91.2898
4.3646 127.686 66.4179
36.7019 139.153 115.443
47.1659 167.897 151.876
53.527 58.5516 102.643
64.4298 162.633 151.138
27.8406 121.013 123.649
25.1597 67.632 95.1083
37.0252 148.005 95.3364
6.25766 129.78 120.212
66.2268 202.923 86.7568
35.4957 160.697 39.4114
40.0197 91.7901 104.077
42.4314 175.585 55.8007
143.806 67.0498 272.178
46.3548 79.5001 126.436
16.8083 132.53 106.997
11.8122 229.8 190.314
53.4589 110.897 49.1696
72.3488 169.244 35.9924
23.2369 180.401 113.657
49.2563 225.429 164.779
62.4836 208.576 91.9324
14.858 228.542 178.337
39.3306 103.656 56.2941
24.6266 161.715 96.7741
12.9269 115.916 137.533
48.4254 188.172 64.5321
46.2638 74.5994 84.4514
57.1031 212.22 206.748
36.319 165.231 147.359
27.675 108.307 64.2757
52.6237 161.219 40.1866
14.5709 110.462 108.043
43.6418 48.3055 106.546
33.5682 186.297 85.2542
7.50019 91.5019 109.946
165.05 162.808 270.132
137.238 176.224 14.8382
31.0525 169.831 71.3301
60.2845 108.659 32.3082
30.4356 65.1267 136.769
20.1139 77.7023 87.9675
12.3708 155.032 105.459
18.3953 185.816 81.248
32.3929 94.6208 154.588
46.5828 226.842 202.714
146.591 52.4792 233.553
46.6796 96.6398 168.779
34.0086 140.809 41.1977
22.099 185.04 89.6581
47.7075 78.7298 133.778
3.20048 131.022 131.083
42.0209 88.9596 60.3367
29.2194 111.552 59.6844
43.7203 112.169 60.9518
57.123 230.754 146.665
52.4473 211.908 173.131
44.4131 178.771 139.65
13.2695 115.22 149.735
26.3712 150.029 54.2863
15.3567 120.642 120.912
17.2144 84.4715 97.7747
166.051 75.4821 264.608
130.005 166.017 17.983
29.9498 130.804 50.2666
80.3132 222.184 196.417
46.4457 158.868 42.3131
48.0381 58.9968 167.278
41.7844 110.751 113.485
37.5202 111.814 187.386
18.2718 149.01 124.52
44.9747 121.769 109.156
39.2916 115.432 55.5718
31.7691 116.325 102.525
16.9238 170.847 96.5888
51.0698 188.378 118.661
41.9866 93.306 95.193
30.5036 136.241 162.589
135.647 196.98 11.8799
40.3587 70.9863 99.4962
47.9552 79.4939 116.518
42.1703 135.434 41.0226
32.9455 110.375 141.237
13.212 163.901 91.004
38.4634 108.086 63.9481
27.1277 119.926 145.838
8.44055 53.7809 101.949
62.1885 183.58 141.886
51.3938 71.8681 103.842
60.4337 158.174 33.8632
44.0263 190.207 125.858
140.02 154.068 1.83181
6.41047 148.028 62.3444
61.9663 186.811 128.051
42.8312 93.7687 145.608
5.4322 135.701 124.775
37.0046 65.8269 89.8201
38.9574 80.0511 128.519
135.184 49.8593 243.762
53.939 50.9373 114.184
52.2751 130.85 44.2354
33.8662 151.076 92.5705
40.4526 157.61 159.073
54.2826 226.631 196.64
71.9466 185.076 47.8984
80.5953 131.824 189.84
69.0393 183.347 133.81
33.3445 182.222 97.0439
43.0527 170.322 156.029
27.5163 107.436 71.3
23.2087 149.488 142.666
14.6478 121.458 146.729
25.4437 230.961 202.494
27.1225 162.621 124.85
134.381 159.563 9.46185
43.8254 84.125 86.4368
67.9196 56.1943 148.196
64.7698 58.6279 159.387
60.1381 175.733 151.266
17.1134 98.8722 146.487
63.9243 216.613 147.984
12.3659 152.034 111.502
52.1595 100.784 156.363
49.0808 228.71 153.667
61.9415 53.9544 147.382
28.8973 152.542 136.068
22.2948 103.495 67.6038
47.2006 134.582 121.837
53.8758 179.455 137.195
48.8197 120.051 38.0495
169.187 59.2797 262.41
61.1728 204.083 173.985
41.5763 109.842 50.6452
28.9091 170.038 105.037
52.2967 102.542 68.7309
67.6384 73.8255 169.948
65.5622 198.419 108.123
57.1407 135.586 38.8212
51.1681 178.541 146.872
45.6806 67.3282 135.603
60.7599 72.0995 172.047
30.9811 135.142 121.478
63.178 173.602 158.1
78.6181 200.76 102.667
71.6595 61.0336 153.195
42.4202 184.358 67.8533
37.6576 161.409 136.028
29.4435 174.984 99.8884
53.8471 160.061 173.689
41.1603 66.7022 85.1041
56.7318 66.5039 109.865
22.1473 124.293 124.882
27.7369 122.582 115.883
35.2583 123.647 129.878
136.012 70.6346 247.158
50.4314 145.37 32.9405
34.3658 99.6959 122.23
29.5251 172.7 123.264
146.112 177.489 7.25803
58.2287 191.174 67.2678
11.7686 145.37 56.9823
68.6335 215.612 196.172
65.4496 103.382 39.0296
162.158 54.854 234.625
44.0135 112.063 101.138
58.5107 218.646 156.886
130.245 195.216 8.87907
14.8745 153.085 55.9851
46.6299 80.9974 108.497
137.665 185.166 9.72156
40.907 164.656 49.9341
73.6966 206.966 106.714
54.5695 211.875 167.501
134.433 64.9052 252.631
55.3669 169.547 49.1028
33.7583 171.076 64.5006
161.44 79.0533 250.022
42.2255 187.427 105.094
65.51 180.829 47.0311
54.0266 71.211 130.47
48.5717 191.372 104.967
168.297 80.3354 253.647
23.8698 125.306 154.692
75.8209 163.139 33.8682
70.8203 70.981 159.109
50.2321 108.471 97.0519
13.6317 104.941 136.965
63.1912 146.572 182.82
42.9983 176.911 76.6125
43.6393 228.096 161.81
49.7376 228.878 174.427
31.9553 176.124 58.5099
143.676 39.7473 241.032
161.825 150.419 273.145
41.4443 163.775 153.634
21.1303 230.906 169.285
46.2647 95.2892 90.3779
40.8142 99.7816 77.2593
16.1872 161.651 123.866
41.3562 176.716 65.1454
39.8053 118.381 106.005
39.1 151.312 139.188
28.2166 126.435 125.355
59.721 58.0974 143.096
26.6502 97.5526 169.288
17.7546 231.231 213.929
168.806 64.1769 242.801
56.1144 122.97 177.543
60.7259 93.125 172.995
28.2851 227.039 183.766
50.3027 177.29 54.0358
63.9422 51.4211 136.687
56.9597 70.2974 98.1211
148.727 155.247 11.2661
45.1806 87.5383 140.267
77.0884 179.347 40.911
38.3358 115.586 144.63
26.5468 168.989 112.764
51.2853 152.167 130.085
38.451 72.8149 147.827
156.696 75.791 239.629
39.1478 136.634 148.247
31.1351 186.744 120.41
15.2794 139.132 51.7704
33.7336 230.663 172.22
43.5032 183.606 92.973
75.5506 191.293 117.031
32.3996 96.7613 75.2578
51.8899 151.591 173.146
74.7687 229.689 139.524
33.7244 180.327 67.014
47.748 137.485 174.528
21.2642 138.642 137.615
72.9487 216.9 204.566
75.1141 149.332 22.5722
78.0921 142.34 29.1637
36.344 166.428 139.535
45.0802 149.438 169.333
62.2148 222.983 150.088
36.1753 169.74 128.945
61.4678 151.836 173.17
73.5356 155.552 27.1871
41.9918 160.168 139.619
61.9018 142.626 173.911
73.6374 160.227 160.579
38.7288 130.84 113.884
27.0354 167.491 136.729
58.7352 159.081 166.448
68.6325 209.142 201.938
51.5628 231.358 147.428
35.8996 176.292 74.6254
61.2552 67.6656 116.861
63.5931 191.283 118.096
68.8836 161.508 31.0573
54.0087 94.7983 137.239
18.4503 158.764 130.792
16.3207 61.6708 129.199
29.9837 230.742 165.26
44.3752 114.686 145.1
154.918 187.852 14.8496
3.83431 114.71 117.531
30.2046 139.146 134.77
65.5062 179.461 152.396
39.2356 229 185.656
40.2202 154.302 164.381
36.0313 152.626 160.397
160.912 163.741 273.517
62.5973 70.3064 128.246
39.4717 230.748 166.899
48.1486 88.5303 82.0625
34.4865 133.474 38.8817
45.8379 119.034 131.404
55.3988 141.274 174.717
59.1481 190.153 103.906
58.9483 124.61 50.627
30.7754 231.38 207.887
58.3672 70.2505 137.073
65.2387 182.022 55.6785
24.6728 168.868 119.945
57.8687 187.767 86.047
27.9918 169.197 95.4629
40.0561 128.623 149.362
68.5225 82.6197 169.54
155.682 50.3291 233.73
31.3587 147.955 130.699
31.7059 172.045 132.576
76.0417 180.746 121.595
59.6995 184.437 66.0113
59.8414 100.998 47.0877
168.566 44.7642 250.138
127.443 193.219 1.36621
62.4198 65.037 137.114
18.4417 169.111 116.752
36.2753 98.62 76.7935
168.407 175.981 274.648
15.3103 160.372 87.2176
57.7061 55.801 110.643
37.468 221.453 183.678
76.6916 187.491 82.7714
68.4449 184.125 144.798
59.7852 196.304 93.8811
18.4201 153.007 105.972
72.2402 177.241 138.46
51.0952 95.2478 69.7743
54.2248 100.33 145.426
34.217 227.275 180.12
62.4966 134.49 48.706
50.0716 85.7853 89.647
55.7235 104.36 163.404
33.5142 139.206 156.758
130.796 183.35 1.37359
54.9321 115.537 38.5272
47.0169 228.868 182.187
152.619 152.43 1.4643
47.1047 166.75 57.8252
32.8999 76.0668 148.812
65.7259 139.448 42.0361
46.5198 101.427 74.9145
70.6372 163.251 165.969
1.58009 128.49 155.979
135.988 175.352 6.29688
37.0609 156.299 133.911
16.671 166.015 68.1137
44.9274 191.779 98.2008
32.936 160.637 139.062
64.4711 223.489 183.946
65.4333 160.542 43.1719
55.1822 196.137 90.0679
75.2909 203.923 89.0023
7.05205 120.854 88.6852
58.5158 163.723 43.3663
43.4204 136.395 169.786
52.0172 221.915 156.034
169.265 68.4849 269.084
59.5657 220.937 206.954
21.9785 118.336 119.035
142.609 166.801 17.5055
47.3283 171.541 50.2112
74.321 133.011 28.2726
50.9389 105.611 132.574
59.3263 60.4567 124.56
36.9483 147.212 127.57
74.9647 151.164 47.2213
7.74773 114.908 114.931
58.9403 221.956 192.991
49.718 91.0193 95.6073
