ply
format ascii 1.0
comment Created by Open3D
element vertex 1110
property double x
property double y
property double z
end_header
30.0084 46.9755 83.4814
8.05271 50.2413 248.643
51.828 97.8054 107.523
32.8642 114.022 215.08
20.352 97.3199 250.271
65.222 38.015 112.732
12.6041 45.4116 258.468
19.1733 169.656 121.366
7.53309 27.6293 236.85
46.2747 86.2452 84.6174
46.4825 94.9856 81.9468
58.9829 88.9855 130.294
13.5021 63.9055 74.3274
35.6017 79.9722 202.738
23.6041 207.963 32.1146
11.9137 215.957 64.3263
28.3011 158.802 125.388
45.1101 90.9029 91.0368
25.0773 107.963 210.918
78.5719 95.5192 139.514
16.4306 60.3816 84.5232
18.6025 225.698 49.359
53.6642 61.6349 125.088
72.9884 63.9605 139.503
24.2968 174.793 63.3135
15.4665 221.746 57.2881
49.664 107.456 90.3155
16.0583 223.639 73.6266
17.1838 52.1292 218.843
22.6451 99.2292 209.363
57.3947 182.173 194.646
15.4497 50.3449 80.5962
12.4102 93.3205 242.113
79.6812 131.237 67.883
64.243 61.189 134.987
48.8511 87.2305 74.454
53.6409 106.311 66.4207
76.4249 100.165 132.208
89.4808 199.19 46.9769
21.5916 72.3533 251.05
68.5071 113.948 110.106
42.6337 35.8 239.276
53.2975 92.6011 114.225
69.1897 90.7597 137.686
74.7103 118.536 62.2587
44.2316 49.8462 244.654
12.436 85.7066 226.333
58.9124 75.7609 134.235
11.6586 81.984 233.907
10.1396 61.4706 96.1449
33.6099 106.932 206.054
47.918 68.7526 110.16
84.2373 107.59 51.5064
75.8808 33.375 119.516
15.3641 100.835 242.861
20.5836 178.664 66.7213
38.0236 32.9627 219.336
18.3846 65.4105 97.1616
29.3139 62.8424 64.8817
81.9393 28.3155 80.8091
63.0685 111.273 59.7693
60.6824 127.359 84.8618
15.0794 57.7262 252.331
62.9655 119.751 113.394
55.8521 70.5071 129.044
40.5306 151.726 245.397
49.5408 69.962 214.783
14.2841 20.5911 232.852
15.9092 207.492 43.983
60.7316 147.424 250.589
39.0899 37.9521 225.252
34.6823 20.6344 232.373
22.7175 189.478 37.6129
23.5628 42.3988 74.2783
40.1043 35.4625 232.58
72.4092 34.0172 109.552
32.0531 113.966 240.623
24.0837 111.543 219.098
75.9083 178.683 198.733
9.54326 209.324 71.2561
68.5745 117.8 105.486
14.2932 42.68 218.042
53.0195 75.5248 116.735
45.5353 217.536 20.6438
20.6402 182.02 232.938
14.8274 57.5 225.498
55.9096 89.525 244.595
38.7508 43.6099 222.376
30.7924 113.58 233.082
54.5842 165.102 69.2847
34.4071 207.539 204.857
13.4073 119.742 266.536
68.5305 135.046 78.4615
19.6173 61.4218 246.17
14.7436 212.23 49.9579
70.9348 67.6747 46.7478
84.1178 122.3 59.4588
68.1421 97.7595 132.304
71.4494 81.2733 138.062
55.86 109.459 100.453
59.1376 183.461 26.2214
100.964 65.8938 142.697
37.6674 69.1023 59.4961
48.3748 72.2038 102.248
50.8231 81.1768 114.286
66.4403 148.609 239.782
69.953 122.626 64.5315
11.8154 85.3375 240.613
30.181 22.68 221.699
36.159 151.523 264.391
60.9807 84.6436 228.558
29.1961 56.4814 251.535
41.4614 114.397 221.447
65.1927 153.543 230.062
69.3037 157.189 220.646
18.6791 214.407 38.2721
8.32397 220.507 141.455
36.3744 128.831 94.9866
24.304 112.502 236.443
23.7236 37.9391 262.356
36.307 63.9134 75.8947
48.8506 185.81 196.099
91.8057 123.932 114.182
76.8963 119.214 113.467
13.4569 96.295 226.114
40.8602 38.4485 250.416
17.7338 219.711 43.1328
32.3458 116.425 224.72
22.0615 191.006 151.423
39.8859 164.048 115.226
51.69 85.4079 208.714
115.801 206.615 232.096
25.168 77.7152 256.494
49.9595 101.133 99.2695
16.4311 228.479 65.6318
89.0482 132.564 96.1376
59.8437 93.014 57.6483
110.667 191.978 237.833
21.0817 46.485 260.114
8.42411 38.9615 251.581
24.1954 166.136 128.377
47.5367 145.127 261.877
48.8963 164.458 76.7876
55.3976 96.909 215.981
114.026 197.783 244.063
63.9145 83.7434 137.382
21.9677 106.824 243.378
54.2452 53.7647 83.7155
35.0453 209.174 21.7754
13.3343 214.443 90.2263
11.6826 96.8195 233.256
67.8311 99.4585 53.8921
51.6988 144.783 249.771
7.06257 201.514 142.722
16.3105 58.9789 237.482
99.3744 215.391 63.4259
28.0443 187.494 101.975
85.3129 168.319 216.489
58.1098 103.425 226.096
49.9775 103.139 71.8466
59.3109 25.9912 98.9347
43.5961 198.173 114.419
33.9182 90.088 199.644
54.1363 105.153 111.818
19.9134 190.232 241.237
73.8324 154.439 234.4
32.0301 61.2978 220.978
55.2803 32.8709 94.234
18.871 193.183 96.8294
15.7297 40.4137 91.1757
20.0241 181.849 53.9816
36.7229 33.0127 86.964
54.6502 79.9742 247.058
43.8049 146.363 251.137
102.86 96.6486 140.655
60.5448 114.411 104.471
11.4028 59.6412 242.865
75.1805 113.635 118.455
27.3647 35.7952 218.726
7.1337 67.8749 79.755
90.9487 216.01 40.6321
13.9901 191.196 140.446
68.0087 127.005 78.1163
55.1998 39.3572 91.1366
66.4668 109.697 126.156
66.1658 102.185 130.65
78.5367 46.9291 131.737
105.801 206.824 203.2
60.9525 149.516 265.657
7.04348 50.4567 240.441
60.8602 169.934 51.4437
50.5282 65.0822 119.032
65.6359 22.9188 98.3465
24.5532 51.5072 218.132
65.2488 72.417 138.499
54.5781 147.491 271.095
86.7176 90.778 143.404
102.18 75.8508 142.391
86.3213 80.0083 144.563
89.5423 164.365 257.682
62.4607 165.195 209.838
6.576 210.461 136.113
8.52225 67.0501 92.1376
60.4479 91.6417 228.734
99.8038 211.976 73.0075
81.0062 100.192 46.4609
69.6695 147.931 248.875
90.3265 189.354 69.5027
41.454 31.551 245.161
33.7804 101.164 253.079
24.6977 52.3177 224.945
18.5061 109.635 259.301
50.248 151.298 231.668
35.3207 21.3742 244.717
16.8008 70.5451 240.096
96.6306 87.172 142.742
23.723 67.319 244.759
63.5608 158.912 216.404
40.5349 218.361 202.865
24.7508 165.655 270.217
19.9566 84.5307 211.097
48.184 84.122 95.2885
39.7794 115.28 231.043
84.1856 115.669 128.619
20.1289 197.275 157.593
46.0805 169.037 46.3814
13.1108 75.6826 244.979
11.3365 201.579 65.1216
77.4693 86.2443 142.839
21.2847 26.3061 256.615
22.4635 205.643 102.779
108.105 200.268 266.263
49.6799 75.4719 209.609
112.337 214.327 207.02
54.6066 166.669 206.729
30.6433 69.1063 253.371
27.9721 39.4704 212.546
111.069 222.646 244.172
26.4332 60.0324 102.579
24.4167 166.959 238.37
110.185 228.462 228.935
89.0874 130.186 68.0714
22.5566 58.3103 255.072
68.4937 148.982 262.251
31.7274 48.2045 218.972
31.0059 29.9472 257.29
37.3523 57.9936 252.876
114.62 214.544 256.614
40.6768 62.0442 212.803
67.5285 76.0706 47.4557
44.0642 46.0892 234.656
20.5387 199.742 169.552
45.4059 147.425 271.485
21.0558 35.8654 90.2395
7.35404 8.63817 190.125
25.4204 218.668 133.87
25.5743 63.0333 89.4057
71.2774 119.404 118.501
73.0948 125.361 103.797
16.4282 103.716 235.858
44.7572 223.777 110.813
60.5638 108.216 108.884
45.8761 36.392 81.3992
22.0144 43.7689 213.959
16.5731 201.831 176.724
53.0562 100.432 242.741
63.1858 64.9762 129.251
62.5227 65.817 52.2779
57.7884 41.8633 109.998
89.4327 113.444 125.828
86.2141 35.8517 118.323
65.7268 31.2448 106.194
112.816 198.039 226.565
48.9679 92.2881 204.097
59.9558 221.159 116.002
9.99331 31.7392 254.02
23.782 222.047 35.2572
91.3681 123.57 122.144
62.2545 96.7642 232.565
30.4858 172.891 88.9143
57.5898 78.0284 216.327
79.2354 54.6367 133.301
57.7194 145.28 257.422
20.7652 191.734 232.713
34.302 80.7164 254.831
32.0445 222.242 152.743
85.4367 175.048 210.238
15.3805 190.901 147.865
83.6772 106.568 132.499
96.9875 199.345 79.6878
21.8315 173.43 270.766
105.576 56.6474 134.597
69.274 221.287 191.544
48.357 104.944 246.188
35.0032 55.8889 98.9394
24.5926 112.412 260.192
20.5389 67.9909 57.5413
98.4385 130.164 109.232
15.5316 77.9453 221.219
98.4139 127.103 117.026
112.958 208.884 217.193
27.5442 61.5778 53.9611
62.3734 46.7522 117.193
68.2222 127.657 90.5183
28.0421 210.848 111.269
106.449 187.216 222.127
40.0246 171.101 119.153
27.6012 172.348 225.009
73.7381 103.221 48.4286
91.6121 190.38 81.1544
20.6023 81.0623 253.583
30.3151 44.814 260.845
84.1648 63.0346 41.5211
16.6058 166.077 112.26
46.0132 48.5527 81.288
44.1476 79.2949 203.898
95.0976 95.4257 140.283
113.899 219.091 223.892
77.8011 185.201 34.537
59.9262 92.5021 238.537
95.3427 170.907 236.717
92.3151 217.268 87.9795
25.7925 64.0024 223.938
50.0273 79.6637 80.1556
16.0959 198.684 49.4325
99.2333 220.661 73.112
24.8072 186.195 126.535
69.3571 133.446 94.1961
51.1957 55.0575 111.154
48.8837 109.513 217.463
126.376 95.5412 130.372
32.5956 225.761 270.455
46.4765 222.456 202.116
38.4534 27.7066 251.708
67.9279 180.556 32.0922
79.672 179.907 54.4323
51.6991 62.041 92.7391
96.2598 107.582 136.494
45.1351 158.066 220.722
97.8585 26.4683 96.9573
44.0349 167.053 60.9761
61.5277 101.615 56.3464
36.6879 228.869 114.663
71.2904 167.336 206.331
12.024 199.547 154.49
79.8228 128.754 97.6384
60.5114 97.9512 126.169
65.0535 174.238 199.469
88.3928 100.077 137.632
80.4667 130.805 104.251
36.8635 50.2587 231.246
34.1141 218.857 158.421
29.0356 212.913 219.965
14.232 51.4406 91.5876
20.7646 185.371 139.564
87.5722 67.6623 137.88
31.3417 70.4541 204.954
57.6494 85.9796 62.5598
17.0652 103.78 158.664
58.8381 201.185 188.61
74.1932 110.144 125.615
41.6204 96.8896 202.323
45.064 179.77 27.6044
52.5249 111.022 227.276
24.3838 75.7014 208.923
72.8031 94.6562 46.2208
90.3559 227.151 75.5757
10.1335 201.914 112.748
54.5441 78.8235 127.317
35.1797 219.059 146.468
123.151 82.9519 134.583
86.8926 34.5104 59.7416
15.7824 206.518 98.23
48.0446 92.2884 251.603
88.8182 71.4306 144.853
99.3799 26.426 104.128
23.6774 114.088 267.51
16.8327 50.4888 58.9511
27.2511 34.3189 72.4505
114.859 41.3078 122.26
5.966 43.7664 209.358
20.6075 197.223 39.2441
12.2504 25.2446 247.552
52.8148 196.604 190.891
26.6995 223.857 240.144
51.0546 171.422 42.4717
27.1358 205.28 26.5503
32.6597 97.4969 201.387
70.1242 53.8375 131.394
39.8371 146.356 258.669
28.0215 37.1279 91.0471
109.67 70.178 137.671
110.967 225.452 216.659
41.8349 62.4898 62.0612
55.3965 118.549 93.1684
80.9238 65.9519 102.861
80.4857 61.9936 49.7611
95.9176 202.149 59.7111
57.6713 60.9364 62.3885
33.4044 55.6792 233.248
69.4 38.2626 125.211
56.6979 69.3913 63.1137
76.6662 129.637 76.917
58.4993 82.9119 55.4386
83.8166 27.5969 69.3761
48.1515 77.7911 93.5757
25.6645 187.765 165.032
18.0604 87.3726 252.972
53.5777 43.221 100.545
38.672 223.949 210.088
63.1951 57.918 57.9999
80.0146 116.906 53.4325
101.591 102.288 134.49
30.101 229.896 112.874
83.7776 22.2526 98.6123
16.6848 209.583 93.8375
45.3109 111.692 234.581
40.937 110.551 244.442
34.6808 53.8168 64.9416
36.8297 174.681 41.6079
20.9071 60.0678 209.173
69.635 108.864 53.2354
79.5323 160.913 225.375
100.828 114.5 53.5307
55.7482 48.2458 90.5451
115.497 211.462 224.785
19.1674 59.0779 60.3133
66.2022 189.749 22.0726
43.2918 153.839 229.187
56.5435 108.98 234.033
19.8515 191.9 264.148
45.9246 55.4914 235.171
38.1551 204.887 140.776
73.6435 130.378 83.9925
107.397 112.897 128.66
54.31 47.4747 117.605
29.2554 167.982 77.2105
87.1783 184.277 75.3713
20.7498 29.4665 222.268
33.0811 67.9983 83.7407
107.032 219.705 206.845
41.2279 102.516 250.604
37.0552 40.2504 183.166
42.9127 207.959 198.442
19.6121 181.582 267.892
76.5536 23.3222 92.9549
19.9459 107.399 223.606
57.8147 203.92 16.7753
70.4817 30.7747 82.1106
38.3814 45.1169 257.316
23.7282 197.98 226.34
37.1921 170.23 50.223
109.269 30.4506 94.1535
86.1453 23.4162 79.0831
100.527 81.8495 145.973
39.2391 45.5578 91.4199
40.6979 42.9729 54.8496
65.3713 47.977 127.229
57.3947 87.339 213.907
49.1025 207.519 16.7392
5.61107 37.4739 237.839
27.3237 63.0428 79.086
60.4559 107.252 117.517
51.5135 65.1194 85.6915
33.0738 179.457 96.6566
105.303 227.26 208.054
77.8271 112.449 130.972
20.0596 47.6158 85.2135
40.9135 72.1403 253.045
8.89315 193.737 145.777
59.9039 36.3058 85.4876
9.32968 201.886 166.064
54.7237 58.595 116.916
91.9165 64.5096 42.498
79.3467 25.275 87.9427
31.6037 49.9558 107.044
98.8666 52.7646 137.436
88.2114 71.4701 43.8114
66.536 66.487 59.3727
65.3556 92.5387 50.979
30.4722 229.657 99.0839
52.4434 169.888 85.6293
62.2757 72.0652 63.5031
33.008 58.1446 241.862
61.6205 215.255 189.087
75.8537 125.668 115.532
26.7452 171.303 71.1892
56.8178 98.5376 120.354
26.9258 55.2934 51.2729
53.7635 93.0184 123.958
20.5218 218.71 104.62
69.6809 184.375 192.12
77.8192 87.0666 43.951
97.5902 34.0325 60.9868
31.4817 35.7192 186.027
61.7898 38.5991 78.3995
60.2659 56.3954 127.95
70.7775 58.6647 47.904
100.785 179.023 230.409
16.956 55.5425 100.807
78.1597 25.6316 106.423
31.7184 37.7065 258.702
21.2355 115.297 149.536
47.3317 81.7508 106.445
56.2464 61.8214 72.2608
31.3495 85.0109 258.168
34.6599 173.658 210.574
51.3126 45.3207 106.904
84.6937 167.938 224.717
44.6179 170.837 207.97
37.0606 43.4357 78.9291
86.2437 79.4074 42.6222
90.3849 56.9405 43.5514
30.6934 198.302 209.567
35.8903 226.215 217.475
44.3647 175.565 35.3681
87.1401 200.665 95.9698
58.0456 51.6191 79.1747
38.7798 202.145 199.519
82.5197 72.4772 105.627
29.0911 178.998 38.4869
76.8449 32.2025 74.9469
41.1137 28.481 228.523
29.8299 28.9337 216.991
64.5293 41.4532 121.5
42.7607 83.058 254.722
37.8483 212.412 114.824
113.132 47.8527 129.868
107.429 199.303 209.052
19.766 35.8336 59.3179
9.09189 73.9673 87.0282
57.5078 213.722 18.4442
7.05925 98.9753 107.701
78.3653 178.01 67.218
19.9792 227.173 99.7853
72.7853 188.484 25.9567
22.3648 66.3103 70.7705
28.657 157.046 265.051
97.1921 202.859 72.2274
123.223 35.5055 89.0715
108.849 207.854 267.374
40.0164 199.917 21.2076
18.4024 21.3091 223.469
22.615 49.0455 78.0701
20.1772 58.5006 230.434
31.2177 195.707 110.735
22.0597 174.551 108.344
89.257 162.201 247.628
72.7717 210.976 187.469
56.5214 156.658 219.545
98.3808 73.2144 42.9798
81.956 125.873 118.538
10.9438 201.671 135.111
52.3033 70.5161 226.319
94.0884 79.4928 146.153
24.625 20.3279 249.792
15.4789 94.1894 217.949
10.7902 35.1397 221.598
42.44 188.399 20.8736
31.4479 209.519 127.094
64.6438 125.971 99.5824
86.5472 186.273 60.6411
87.0757 22.8333 87.8499
69.4639 85.5028 46.9772
46.2026 103.611 207.531
58.8575 53.9743 120.465
133.674 95.3372 112.143
15.7843 55.518 52.3193
97.2958 211.585 54.9685
20.2874 177.157 244.863
13.5145 84.5845 248.813
84.3423 129.527 75.3217
97.6519 209.441 82.4069
24.1441 200.749 108.614
44.4971 230.07 210.037
9.27947 45.4758 222.146
71.0425 193.313 189.23
38.3625 182.164 104.145
72.5522 129.49 98.5555
99.8008 35.618 118.284
92.2944 221.912 81.3485
21.9529 212.898 109.646
16.4569 58.2144 201.696
81.6131 47.643 48.9219
104.175 223.341 265.701
24.2879 38.2466 66.6789
96.8789 30.2556 72.3227
42.2392 174.91 95.264
87.4221 222.149 94.3221
63.1229 85.5443 49.1785
76.9542 138.02 81.3742
85.3191 37.5554 126.915
59.2041 47.1145 73.1976
24.4937 59.3305 262.633
7.53883 133.657 225.393
36.0346 171.78 106.242
63.2771 32.1995 90.8889
70.6592 35.7768 73.484
23.6326 90.1495 255.719
21.7143 70.1684 261.043
94.9811 113.195 132.577
20.7902 62.2881 273.598
107.117 40.7651 57.5242
15.797 115.571 156.917
98.2404 202 193.544
107.894 47.8889 52.3959
59.1871 117.917 70.2869
57.7198 209.392 191.213
36.3472 64.573 249.107
22.0609 69.6297 213.871
39.9436 69.3778 207.826
26.3285 173.678 52.7146
29.6037 52.5066 60.1342
6.1403 30.8635 226.621
9.73865 228.966 141.597
90.8973 48.2393 133.317
82.7117 129.795 112.047
15.4928 230.013 74.101
110.75 60.4927 130.027
59.7829 116.551 77.0574
10.6683 204.467 127.55
95.2193 174.619 223.649
51.5005 86.915 119.451
51.0191 165.976 56.9747
93.0624 131.866 103.238
76.567 152.467 244.078
111.986 122.451 121.697
12.5811 112.272 258.648
45.5256 35.3942 73.5304
12.9515 218.173 131.824
14.8587 54.2809 192.326
77.9189 80.4851 143.015
57.8739 153.406 225.375
59.6765 175.176 36.4126
85.5792 137.066 76.0493
58.3692 147.764 235.237
114.971 209.835 262.111
46.5951 162.263 64.5853
95.1245 127.166 62.6059
22.7654 43.9096 96.041
30.5112 221.121 223.052
94.1519 196.985 70.3522
59.9262 103.468 236.792
20.9338 159.627 119.146
8.66257 52.8138 204.488
63.59 50.0982 67.3274
29.5716 208.758 212.604
34.5645 227.374 105.638
20.0341 214.092 127.205
56.3886 203.156 114.963
72.6227 32.2661 68.2027
13.5836 204.73 78.9386
91.839 122.075 64.7936
41.316 191.858 198.771
23.1264 17.9701 238.277
11.8049 26.5717 222.072
105.786 40.2908 127.771
19.8587 33.2293 214.483
82.0682 65.4755 141.552
49.729 60.1925 101.431
71.4876 47.1846 125.405
62.436 168.944 59.4455
71.0781 55.9984 137.387
68.0638 203.367 187.1
48.1624 60.3577 258.388
7.8506 19.3071 76.322
72.4269 27.4677 102.157
16.0659 69.8634 85.0064
37.2465 212.176 147.518
106.342 86.312 137.21
98.2908 117.998 123.12
95.251 81.7366 41.9405
25.353 68.4278 50.31
104.808 25.4298 92.1798
100.244 57.7882 44.073
85.0653 122.191 122.147
47.7946 228.214 114.87
35.4114 201.253 113.187
11.3475 19.5038 55.8828
15.4712 195.663 85.5189
58.2804 224.937 195.607
93.9783 223.972 67.8008
69.1699 28.6628 88.4338
62.4401 227.393 107.87
6.70638 168.727 108.721
33.0965 38.9672 60.9401
113.947 34.6625 114.719
37.3544 37.9162 92.5236
107.698 127.991 85.5358
21.7996 41.276 86.4251
90.828 45.5245 50.1307
21.3152 66.7646 235.481
15.0325 216.272 81.841
27.4014 45.3271 62.8675
40.1299 166.124 213.758
16.4645 36.1251 260.8
123.988 60.8419 129.991
23.5086 168.83 260.393
11.0211 213.972 76.4344
8.55849 75.4544 76.4891
30.494 103.907 187.279
32.7869 172.773 218.021
105.286 129.175 72.7024
33.6685 207.928 156.149
58.2985 8.50979 139.542
7.69792 199.998 258.217
89.2394 98.7817 49.2986
81.7938 183.405 42.9406
32.1027 61.6926 214.525
39.6353 204.058 149.673
65.9459 104.756 120.206
106.572 62.9723 136.997
100.188 215.815 79.9444
73.7203 73.6963 143.629
74.2994 177.186 45.6768
116.013 83.4742 139.202
83.5954 194.834 32.4327
103.758 192.734 205.989
112.292 36.4373 108.129
8.13482 205.45 255.96
91.5317 91.4058 43.1468
32.2021 66.9626 55.5098
52.6788 160.115 214.313
52.5361 66.259 239.219
25.9352 87.1208 204.039
22.0442 199.227 270.17
68.2751 51.9085 51.9049
75.8483 153.26 263.073
94.7927 213.023 94.6329
73.2575 199.945 23.2237
126.57 115.015 119.931
47.9523 61.686 233.779
27.137 52.8948 259.489
106.221 49.0781 127.039
23.7219 216.208 247.818
78.6607 224.19 190.798
105.83 33.1208 104.188
31.3066 229.198 34.1002
38.751 229.836 273.48
29.4554 228.272 258.21
26.7749 181.164 219.038
30.2223 70.2122 72.8042
28.2433 71.9372 58.0549
94.4517 203.395 89.1471
58.7635 81.0273 222.484
29.5392 94.2061 255.191
102.155 177.538 258.649
19.6072 182.326 253.873
29.5581 199.557 159.022
28.1895 108.609 242.719
41.7868 39.9316 74.1252
39.4443 60.2117 237.868
78.4457 132.011 90.2966
43.9844 186.151 108.025
17.0848 111.093 272.275
52.0795 207.576 191.81
69.1886 76.6667 73.5915
15.842 190.002 72.3806
107.512 189.93 265.001
27.7683 215.047 160.448
128.765 98.7298 116.759
82.5032 190.919 92.6907
24.1565 19.6843 226.54
15.6343 225.628 85.9835
57.7296 114.285 88.8849
93.3017 63.0624 140.798
66.8245 230.227 198.553
15.7869 103.677 148.468
17.6425 224.93 140.195
39.4335 169.838 83.2911
53.4359 185.992 107.949
23.4424 55.3937 107.223
93.0732 108.219 54.1892
56.9133 175.639 92.195
51.1188 191.747 111.508
35.1153 191.837 204.687
35.3567 157.73 230.269
43.2788 144.132 95.7975
92.5372 210.019 48.9457
79.8608 222.475 104.115
34.0777 222.119 116.293
16.8076 21.9137 49.8821
35.921 154.018 273.39
61.9748 188.814 190.587
30.5512 66.1251 210.208
27.5269 74.6337 70.523
100.545 176.276 247.039
109.812 102.963 135.677
27.0438 43.6823 55.2452
38.6738 40.1692 66.4491
65.3538 174.277 42.0997
76.8192 178.307 78.9629
33.2615 74.738 64.2466
86.3806 186.194 84.6821
106.202 123.123 63.784
73.4094 77.2895 119.802
111.473 195.889 211.578
97.4585 212.455 190.513
33.7766 50.7399 72.7404
120.759 50.0662 124.23
27.3 219.692 113.48
109.476 218.246 200.498
103.322 124.658 121.163
81.0688 205.762 28.341
17.7648 154.739 96.2191
93.5346 175.735 215.347
97.8995 117.083 59.1555
69.7296 229.397 105.763
57.9634 39.5336 101.832
29.8349 57.4291 99.6518
37.5904 159.164 224.545
40.5765 56.5725 221.891
40.2725 38.481 82.3492
86.2037 88.7724 43.5399
114.733 218.351 233.688
64.0013 124.385 71.2188
36.5819 195.299 134.345
50.3169 65.897 219.06
13.1286 205.642 56.3979
32.5371 218.035 138.042
78.4081 204.972 185.727
48.4404 108.499 80.7143
18.877 61.3479 52.1149
36.5303 60.4606 272.635
99.3499 226.654 60.5228
33.243 57.785 77.275
88.8024 127.166 108.095
32.2788 44.8586 99.1736
109.464 27.1865 81.4187
101.263 104.755 49.5691
105.698 125.346 111.19
48.3672 58.5679 243.789
72.2988 40.4309 59.7738
105.963 183.118 244.644
113.038 200.634 257.115
103.179 210.87 197.043
40.1865 57.3034 83.2226
75.5016 111.444 53.7374
33.648 49.4655 206.989
103.942 229.41 61.5276
118.798 102.604 128.96
70.6202 27.538 94.6571
30.6959 35.3236 67.4901
32.6421 52.1789 52.0815
30.2589 197.259 22.9119
18.1681 45.373 94.1876
35.2395 230.971 227.859
55.9203 229.55 111.264
9.25506 89.7006 40.6828
31.6133 36.5673 84.5249
109.036 220.159 254.951
15.8186 46.4742 270.627
93.6608 133.308 75.9296
50.8551 217.988 196.548
73.9404 65.2696 111.234
80.8941 156.52 252.348
70.4589 179.772 92.9323
43.7051 71.4987 271.382
114.757 211.066 246.654
68.0635 78.66 53.6104
94.1375 34.3394 122.969
28.3124 192.651 29.3354
103.409 29.5119 85.1918
90.2502 183.049 201.317
64.2107 219.225 50.5968
111.109 216.676 264.635
23.5053 206.116 162.538
35.2628 152.049 253.683
98.6196 43.3399 52.8136
71.06 211.12 23.5574
74.9912 51.6112 50.0949
106.716 228.167 255.519
115.844 32.5512 95.5734
54.738 51.7983 124.336
18.9915 67.4634 226.051
83.4881 185.675 47.3732
29.8588 174.57 44.3341
49.1248 176.381 201.978
51.3452 62.6989 110.1
10.1471 151.46 28.2579
28.3335 161.548 273.983
54.4055 71.6318 71.048
114.908 45.0991 58.0878
35.7583 180.667 204.018
93.068 192.899 195.28
32.5614 32.9465 71.8054
74.6772 26.7312 78.9266
90.931 208.524 188.987
113.901 91.2014 137.196
30.6856 156.301 85.156
27.7272 169.216 101.786
60.2705 79.5599 59.7928
47.285 230.199 105.261
119.929 87.6709 129.834
30.6348 147.253 84.504
23.8512 207.696 170.137
63.9037 36.9885 94.8885
31.1661 155.602 249.828
63.3779 229.576 74.6018
80.2514 55.7484 140.058
62.1914 35.5595 102.44
93.7756 222.093 48.696
26.5352 222.575 106.897
51.4949 113.885 77.0054
83.2114 221.215 35.9773
46.9994 60.5447 223.082
89.1799 170.111 273.468
114.634 215.073 240.036
62.4264 170.985 78.0506
114.783 127.772 113.999
119.663 96.2862 134.652
34.6847 162.015 274.241
71.9253 223.931 112.753
70.6091 47.6555 62.4946
117.224 67.2707 51.5788
62.3101 57.3707 71.8
99.5807 115.755 96.6079
30.2457 231.134 235.505
133.059 39.2312 83.4213
34.754 154.821 240.005
49.2847 167.228 208.417
27.3717 163.52 257.326
76.6822 211.841 108.129
82.3985 182.883 91.2019
119.589 118.268 66.2961
99.2898 130.477 70.7972
128.151 105.328 55.9744
22.6719 205.391 255.537
92.6544 136.205 88.2942
82.1817 229.205 83.1743
91.5361 196.186 87.1804
101.986 132.465 80.7011
20.5739 215.512 162.09
21.1521 162.221 104.567
97.7999 86.143 45.4502
26.9757 166.001 232.537
36.8457 210.475 138.111
46.3265 43.7864 69.34
30.1817 175.248 124.325
41.3318 137.317 264.222
117.439 70.1209 131.796
105.508 37.5122 64.1916
116.838 119.849 116.611
41.1752 52.4576 53.5889
88.4494 43.7664 129.171
31.8209 100.621 181.461
103.112 230.715 214.878
43.7739 56.8152 58.2835
40.3714 216.462 268.339
94.5136 25.1424 87.7383
110.91 40.2234 65.6179
51.5656 95.7638 68.3099
35.5604 166.585 68.32
103.326 183.145 261.502
23.8631 231.069 105.567
78.8531 64.7739 93.2628
116.915 57.5131 130.793
80.3308 41.0956 57.9548
17.2907 230.883 96.0958
20.9884 120.278 269.092
90.6937 55.3651 138.458
88.8015 131.673 84.0738
121.512 117.961 119.871
16.7263 154.708 13.7611
113.725 116.565 57.4601
132.463 94.1265 125.386
97.7073 185.402 209.018
47.2239 51.7026 138.771
104.076 191.373 271.527
138.093 78.3753 104.726
105.421 48.724 134.135
9.3471 11.5948 225.614
100.432 197.629 200.016
27.7858 215.873 274.127
47.8989 74.0464 249.098
24.536 117.448 102.988
95.7783 100.112 46.3923
116.951 130.913 100.056
138.574 89.3697 108.224
47.2111 230.301 27.9132
99.3112 32.6515 112.89
96.8006 28.4256 82.7684
37.0784 160.683 92.3675
11.7721 56.276 212.524
56.7708 191.13 20.6972
71.6347 42.9234 69.1464
20.034 182.007 79.0076
136.718 99.1316 105.769
56.2725 228.555 117.77
134.932 69.2974 111.099
13.5912 20.7384 65.749
72.4602 155.391 274.065
78.4629 76.9909 108.86
126.649 73.8981 133.149
47.545 198.351 19.4291
107.55 63.2493 47.6475
58.2486 64.137 162.939
100.457 50.6988 49.082
71.3334 174.011 68.3336
120.243 127.884 108.927
55.5659 78.1346 234.466
22.369 53.6487 200.824
14.8538 61.7564 272.937
88.425 226.647 40.3529
85.7248 213.089 103.817
33.8269 45.813 177.671
11.7113 57.6189 264.323
28.8493 158.411 243.898
11.5309 50.5884 230.18
97.3144 227.923 55.3701
58.9269 120.395 100.673
77.7079 73.8181 113.944
40.4174 65.9804 274.465
113.097 129.218 108.017
67.3991 186.34 101.996
93.4784 36.5039 55.5948
77.1716 228.495 110.875
100.523 222.671 201.037
105.547 84.063 44.815
112.912 118.656 67.8569
127.174 42.9729 108.884
83.0307 191.549 191.023
118.715 112.21 58.428
65.9005 32.7455 84.207
81.6973 228.593 89.8816
27.4877 231.358 88.8968
85.097 197.8 188.61
59.7193 54.77 67.1045
76.86 38.174 126.034
126.002 106.901 126.589
61.4096 51.4958 176.24
107.807 96.9922 49.8521
108.295 230.86 236.978
19.9577 145.612 93.3395
15.6482 200.715 59.8324
75.4952 77.3919 44.3339
87.2572 222.562 101.364
119.913 37.2309 104.077
128.378 123.336 108.049
53.3241 93.4739 62.6433
44.3884 62.603 246.294
45.1552 67.0667 245.261
7.43794 49.6632 233.991
115.669 123.974 76.3959
136.089 103.868 61.727
87.9868 228.438 94.1285
39.9745 77.4608 265.912
92.4159 230.623 46.4924
51.2162 53.0717 102.848
131.206 84.465 126.479
105.297 111.196 95.8915
124.191 127.879 98.1742
9.61964 210.152 104.391
34.0241 186.112 28.164
36.7305 186.88 270.047
48.9215 49.1264 64.5422
59.9484 229.958 29.841
29.6948 156.102 256.385
115.648 101.084 134.901
22.553 202.273 249.013
56.2633 178.645 98.9771
119.524 41.2981 64.7348
6.46852 52.0559 229.747
16.2277 185.991 159.519
43.8841 229.438 119.641
109.974 110.523 51.8479
123.412 58.5224 120.274
24.048 162.071 88.4182
47.9026 50.526 56.8663
54.8692 231.564 206.91
126.34 37.145 81.9338
64.5901 207.184 114.703
52.2468 230.281 121.173
105.461 215.316 270.441
82.1248 130.686 84.7852
20.7567 90.6201 172.399
83.7278 30.5388 106.762
53.5452 113.279 71.0176
98.4178 182.808 274.726
136.706 48.0516 76.654
90.922 230.178 56.6816
88.7482 30.9249 109.278
83.1295 205.565 102.4
19.5075 126.526 274.631
37.7669 54.6004 73.947
51.9313 192.786 20.9524
24.0545 178.49 86.2292
9.41986 14.0334 221.686
17.4986 182.131 247.938
70.4948 53.0383 170.122
6.6406 159.55 5.48993
13.2249 63.3559 261.44
34.345 198.912 169.185
51.2501 221.844 274.72
86.1602 221.847 192.836
128.726 55.8472 57.7098
134.804 98.5492 55.8791
88.5417 181.246 266.891
52.6954 231.399 78.4593
54.2626 117.013 98.7898
88.673 25.95 107.301
20.5372 225.632 90.492
116.941 96.9593 48.7484
44.2673 53.5576 65.4029
79.2029 61.1245 82.8682
16.665 94.4537 60.0679
36.1228 56.251 264.325
104.137 200.703 274.841
120.922 46.9856 114.047
32.9233 29.9565 185.84
