ply
format ascii 1.0
comment Created by Open3D
element vertex 346
property double x
property double y
property double z
end_header
34.6311 149.542 142.553
4.52551 157.919 109.512
10.403 189.024 101.02
7.49576 195.429 63.0448
3.95704 124.761 27.455
14.5862 76.0934 59.4959
25.7614 87.2855 71.5197
4.74609 115.796 151.563
8.04161 185.734 89.5872
3.80353 206.712 140.311
2.94174 183.256 154.276
39.5783 136.057 115.829
4.35449 102.458 156.069
3.95646 166.493 98.6291
33.0326 141.277 75.3634
3.8394 152.923 164.318
21.9229 100.37 42.5301
7.79027 67.7171 67.7932
3.9862 191.95 149.879
4.83919 182.945 59.6442
22.5163 201.693 102.759
5.88575 66.1388 56.5334
17.2442 101.319 159.531
3.75426 95.1432 104.295
4.11715 86.5453 94.108
17.2321 149.207 20.3591
30.2483 117.599 88.2613
4.2874 101.263 95.8778
30.7284 133.794 92.3672
22.2927 81.6733 78.0636
38.6575 112.958 93.6948
3.12536 47.9007 214.069
42.2311 60.7226 85.3373
31.6753 133.905 71.9283
15.2837 201.581 103.589
8.06242 190.747 80.9675
13.2275 166.723 124.316
33.4267 185.143 83.1752
5.00528 229.79 103.541
2.95334 202.213 128.991
3.28197 110.024 56.1355
3.08464 64.9312 94.8302
9.06739 211.329 96.4343
4.14062 169.545 115.791
33.3925 139.009 57.7202
26.1038 101.39 49.9007
5.21615 203.633 74.273
29.5204 148.121 152.711
32.9839 155.512 89.6366
20.5523 172.14 128.223
3.04508 190.735 68.338
4.61195 206.191 84.8812
4.8835 181.432 106.516
8.08753 62.4107 104.626
29.5002 82.8137 102.432
44.8026 125.591 118.154
3.79524 131.898 119.136
13.3681 172.912 117.975
6.35111 85.1508 40.2159
25.9599 164.936 128.914
17.4214 200.343 135.346
30.0055 174.454 112.727
3.62354 115.869 103.49
7.71067 100.126 75.8242
18.8049 218.655 94.013
25.8881 79.8615 89.3698
10.4456 135.253 112.862
24.5034 210.174 107.371
3.1931 124.273 158.508
22.0192 117.746 36.4307
18.562 124.322 167.803
12.563 141.464 161.789
28.7659 129.442 42.4252
28.9731 156.758 133.512
31.0091 92.4957 77.9038
44.5262 106.429 98.206
30.3749 104.007 98.4603
22.0466 110 55.7116
3.55945 140.378 29.8373
33.9252 166.191 136.746
40.473 100.851 87.8618
12.0142 93.9135 70.3009
7.35931 102.338 112.762
28.9262 107.671 85.8703
4.42975 133.588 46.3406
7.36464 171.271 52.4969
18.2831 70.1041 131.219
3.54555 142.287 166.05
6.84102 117.41 160.871
36.738 157.358 124.547
22.6526 179.395 148.212
25.5662 185.007 104.471
6.94599 203.584 103.288
31.8038 93.4831 87.1505
40.8299 94.5926 103.141
3.03226 145.41 114.029
4.14515 96.9111 61.0869
24.3882 90.0463 88.4251
36.197 88.3581 97.3516
19.8262 155.397 129.891
3.46085 108.945 31.1846
23.645 169.461 100.089
14.1891 128.762 117.01
5.12874 155.003 127.479
32.0271 132.203 83.9653
96.3247 62.9949 163.151
24.9449 96.9211 147.727
3.41032 228.447 137.651
46.5739 110.975 92.6492
37.58 101.349 75.3714
18.6922 147.105 161.644
75.5582 84.9274 195.977
5.9333 213.567 132.49
29.4109 118.026 57.9339
34.4737 188.647 99.0118
33.5226 115.053 80.8387
34.8504 143.851 96.1129
5.82643 133.849 160.845
9.89054 99.9449 100.416
11.9867 165.712 133.377
8.80345 76.084 49.6164
21.4126 172.424 137.229
8.62305 188.587 142.808
4.68235 91.3614 130.276
29.0227 108.568 72.9497
5.05978 224.816 125.34
3.14665 133.263 131.027
10.35 196.137 140.3
2.77825 194.41 105.271
23.8404 142.816 39.6905
19.0814 69.4999 96.5501
126.438 209.61 31.4266
11.5781 52.2348 68.944
29.4399 157.17 143.471
11.8812 202.133 96.195
8.93647 128.028 32.696
6.48577 138.325 36.8065
27.6835 118.544 67.8886
36.0351 181.676 106.792
3.02133 161.858 48.0459
6.61091 165.974 123.452
33.839 147.707 115.788
19.1366 218.972 108.852
32.2546 129.01 64.4391
5.25807 97.2974 143.852
15.9165 203.224 88.1945
19.4711 122.7 102.797
4.73695 92.7269 123.875
6.99745 126.192 121.833
30.9409 191.74 112.722
36.2856 117.938 56.3261
26.7784 128.544 100.595
77.081 95.0219 197.297
17.287 118.759 155.936
32.0305 122.116 65.3958
10.1595 156.627 42.5049
22.5668 127.865 158.376
17.6506 111.902 98.6059
8.24959 168.753 110.643
4.86068 73.1452 108.697
2.32161 146.004 153.733
34.9992 90.5288 110.071
39.5906 100.48 114.617
49.5314 123.216 85.6756
21.9151 85.4664 134.018
11.5008 107.16 155.818
28.7858 141.673 105.509
7.74222 75.5112 150.442
33.2352 125.895 47.7457
2.30752 71.0347 152.959
46.4547 130.765 83.7011
39.8551 126.967 132.596
16.2677 94.486 57.4375
27.5834 147.821 119.566
37.4711 100.785 81.9997
19.594 133.723 110.279
27.1393 102.236 143.017
28.9505 139.938 42.6515
3.56841 59.2438 41.2932
22.6575 175.794 116.651
16.3426 97.0096 149.934
2.54947 212.227 96.0046
21.4902 107.582 89.7081
12.4665 99.9124 65.6228
26.1814 108.866 153.792
3.25078 106.443 68.2288
35.9456 106.8 119.243
35.3192 167.113 68.5339
19.7533 173.285 109.945
40.1216 146.331 105.656
2.44698 76.6764 44.3165
2.2721 189.515 126.85
38.5462 148.812 132.793
14.8735 141.92 43.8783
38.9908 133.376 139.833
47.7678 134.951 73.9783
25.8451 162.463 108.505
14.5379 176.92 131.096
32.5 83.5479 120.56
20.8309 150.103 45.7996
2.5789 230.146 89.5195
30.3819 197.099 99.9783
2.63224 204.809 112.813
3.26532 196.853 91.1542
19.7267 99.6452 104.317
32.0828 147.559 128.053
28.7675 80.4874 95.556
13.8202 173.706 97.5791
35.923 157.621 113.577
21.351 203.503 89.2307
2.51935 116.474 124.483
19.5892 163.87 119.959
18.8134 188.984 79.4248
32.5369 174.124 89.219
5.22255 114.514 113.684
18.7329 127.784 41.2102
3.56835 140.789 126.469
8.86405 222.284 107.187
35.3283 186.476 92.0904
31.3745 95.9601 98.2984
38.6379 142.513 137.509
36.335 111.473 131.885
27.878 202.259 111.497
37.2088 161.565 81.8243
24.6486 122.089 51.8592
41.916 138.744 97.8078
2.57744 221.647 91.3393
2.79025 158.565 38.2294
31.0238 166.043 122.41
17.2312 154.96 121.842
14.2177 84.0951 153.899
45.7726 82.2966 107.613
2.16967 62.4105 114.227
24.3594 108.85 63.6172
1.88042 66.337 70.5073
20.5014 115.452 161.935
3.55921 96.133 84.3732
20.1532 101.507 64.8727
26.0422 188.628 74.3252
17.8695 69.821 102.445
5.69456 191.963 135.889
25.335 97.5437 58.7404
44.337 120.545 107.631
26.3721 197.743 121.086
14.641 118.176 114.21
28.4409 157.995 104.485
2.97202 217.953 109.454
4.44179 147.292 41.9459
19.7474 130.966 45.9508
47.5149 157.727 87.4096
23.5505 142.638 114.432
25.8734 116.935 96.8784
2.54613 56.2351 58.6336
31.3748 168.436 110.079
38.1306 99.2859 100.111
36.5218 158.931 41.1172
2.52347 173.326 133.281
36.797 156.851 68.5598
32.5093 114.357 150.462
14.1729 64.1443 117.822
33.1365 123.599 141.738
9.33399 211.026 82.4482
40.9762 119.424 81.9122
3.11135 125.084 165.869
29.3713 188.94 117.768
2.35039 63.121 146.241
37.668 134.929 86.9526
30.5801 138.374 148.393
2.15364 159.941 144.008
31.851 133.063 55.2806
11.7343 118.295 105.432
31.4326 108.95 138.583
5.26513 217.08 142.715
17.3937 148.557 126.383
31.6269 148.177 107.005
14.0495 218.743 100.102
24.193 136.265 157.207
13.5122 185.475 149.311
41.2138 150.143 116.334
2.37601 74.5772 81.5735
30.1285 155.516 51.5131
24.8448 192.66 130.476
18.2672 100.452 71.7681
5.11877 170.335 46.0014
33.1694 105.7 145.98
5.44056 93.8846 152.163
37.3664 171.802 75.4283
44.8608 113.638 115.317
2.25455 150.304 136.723
19.6819 100.151 78.992
34.7005 145.869 67.1737
35.3483 76.9698 77.6484
9.64986 159.119 139.536
17.6954 193.63 133.365
11.8651 141.375 86.4742
19.3979 178.335 87.0952
17.3391 158.619 139.75
1.53557 87.7697 156.111
36.8034 151.203 77.0617
35.8651 112.994 138.49
19.346 92.5661 139.952
29.498 165.461 55.1304
37.5048 145.093 62.1569
18.0937 176.498 53.7778
30.5397 89.5302 114.92
15.423 91.8904 100.709
10.724 78.5347 129.574
25.078 134.457 49.546
31.7639 126.093 151.028
44.466 82.1518 114.17
31.6644 56.5277 76.6893
1.8368 69.9884 143.571
10.4035 171.563 131.701
39.1013 154.01 96.3284
30.2296 96.6049 125.999
26.2756 94.5468 114.601
51.9577 177.804 128.715
6.72225 151.239 149.117
36.737 120.642 130.941
18.5465 193.395 68.9904
15.9522 209.569 133.88
36.0657 156.242 59.9768
26.9468 105.571 111.072
2.30681 128.147 142.927
18.269 183.187 147.567
20.2819 115.661 150.485
35.0282 100.616 128.109
34.6352 138.74 131.922
1.93543 53.8776 204.273
37.4646 114.439 122.138
11.9908 188.501 56.473
10.0198 119.688 55.2958
21.4407 62.3185 56.5204
22.3054 73.9785 102.434
4.08994 155.277 152.276
57.2761 177.786 131.671
29.1587 110.693 142.581
2.26226 45.5624 208.769
47.99 56.4517 84.7247
27.7491 89.9221 108.954
16.917 188.579 62.4759
43.2423 147.767 76.4967
37.3477 141.341 67.6249
28.2268 107.678 58.0296
3.76908 208.722 53.7675
21.6452 37.6316 72.7274
