ply
format ascii 1.0
comment Created by Open3D
element vertex 2021
property double x
property double y
property double z
end_header
5.79708 176.417 163.028
71.6606 63.1538 78.2802
45.6062 72.9879 16.2654
56.457 88.5382 46.9725
83.1293 117.059 86.3078
44.0895 93.5392 24.6362
66.3193 62.1961 143.548
5.21721 169.8 120.117
66.6496 139.314 131.379
69.7098 99.1415 172.232
50.6767 116.196 14.7356
45.5605 71.4246 135.563
43.5944 76.5051 143.068
47.2165 122.689 167.854
12.8548 152.188 116.329
80.6276 201.203 100.883
58.4951 100.329 125.064
61.5787 77.2384 67.1215
8.27188 142.274 142.832
67.6753 75.8331 142.754
10.3737 182.796 111.055
54.6647 124.918 181.504
54.3048 92.3807 52.7606
47.0771 110.148 22.384
47.7053 150.079 92.8928
32.6553 98.1998 125.765
64.0972 73.0804 110.36
62.6247 134.545 185.069
57.522 77.0044 42.5885
74.5972 74.2459 99.618
17.6749 163.955 119.377
92.8043 153.408 51.3315
63.1611 69.1034 6.6459
10.3097 124.296 119.064
11.9193 170.227 105.853
42.221 156.297 178.82
62.8074 78.0578 136.312
70.506 60.2953 96.3763
90.7307 151.57 187.205
58.449 82.1768 13.3577
16.4982 159.566 110.521
66.2138 102.062 110.211
24.0262 136.408 180.3
48.0731 86.9969 11.8836
47.9586 78.0521 3.2257
24.3786 152.968 108.068
52.1942 71.9473 14.7714
67.4983 63.7148 24.6705
50.3326 67.4004 25.3174
37.1934 136.594 96.4883
43.0838 65.2007 142.567
5.62573 173.186 149.899
91.1026 89.1854 99.97
53.657 86.3784 124.113
29.9125 103.334 132.654
31.1828 146.538 144.483
42.8655 105.168 112.985
45.6674 133.746 97.0577
71.8791 55.4816 16.4623
50.4593 94.9123 115.064
4.3286 163.41 139.866
5.80423 154.855 107.914
37.3496 136.396 192.359
96.8622 57.3086 95.3212
72.8962 57.1377 116.793
71.0854 153.338 87.4727
88.7408 62.7203 144.529
68.3841 70.4159 63.9263
37.0948 152.305 189.929
41.7097 170.153 190.424
51.5395 116.316 127.906
65.0512 62.1388 3.31268
14.8625 132.774 158.822
52.3428 74.3582 108.633
3.74067 159.896 121.958
11.5401 164.846 142.706
20.1593 156.09 117.469
84.7986 54.961 12.3453
76.5588 60.8855 82.5674
86.114 71.9571 157.964
110.995 168.713 11.2915
92.9054 141.288 185.292
62.1643 76.1543 51.6399
38.2094 98.8446 20.7392
56.1729 103.271 21.1896
90.0535 53.5318 104.182
60.4643 62.638 117.415
80.1865 60.2202 109.201
64.8027 106.157 86.8504
87.1197 141.321 184.583
154.938 97.7262 10.8449
32.1365 112.873 165.776
4.31954 185.673 112.788
62.3707 85.8795 154.96
65.1344 69.6506 39.5528
100.221 161.599 22.7624
4.87456 148.983 156.094
102.385 161.259 15.7982
79.3159 64.3171 68.0612
56.1994 87.1714 30.3988
72.0149 60.3655 125.004
76.4098 102.293 172.398
111.48 70.6594 2.71768
51.7555 85.4047 2.33586
4.85601 164.402 148.014
74.3464 129.86 172.867
38.556 130.926 105.407
39.3215 89.0446 16.3544
91.5444 52.6851 80.4678
22.4049 153.823 137.471
94.3736 88.6992 88.5727
57.3932 139.441 141.376
36.6854 175.086 101.793
59.272 94.7175 129.034
88.7984 61.8213 34.1761
56.8935 99.4272 60.1868
17.4993 193.22 127.036
51.355 98.1895 3.30507
85.6554 147.496 189.067
59.4308 126.382 23.8824
104.406 177.485 58.5209
64.0817 97.2573 182.363
70.6897 74.1162 79.2703
55.7151 117.344 4.2979
95.6421 53.7611 48.19
65.9001 88.5142 104.167
90.8928 54.6904 53.0264
98.3742 192.108 73.1315
98.1831 53.8017 105.458
46.5456 84.2518 158.358
39.5657 143.71 135.374
14.2801 156.11 181.338
2.5452 178.468 151.768
59.3268 87.2315 69.5092
26.7516 132.002 121.105
15.7554 139.249 135.8
51.5233 121.829 24.5415
65.3772 137.317 48.5597
64.2961 88.3217 76.4071
74.295 74.3657 146.363
77.9328 67.4788 43.7588
41.0878 159.576 125.934
103.321 144.956 183.78
108.214 161.584 22.5506
123.687 113.769 19.7409
77.8442 139.96 8.057
67.146 61.3452 33.0966
84.6274 79.4466 156.064
52.5386 197.74 110.092
8.42238 182.145 155.748
84.9058 154.227 193.342
61.2711 81.6617 148.538
107.496 125.85 28.7345
76.2581 85.8846 65.6703
26.1696 143.173 154.919
62.1278 99.9772 12.5826
55.9846 79.9065 2.04339
121.515 144.134 41.0497
94.2553 52.6055 86.8606
105.717 58.2308 59.7017
34.5421 155.015 104.951
78.1098 62.9451 31.7642
79.2197 99.8971 100.639
56.6747 97.484 144.1
67.4519 62.6348 114.063
50.5272 81.0168 52.0158
67.6976 70.738 46.1682
86.0182 84.7734 76.7444
9.14977 168.363 112.454
75.2329 59.6715 141.378
55.4176 62.2174 131.003
72.7899 115.238 155.531
55.1066 65.6959 8.14037
54.7379 164.69 184.211
45.6196 93.4741 35.5199
50.145 106.036 2.61775
71.1308 142.874 181.325
83.8863 155.09 41.9433
73.9391 147.159 163.187
11.4808 168.089 163.412
48.6921 113.612 150.177
73.0956 61.124 37.0987
59.7517 91.9454 106.26
67.3709 70.1156 28.2487
68.7434 102.577 67.7221
87.652 81.609 123.136
54.4305 105.33 72.3753
77.4689 77.9248 113.154
130.748 84.8466 3.84551
16.2961 172.514 168.365
77.5726 68.7667 111.539
94.1276 56.108 118.775
20.5545 127.748 167.279
59.5231 83.888 98.0356
61.7241 164.747 182.215
118.993 58.2605 117.492
17.0192 177.863 149.724
63.4177 119.281 147.263
36.0699 79.2342 144.236
45.6258 93.4756 44.0239
89.0849 85.7518 51.042
87.7909 157.759 48.8872
87.754 87.607 151.039
94.4796 72.4013 102.286
67.2391 78.6971 117.232
78.7497 90.642 172.668
94.7302 127.205 196.661
49.0351 104.911 116.216
34.9951 106.699 110.534
79.2924 67.0347 153.941
61.9171 73.3521 155.794
82.8812 58.6062 79.5261
52.7757 105.406 129.48
68.9314 205.872 92.4757
60.6923 128.836 10.9426
59.9771 91.0941 95.0037
83.9642 74.5664 112.973
42.5557 86.1949 118.058
75.2919 102.18 89.2713
3.31373 169.005 164.107
59.2249 118.852 24.6919
52.0259 112.122 4.13787
76.2138 59.2301 102.117
87.5378 67.4617 153.51
62.5589 121.104 99.8687
50.6654 106.851 11.8512
60.4225 154.079 174.239
89.0394 174.269 57.3223
64.7018 174.884 83.0558
114.356 62.0125 8.51653
23.532 177.357 114.266
5.24521 166.259 99.7616
55.0646 141.426 88.326
82.382 63.0524 73.0278
49.3792 82.1767 96.5221
86.1444 95.9817 81.0171
44.966 84.4872 2.77643
66.1857 134.972 9.7001
9.96441 169.258 183.15
44.9042 110.1 12.4511
49.0826 89.7663 88.919
42.5072 136.348 182.569
55.3967 63.8537 20.8584
44.7289 115.061 127.58
48.0271 64.5711 33.1151
65.6491 59.2631 126.813
74.7735 75.1623 38.1608
56.4684 111.835 153.612
25.5285 114.609 152.631
69.3548 110.452 160.83
69.1512 118.409 193.542
40.4822 163.63 101.97
33.2421 139.554 125.356
53.9638 80.4189 135.185
44.0447 121.456 133.29
75.2933 68.3319 133.906
89.9682 80.6248 107.913
31.2747 108.913 155.296
126.168 138.782 190.008
46.184 103.335 22.4433
96.6636 79.3647 61.4304
52.6974 76.9341 119.513
50.5716 123.124 140.988
104.992 160.453 182.977
6.09599 151.865 126.903
37.8434 176.782 119.995
84.6104 87.5316 118.08
62.235 92.7989 114.828
42.4441 88.2359 163.183
109.315 188.307 68.4328
107.841 182.787 61.4022
52.0238 174.188 176.845
78.3717 94.7277 111.453
31.6205 103.397 118.008
138.187 137.414 16.304
79.6963 81.7117 61.4949
67.3166 96.6876 88.9936
55.7055 83.525 85.0397
33.9865 113.721 176.002
40.8295 117.324 179.276
25.4663 162.456 106.294
34.7518 150.138 96.9917
67.25 114.643 58.0048
80.4152 74.8237 123.218
65.2365 126.065 134.227
74.4055 62.7965 16.2113
104.198 132.625 190.666
41.1343 73.7206 23.0612
12.0277 148.846 172.927
134.443 111.419 9.01626
42.6958 166.155 181.804
114.508 58.041 102.59
17.5775 163.411 175.823
17.8957 148.86 142.528
106.323 66.6797 105.28
105.501 57.4834 95.0862
93.9048 62.2564 126.755
102.672 163.263 31.6872
63.0527 113.197 189.061
98.5467 81.8678 105.157
82.4643 77.3131 148.716
117.529 135.472 183.891
72.8187 148.416 31.7364
32.529 162.051 107.375
52.5319 147.056 171.038
46.0693 96.3396 107.787
63.7293 57.8364 17.8075
86.3827 58.1383 48.5186
93.3141 200.424 80.3479
117.386 66.6627 100.486
23.9809 119.114 145.117
78.9989 69.9496 94.2327
84.5011 57.7972 88.6895
35.2651 152.796 117.515
55.7004 77.5748 103.912
41.7951 137.734 137.595
121.202 119.032 5.91853
103.562 126.627 49.5757
99.2151 127.93 184.297
68.0447 87.1425 68.1714
51.6009 91.7589 7.63147
73.6749 92.3346 167.302
114.324 78.5365 3.18385
53.7931 62.962 140.313
57.0599 112.535 10.7645
95.4195 58.7494 135.094
112.581 152.958 25.6688
80.6003 69.3447 12.3081
52.3573 66.6951 147.564
60.4909 122.609 138.739
137.102 104.494 19.7048
31.2394 135.701 181.547
58.6576 143.94 147.504
106.937 87.5703 3.44436
69.5871 135.336 176.91
72.189 79.4201 165.206
9.88347 135.288 141.09
123.883 138.978 3.92919
19.2879 178.219 176.526
62.1953 113.851 169.536
19.8853 197.731 152.967
90.9598 78.7188 3.52184
98.644 55.6905 127.561
49.3912 120.07 105.736
46.0171 116.167 169.704
88.8599 173.394 192.555
113.09 130.332 168.066
76.0328 112.968 183.601
35.8573 98.3328 146.61
112.701 62.1961 116.743
70.5278 73.8932 105.679
56.2702 106.985 164.34
73.5718 83.6288 114.961
109.348 141.444 181.637
53.6242 95.0865 26.4777
71.1627 70.0726 70.55
7.8104 143.776 134.078
75.7077 81.8971 78.7225
6.04891 185.324 174.94
38.8856 133.619 143.064
69.9888 107.165 182.724
41.5512 159.002 117.863
87.3844 59.4803 135.53
4.33078 163.379 127.375
73.2987 200.042 117.375
64.8003 116.997 108.361
47.9064 103.974 171.991
71.4962 174.171 65.7212
60.8771 75.3149 26.0267
92.8494 89.9256 109.026
110.959 79.7991 157.969
102.301 75.7571 1.83255
62.1241 105.676 6.68296
54.1127 153.479 185.034
80.5541 61.272 15.1664
58.5932 192.408 98.3396
74.704 68.953 63.9641
71.9599 120.22 6.80836
32.6533 167.626 117.261
27.3569 124.203 133.198
43.2957 176.618 125.665
71.3265 191.456 76.1133
54.0019 178.032 84.6536
60.4139 58.4839 137.132
33.6925 182.399 120.668
137.347 69.0185 34.3259
100.248 58.6141 59.8139
55.4614 86.7242 131.555
129.37 72.0701 15.2679
31.0229 141.341 116.445
80.6664 60.8577 4.50286
66.3495 114.483 156.901
101.763 120.166 193.18
27.8341 128.644 156.909
82.0711 84.899 105.082
150.97 96.339 4.93651
107.914 65.2304 88.9138
41.7053 81.8606 101.598
27.7524 193.581 173.854
107.933 136.641 196.291
91.3729 89.7809 128.665
46.3684 85.8736 36.7044
15.0729 195.442 138.472
65.4208 94.3783 63.4061
85.8653 146.549 46.5411
21.1515 133.825 150.984
39.239 92.0401 134.188
34.5281 162.904 184.503
93.3294 161.121 44.3992
104.365 88.5527 138.473
22.4139 130.322 157.954
26.1895 150.488 177.898
75.7306 110.579 172.142
102.967 64.0121 81.0415
43.7885 85.3003 143.103
93.0047 205.233 104.399
3.10184 169.458 109.763
79.3115 120.347 191.121
99.729 131.697 19.857
70.1842 79.7421 74.7374
73.0351 159.834 72.8738
33.5108 160.085 116.503
28.4561 131.636 146.505
28.8637 126.226 166.015
11.3752 166.346 155.234
82.9259 206.358 93.0941
13.9839 169.36 137.039
103.4 59.5763 41.5628
63.3188 142.044 87.1753
77.0128 104.277 185.549
98.2583 65.6233 3.78298
28.2218 114.531 141.317
81.3812 52.7938 100.29
108.309 163.379 4.58069
104.224 166.615 195.079
27.3518 158.376 117.611
29.703 134.124 172.193
79.0895 154.461 66.7698
79.5326 213.951 130.479
122.921 138.943 22.4515
70.6078 140.633 11.8752
54.8146 177.416 150.757
105.196 150.523 177.399
2.0986 168.987 126.498
62.6391 123.247 6.47045
13.6279 136.058 120.791
76.9595 144.768 13.2299
58.5119 141.182 96.2827
29.2469 160.179 181.105
16.6923 178.545 112.512
100.938 78.528 164.236
39.9988 143.343 149.185
57.6827 185.515 103.414
61.9926 106.967 112.778
129.156 149.085 24.0723
61.2031 126.026 55.3406
46.9203 106.54 38.1384
61.6858 75.0658 130.552
46.3879 110.446 138.105
109.623 120.32 190.952
86.5066 191.505 66.0801
93.0136 158.432 57.4398
57.3876 75.1206 88.2723
16.8972 146.211 112.548
82.042 87.2478 2.40475
83.1719 121.542 178.2
63.0145 160.709 194.284
33.9002 204.216 185.481
103.644 160.497 195.97
82.2863 56.5559 30.7468
91.6626 154.913 9.25501
68.7084 119.867 176.852
2.52472 175.54 131.024
119.796 144.65 172.701
63.5172 82.3041 168.439
89.022 111.014 167.099
13.6249 165.788 171.146
49.6773 203.803 117.817
32.7855 114.198 109.819
125.978 62.0039 118.739
59.2043 155.45 190.074
52.0485 128.285 124.802
68.2895 88.8016 91.1514
14.9011 163.919 187.344
94.3869 89.9925 10.2734
44.254 138.321 102.332
80.4177 89.1089 123.696
27.5617 159.484 190.966
69.3959 185.528 72.1624
63.1879 57.6129 8.13732
60.7146 101.717 31.9565
6.84003 149.838 118.568
36.9218 73.3646 133.922
116.598 162.633 26.6939
12.7401 152.688 149.548
46.1966 114.407 27.5215
94.8919 120.959 192.552
111.134 74.0261 153.78
17.6069 143.636 152.912
60.1001 95.1226 69.9427
57.0461 130.295 131.293
75.2814 115.192 84.6002
52.856 118.276 89.9753
84.0697 115.179 1.86458
54.5627 81.5993 166.143
49.4775 143.212 92.1758
61.3257 176.932 180.177
56.6919 182.613 160.926
82.5915 148.843 198.333
54.9878 79.8148 36.0296
6.98882 211.207 153.86
100.638 125.298 34.6016
113.455 57.7714 53.2053
105.266 72.5704 5.15199
42.3494 150.31 158.438
11.0612 159.002 156.16
40.1473 192.635 112.614
81.2328 83.7073 83.1942
3.23084 167.019 173.926
62.8227 129.087 191.45
50.2495 108.28 160.387
3.0489 185.751 161.531
110.682 154.185 34.602
74.4828 89.7651 83.1293
10.1456 163.638 118.369
78.624 110.455 3.86631
85.6014 83.7193 57.7418
86.1647 153.883 67.6622
34.5496 104.175 162.864
92.2954 202.685 86.7571
27.6045 173.452 177.832
68.9425 161.125 181.133
77.2043 144.229 93.3741
31.5339 131.655 186.641
94.217 60.2882 10.6193
72.2744 114.171 111.035
133.266 154.78 44.7187
86.6691 59.524 40.4286
16.7638 146.671 129.052
47.5746 82.1488 133.745
71.6492 137.241 41.2493
28.3711 177.368 189.133
52.2659 202.878 142.323
54.0247 81.9959 91.0655
47.7851 149.528 195.548
17.46 177.66 157.755
68.7484 209.379 126.627
153.633 106.87 6.95061
79.3777 62.6586 49.9862
95.6721 77.2789 117.608
111.142 127.171 47.1515
80.3608 207.464 154.457
65.3729 199.842 98.6638
35.6807 175.567 192.024
64.5001 208.693 119.845
94.6287 75.4664 94.62
3.02163 172.159 99.4558
75.5647 61.7148 1.87331
18.0457 123.281 146.208
54.6516 69.2829 158.13
6.14469 173.851 175.986
89.9581 56.3153 24.7567
72.1661 98.9915 180.537
142.291 120.907 17.3117
24.0542 190.699 125.125
82.3147 143.013 194.946
51.6977 115.647 177.732
41.8016 182.511 102.782
68.9847 74.6777 94.2506
53.603 78.7393 145.655
37.8197 117.934 139.412
73.78 105.857 63.3536
93.6078 191.441 78.1949
66.4554 72.0688 121.505
55.638 101.205 10.6162
67.499 141.384 192.832
42.4696 144.324 94.1697
11.2803 180.793 144.357
18.4734 179.44 187.462
16.4447 129.795 145.875
56.2773 133.864 192.41
31.5204 120.856 148.242
94.8797 93.8686 154.691
85.6934 57.7519 120.046
35.3352 116.691 130.948
40.1267 113.553 151.23
89.7714 79.2982 75.8756
64.7918 130.74 97.333
96.2107 61.6449 112.01
66.9637 156.658 166.11
112.35 152.915 14.1892
11.5764 139.474 128.293
59.5662 100.048 169.442
32.4596 121.771 165.793
97.7254 161.563 184.479
62.5357 170.508 129.055
65.8864 106.91 54.6682
83.8973 78.1727 96.348
16.0266 154.482 123.618
45.5885 125.241 98.899
75.2304 77.787 33.6069
7.79121 150.98 144.68
35.3386 125.299 139.915
45.2263 112.561 97.5471
113.17 52.3325 62.9118
101.606 58.73 109.404
78.0171 165.028 74.8763
89.7508 74.2715 167.725
64.6161 111.913 96.3062
5.00011 177.38 138.282
82.8541 76.9493 78.9385
107.454 209.186 102.287
104.31 201.93 81.9936
44.911 158.88 186.452
43.4638 149.118 153.214
5.96083 153.005 169.379
41.2439 114.376 158.973
56.3473 139.106 196.424
129.615 76.9524 97.5635
14.98 141.783 118.4
47.4965 83.2116 118.541
104.744 143.425 41.8991
21.9506 165.239 191.882
63.5917 145.941 189.847
108.707 141.99 163.029
51.9791 96.7518 88.2921
32.9153 169.353 107.078
12.2664 186.148 128.739
50.2768 194.852 151.652
97.8696 173.779 57.7547
106.898 122.84 5.04177
74.8226 129.946 192.489
66.9831 188.661 181.468
30.2971 141.511 182.144
130.241 91.2768 17.2273
71.9914 74.3176 115.669
83.5959 112.794 175.674
49.5012 75.4517 10.0917
70.2276 147.294 91.6612
92.4065 191.859 69.5811
18.4829 122.508 157.182
52.8447 90.5286 163.181
87.2533 156.59 17.8127
92.8274 73.9319 129.405
4.87759 162.553 164.892
53.6272 113.147 51.6656
57.8689 98.8923 157.016
87.3544 93.2871 120.135
56.2837 104.061 104.613
19.5229 151.603 176.099
86.3299 201.015 80.8886
100.332 210.883 105.257
95.6777 208.96 134.359
17.3706 185.225 182.785
75.2505 208.808 95.4161
90.1642 68.5493 76.7513
72.3837 62.4083 7.67863
69.0509 151.933 73.1873
118.107 177.642 164.917
59.7453 148.744 181.925
39.9038 124.036 107.515
10.8189 144.012 159.242
120.232 77.4611 9.33245
103.012 77.0851 24.5756
49.919 166.839 121.662
92.4581 93.7274 51.0094
71.9415 156.374 99.2551
96.2562 151.791 26.8681
19.2454 172.295 117.975
21.7052 159.033 183.134
123.346 124.931 14.1904
67.7238 143.054 150.526
62.0472 190.794 114.26
27.4704 197.172 167.875
44.2067 104.47 131.658
26.2455 179.83 184.598
91.6461 61.047 20.1088
80.0452 53.6843 118.78
56.6385 91.3424 154.028
52.7169 94.9742 173.749
92.0344 154.841 178.393
110.928 146.918 46.4693
103.007 64.5427 32.4144
44.6734 202.424 131.304
52.8203 88.3737 140.513
100.337 60.1164 7.01345
108.303 71.0628 95.3326
80.5784 60.743 40.9967
58.9712 81.826 22.6327
55.5102 145.679 126.043
82.3158 193.405 108.533
72.0457 70.7586 89.2099
115.215 54.6651 45.1067
51.8055 107.242 32.0553
98.9808 137.17 49.8192
88.6322 66.7411 28.745
23.02 123.172 162.247
48.1524 130.853 131.688
101.284 73.1383 93.6284
60.2724 82.9061 126.611
23.0883 188.573 131.395
62.0956 87.1877 109.619
53.018 129.898 95.8778
86.7416 64.4823 108.655
84.55 59.7594 24.4239
45.123 72.8473 33.7629
9.35346 160.314 168.571
117.204 197.063 81.041
104.03 139.674 156.681
56.5644 61.743 125.351
20.737 172.73 191.101
2.13829 157.149 133.154
90.0885 123.296 3.89339
49.2186 134.053 123.724
89.1359 197.193 75.9614
56.8814 132.724 180.365
66.5637 136.559 62.8179
107.203 59.9478 101.017
98.7166 204.817 85.7472
27.4456 173.482 110.64
101.733 126.863 16.6119
11.967 171.26 149.867
107.73 62.9036 13.9399
38.4248 121.491 114.063
72.4768 204.189 102.707
124.908 132.328 19.7166
82.7804 153.214 11.2787
58.562 106.034 175.344
65.0813 118.483 2.85801
71.4545 92.4847 58.6644
52.952 88.1958 102.725
59.9651 76.6927 123.181
52.3966 161.566 108.636
77.3936 63.6732 56.1765
11.3755 176.252 182.127
7.0812 168.961 134.266
66.0762 105.991 104.975
41.9935 150.358 193.57
71.7528 146.619 147.667
95.4829 84.5155 23.245
78.4963 115.796 57.6356
55.5248 126.988 191.302
55.6695 148.377 193.524
16.3343 170.738 186.292
12.0233 195.225 153.67
69.4238 143.187 24.2152
95.134 132.634 25.2583
74.0546 164.772 195.39
61.4584 75.7324 78.7883
39.0812 113.016 105.455
94.9401 83.1093 93.2922
66.1013 68.5272 98.6598
56.3216 101.479 48.2219
101.551 64.903 132.16
57.6673 173.723 169.284
67.9676 135.115 197.685
61.4993 205.69 112.231
41.2009 80.653 124.206
80.9486 84.4224 97.811
61.231 114.56 2.45812
35.3235 123.934 133.451
42.1881 72.3221 123.998
20.1473 188.513 143.107
49.7291 117.16 188.426
63.5479 187.967 85.8174
20.2669 136.038 163.165
37.5156 121.832 120.661
72.1323 164.2 67.4522
70.6646 126.244 183.651
96.558 163.872 38.3254
97.5251 84.9039 51.5916
53.1415 147.386 161.095
16.0501 155.05 168.08
53.1756 122.194 42.9632
33.6554 112.585 146.613
63.4597 117.984 137.368
77.582 83.9919 72.8069
91.8433 69.0384 20.6195
81.5396 89.7804 163.282
40.4516 124.648 101.333
82.8983 97.6349 182.497
54.229 139.311 127.835
109.038 82.5711 2.5679
72.7074 156.715 191.886
84.5277 104.851 182.984
105.192 63.7403 112.751
86.1138 161.865 56.3718
78.5003 168.586 63.6085
86.8023 63.0684 11.5648
16.8545 130.882 130.326
97.2367 74.0429 1.87031
111.406 194.456 81.674
98.663 136.997 200.984
90.7755 73.4069 116.408
58.5053 107.182 98.7853
77.9599 118.711 149.314
92.5477 107.021 189.409
30.3247 117.668 120.002
93.6969 186.854 64.5718
62.3193 197.571 161.039
83.2953 76.0294 106.938
57.8352 99.9167 39.5773
78.3366 158.915 62.0693
72.8214 68.8399 129.36
103.699 61.0175 17.7115
78.4707 70.0041 138.07
129.352 152.199 11.9249
59.2141 143.039 134.843
46.1011 116.993 118.892
48.2967 76.6453 38.5297
88.4364 207.613 91.5525
83.3519 60.591 58.7442
6.20938 181.948 126.794
42.6539 94.7333 117.786
57.1754 179.535 136.524
104.513 52.2359 68.7167
50.708 163.763 189.944
83.2561 68.9762 129.896
54.4443 86.5182 169.77
99.7418 62.6487 71.9456
65.6943 104.958 176.796
26.6866 153.464 188.444
44.9663 163.586 96.6407
54.8621 110.494 110.329
47.9012 161.999 196.189
40.2224 82.1199 24.6856
72.2595 103.203 100.636
76.9719 102.152 56.489
111.37 133.578 8.33173
34.2556 201.314 145.103
74.5105 196.105 172.529
48.5577 111.799 167.86
67.4487 125.857 86.9266
84.6042 73.6833 5.98009
39.3085 96.8116 132.424
83.6076 156.187 29.8006
22.7608 125.394 127.173
57.4874 168.97 89.8078
104.448 160.176 98.3406
75.6586 182.501 68.0092
80.4554 84.8298 54.4761
67.4856 90.7013 85.2837
46.4895 101.497 9.93203
100.271 183.334 73.2421
63.1668 190.781 106.782
72.3427 185.271 85.9206
70.2791 181.843 92.2437
22.1645 168.505 115.426
125.022 176.935 63.063
10.8361 184.202 180.467
52.4646 139.789 188.12
92.8724 160.786 33.7128
58.1405 161.213 192.51
78.8838 100.414 162.538
138.794 80.255 14.0346
94.813 208.029 143.127
83.2347 193.558 79.9738
112.192 53.7055 93.7889
34.6714 92.4929 143.161
52.6085 140.076 103.811
127.489 83.844 16.7244
34.4407 93.4155 154.785
86.502 186.97 76.6979
85.8674 98.1401 40.544
61.0141 137.082 78.2153
37.1726 129.747 116.616
35.3914 158.061 180.455
75.9281 77.9377 92.8977
19.8435 159.379 157.815
106.327 72.2215 41.1271
72.3301 144.714 18.8466
16.8944 107.604 128.71
126.504 57.9551 106.132
113.997 62.6586 93.3202
38.0367 186.465 184.238
107.045 155.424 199.749
82.0025 116.697 116.254
104.233 50.6407 79.5276
74.892 72.5455 85.4054
105.808 80.0245 48.3191
44.6421 100.687 140.494
39.0133 129.305 186.022
124.208 57.2322 100.55
138.114 140.98 24.8376
36.9822 104.52 169.013
54.2157 118.329 57.1455
55.0581 62.9747 14.8929
97.9074 73.8603 74.1495
31.6262 140.611 189.007
59.4237 122.85 190.201
65.9447 88.7935 170.416
138.693 130.046 12.7755
63.3713 123.973 18.5459
63.7889 131.356 54.6873
132.208 129.741 29.748
45.1937 106.179 164.577
66.982 173.482 74.9139
8.9283 179.352 174.718
96.6957 70.7702 111.626
22.3387 189.26 118.949
60.0106 86.1615 142.372
56.1618 196.334 104.393
66.959 196.069 168.358
79.1412 190.624 77.6372
69.3327 194.212 132.445
56.952 114.207 143.578
63.6179 206.393 138.941
73.1475 211.897 119.795
99.5478 131.074 197.287
99.1818 99.2843 16.6472
45.1211 150.441 111.023
74.0686 140.201 151.128
61.2437 119.13 40.6457
91.4209 103.496 150.451
136.886 129.705 22.7038
66.1623 82.9568 60.9281
22.3647 197.97 135.463
83.8764 155.616 36.3372
89.4583 129.603 197.649
109.647 205.473 91.9442
30.842 150.692 183.074
5.20911 154.734 162.814
70.7575 179.159 71.735
88.1987 145.55 199.553
86.131 156.61 23.2495
71.8344 75.1658 57.8809
37.8683 171.572 183
110.424 129.254 21.7344
57.4708 103.609 184.681
70.8538 78.2702 52.4684
95.5097 58.1864 63.1721
101.903 154.303 103.166
100.02 196.621 171.604
102.663 56.2444 50.3817
49.3507 90.0669 130.377
83.5869 177.216 180.636
68.2589 61.5631 42.6067
54.0242 176.719 96.3782
116.299 133.828 49.3745
39.4072 193.471 178.563
18.3725 190.559 179.547
36.0093 138.816 141.88
72.7497 209.421 132.251
65.292 64.3253 129.28
94.1372 152.959 68.3174
64.4794 151.489 88.1163
80.5449 141.947 182.833
68.0048 113.545 101.915
28.2915 146.707 102.723
44.4453 128.581 186.202
84.049 144.24 97.9058
72.4938 141.249 106.335
42.7173 77.5962 31.2226
85.9774 159.335 199.269
73.5985 126.273 136.289
70.1046 157.75 85.7363
47.7429 130.838 192.663
44.0577 127.81 113.511
17.5781 128.742 158.923
91.0846 143.815 101.531
119.14 162.886 13.5482
51.2077 110.291 90.2279
85.1985 143.907 37.7979
14.2092 129.726 139.715
59.458 204.361 143.738
14.2363 185.375 161.068
99.6702 126.065 25.956
29.4719 143.846 173.68
96.4184 186.209 181.291
64.2492 139.384 95.2026
130.129 163.681 168.412
78.4385 127.419 76.03
44.867 92.7809 125.092
69.4551 146.811 190.913
2.4196 184.378 131.019
58.4661 80.8993 31.2903
67.5888 110.329 5.01916
82.6683 133.084 75.1278
37.2129 147.077 175.591
102.884 70.0899 150.205
79.19 61.9454 125.159
61.1162 114.616 131.106
58.9421 112.081 46.0012
89.3266 84.9413 136.112
41.1122 152.758 164.99
48.0191 107.041 93.9191
78.83 74.7271 168.7
98.8185 78.4136 156.31
59.685 145.479 157.551
131.816 102.49 3.9335
42.023 83.13 152.172
124.895 62.0694 111.041
60.8603 96.8224 80.6988
108.579 148.558 3.88161
47.4374 142.29 148.615
55.4937 184.334 92.8445
91.3201 78.9077 56.958
28.6384 187.921 182.035
119.302 153.896 36.6482
91.8952 79.4184 99.8222
77.234 87.6302 159.172
50.9949 107.647 182.267
62.9009 67.7833 90.34
116.997 64.8006 28.8599
18.9729 181.623 121.202
116.367 128.462 11.5032
34.1697 146.204 163.029
81.0179 73.4223 66.6601
28.6146 129.387 181.06
49.6932 181.385 186.734
89.6084 195.342 112.898
24.6043 125.87 174.662
66.2422 66.8516 84.1141
92.7552 110.824 17.3993
110.267 200.311 86.3833
80.6262 201.949 83.431
124.721 120.731 183.631
49.5996 103.104 179.716
31.7007 147.413 109.453
71.7558 148.64 84.8846
53.3185 141.279 111.683
101.183 145.457 203.111
81.0836 76.6712 2.72982
120.281 127.406 178.468
43.1054 117.145 186.203
37.4144 99.9914 158.346
128.228 137.561 14.1529
83.5796 138.59 64.1814
65.2179 204.608 102.912
52.2925 172.585 190.406
63.6051 152.28 191.261
58.8985 209.245 124.916
16.4156 142.221 177.293
122.419 73.5155 14.3236
60.5354 65.655 140.761
96.1041 63.2822 32.1441
27.3791 180.926 119.373
59.1892 114.778 87.0019
11.7252 173.863 165.354
64.6435 104.513 155.131
87.094 136.267 191.99
100.038 108.023 157.126
11.9745 134.601 151.838
42.3166 132.141 130.705
40.8851 146.705 127.123
23.8433 124.609 144.222
53.5924 207 126.475
85.0606 129.401 66.2255
72.8386 141.416 165.374
67.1772 69.4627 136.038
111.466 158.87 2.22263
126.176 80.9967 24.4156
93.3651 74.8112 33.3528
117.313 60.6959 19.7274
70.9639 115.103 124.824
85.2933 120.641 189.25
95.6904 135.559 192.398
99.8858 158.383 35.453
52.6794 81.5085 116.93
71.4755 143.314 48.8196
86.7831 163.829 66.3644
56.5729 128.788 31.1724
104.296 62.7347 25.9581
26.3456 166.562 113.145
89.7084 182.858 64.8091
27.5729 188.179 146.589
80.8006 86.7588 139.924
58.8261 114.244 186.892
46.1858 109.48 102.256
47.3501 187.526 148.742
33.1358 199.809 137.531
51.7153 140.189 138.267
66.7161 67.6813 153.691
81.9162 148.541 54.8523
78.4151 52.247 28.2858
69.3367 170.432 190.356
14.5309 173.629 124.034
104.027 88.6158 116.611
92.5147 157.211 28.9064
54.7222 119.193 190.902
106.224 109.834 3.33935
72.4261 154.492 66.1587
82.4523 108.609 151.185
20.6513 198.393 143.1
103.836 119.029 94.3008
74.8467 122.715 69.6346
114.17 54.6058 39.7007
101.736 152.859 200.804
94.9075 120.093 4.36061
136.131 73.4658 20.5408
101.116 189.144 65.6617
46.3422 167.192 188.599
50.1018 131.831 108.237
7.28793 160.482 178.771
100.84 185.305 61.1834
79.6355 74.1437 30.1291
29.9497 125.497 114.85
23.5203 168.168 182.648
112.707 121.552 26.9174
69.5419 207.662 108.7
57.6878 120.797 11.8562
87.5686 86.6675 87.194
49.6098 105.277 44.9501
16.7502 156.774 138.869
88.9574 130.355 38.701
56.2298 205.045 115.851
91.6815 173.633 67.7453
64.8059 174.892 136.85
24.1563 179.344 132.83
65.3517 137.799 23.4568
34.9514 187.24 165.154
82.5852 93.4234 8.94534
94.0875 56.5654 70.4192
69.0493 139.917 66.8436
103.008 62.7831 36.261
100.771 70.9233 50.3378
112.776 141.563 171.909
76.0511 200.618 126.698
79.2859 154.535 193.631
55.1555 111.987 183.153
92.2135 107.9 24.0722
74.0129 140.906 28.0696
54.7119 139.824 175.912
59.7451 121.965 61.7992
94.6452 152.649 2.75615
86.2715 88.9774 126.121
78.1167 120.724 103.552
74.5732 122.084 192.484
2.18701 161.779 111.54
79.3831 176.535 65.6371
67.1418 142.567 163.557
46.271 106.357 152.267
102.174 123.036 180.851
50.4323 201.052 129.278
99.5805 154.152 3.03582
128.559 118.201 23.9847
61.316 70.2445 32.2566
70.794 78.605 176.861
124.034 187.065 77.2695
38.1262 102.87 134.236
83.5855 183.307 64.0944
99.6348 55.9914 20.8949
63.7284 87.0534 116.3
56.8219 126.107 48.097
119.159 189.418 76.2834
79.7935 164.377 195.751
16.6259 187.506 154.263
84.6346 171.041 100.105
58.2558 200.773 152.123
88.9672 96.4001 6.98029
28.9278 120.398 174.437
32.6532 111.102 137.675
26.5724 179.484 128.126
61.4489 115.713 66.1423
106.572 131.342 166.498
74.0083 90.8173 113.571
98.4315 152.45 179.637
114.578 84.5674 21.7456
110.079 161.468 192.759
2.95721 186.287 141.782
86.1879 165.518 191.045
65.4317 79.3484 94.5738
115.604 171.667 183.143
60.91 185.493 146.886
98.9813 78.4944 14.6945
88.3294 76.9073 21.9587
68.6622 197.174 89.031
98.3662 205.987 128.4
62.5408 128.132 65.8686
75.5132 106.636 71.5539
73.4566 143.815 42.508
82.5599 136.389 188.377
109.418 79.011 106.839
88.8989 153.175 80.382
63.2971 113.982 117.272
43.0781 120.796 126.255
83.1951 192.619 117.767
67.0276 78.7642 164.197
79.3954 124.787 197.624
50.9009 150.392 120.319
21.147 123.21 150.955
108.093 56.6615 28.0722
46.6525 203.203 156.826
126.18 90.1251 102.073
91.8508 145.531 56.197
122.149 88.5946 16.611
80.1202 187.247 67.2654
114.364 183.373 66.3789
84.3028 78.0134 62.3546
125.522 123.955 20.9217
9.61412 158.908 148.256
43.7942 174.548 176.755
4.11002 183.428 170.595
76.3409 65.0377 146.534
106.242 137.238 183.07
89.6593 115.69 4.86225
129.078 61.958 91.0218
113.307 61.308 109.053
75.4455 194.505 109.348
58.9375 78.2747 180.565
72.7423 80.0813 153.892
64.4872 156.273 76.742
64.0524 76.8641 84.7989
43.8709 107.91 182.173
27.4612 187.065 162.132
66.9928 124.44 194.79
96.5392 54.4715 40.9527
49.7093 142.078 129.559
59.2344 71.1168 97.5911
69.1679 121.648 60.1544
113.971 75.2379 92.8734
118.548 137.596 191.884
85.2774 126.384 166.287
96.6632 175.108 190.925
112.247 149.422 38.9517
75.1722 126.398 86.6322
66.8394 107.812 192.627
120.098 149.485 18.8106
67.1395 167.075 156.663
41.4018 86.185 8.21668
54.7528 112.123 118.401
66.2306 190.618 125.178
67.9649 84.3275 160.203
32.0419 119.404 155.129
65.3567 130.331 70.6231
40.369 201.294 136.007
49.9004 161.653 180.546
119.724 58.8477 110.196
68.7918 152.617 194.653
82.4206 126.504 94.5796
2.02256 178.089 114.504
78.633 150.952 31.1799
132.778 103.289 14.8831
75.1805 146.541 73.0908
46.6303 197.597 112.339
118.413 167.107 47.6556
118.002 68.4051 14.3117
38.3784 195.445 119.37
95.297 132.877 48.3207
101.068 204.611 145.33
95.449 64.6276 56.71
31.7357 168.137 188.798
93.8721 137.29 61.5805
42.746 117.19 99.709
71.8649 113.019 1.76679
16.7902 135.352 171.113
45.8535 94.0226 147.008
98.2734 75.7934 44.8377
59.463 94.3994 20.9475
46.6695 148.742 127.656
65.7803 110.908 181.874
52.404 124.793 172.825
66.9716 166.345 73.1901
66.2067 64.1724 148.949
128.695 140.401 30.4277
60.3147 121.424 66.855
88.1764 80.9522 13.0924
101.498 131.796 4.30537
57.3203 114.662 93.4105
80.0777 146.822 80.8389
27.5283 176.123 171.208
125.917 146.88 5.26761
40.5927 127.306 135.249
86.0499 179.511 173.205
107.067 72.327 21.7873
88.5026 89.4167 7.47162
60.2166 142.202 175.69
61.6991 196.33 168.07
100.638 164.299 50.0862
42.6853 143.331 184.146
50.9104 110.144 127.727
109.124 167.374 47.7369
8.73711 186.743 133.088
61.7537 140.807 194.612
31.9017 130.07 127.588
95.0359 73.6604 13.9583
54.3276 167.913 130.551
12.8241 179.306 125.93
8.70968 191.182 137.214
98.7077 114.718 186.618
93.59 65.2722 4.13303
111.934 87.0267 8.43118
21.5288 118.586 162.498
31.4454 105.669 144.604
96.0799 209.634 93.6566
38.2298 140.663 155.199
3.22646 187.936 152.257
84.2787 94.1459 105.558
83.35 171.812 59.2043
32.4408 195.937 131.17
133.053 91.0317 1.56835
76.639 148.245 39.8888
107.389 67.9987 126.646
54.7941 142.761 118.788
72.0527 99.0553 74.4865
79.0823 147.46 114.501
89.9932 67.2705 5.9986
63.8424 66.553 53.8016
63.3406 197.215 145.372
69.4919 115.967 70.0666
62.1682 162.047 163.476
75.1348 136.828 140.08
79.4175 119.96 4.99174
21.6039 170.263 143.092
76.1605 163.397 185.378
47.1655 143.54 109.473
55.6142 89.3862 116.576
91.2505 136.511 33.6586
30.6274 138.335 140.323
150.834 90.0061 13.8225
104.168 128.46 41.2708
94.1553 171 61.1338
72.3078 82.9835 107.117
29.4124 148.443 119.12
88.7582 197.067 102.985
62.0766 121.563 50.3216
51.3829 96.1925 154.143
112.826 133.24 31.6282
100.329 163.778 44.4948
101.523 176.039 189.761
66.8041 122.975 106.098
91.3749 172.453 180.55
73.0594 146.237 197.181
74.1834 161.432 171.958
79.3163 164.677 178.057
81.5754 211.349 102
142.268 86.4646 16.4439
79.4031 127.25 176.365
121.338 61.5339 124.7
49.0871 126.462 178.09
63.298 199.259 108.305
21.0113 142.736 183.219
6.83648 161.698 114.177
71.2409 179.257 187.271
92.6792 164.757 60.999
34.3322 96.7585 119.385
25.5054 147.784 115.053
42.5082 186.687 142.67
127.062 154.934 187.74
71.5049 184.055 107.55
53.7654 194.666 171.957
21.8859 192.099 171.98
111.532 61.0943 25.7781
34.6908 123.304 183.035
40.6102 122.084 178.354
115.008 59.011 125.829
14.3022 187.009 169.231
111.32 73.5349 19.2961
71.8435 192.454 87.248
114.857 126.889 190.012
62.6211 135.895 102.324
113.606 119.022 1.60708
102.43 129.761 53.0594
51.7522 89.9198 19.1387
36.621 184.717 170.334
102.165 159.341 4.65777
46.5055 177.21 94.9937
112.798 93.1824 148.779
103.462 118.147 179.919
75.2357 147.857 21.4326
64.5785 96.9449 69.295
67.2033 131.756 192.266
108.157 125.151 59.1811
62.4513 115.643 76.0768
114.915 164.842 18.9103
72.6925 179.454 133.874
92.9656 98.3268 178.13
76.3654 113.582 44.3811
96.3398 86.377 150.973
93.1344 105.893 162.858
35.1671 180.7 178.309
54.6694 107.397 148.006
116.375 159.282 46.2949
120.366 183.832 70.9818
14.2265 163.428 149.44
63.3693 123.814 74.3068
64.7204 83.4311 54.8948
132.487 117.969 175.05
81.4848 169.797 190.635
12.9034 172.996 157.047
119.469 137.095 169.669
71.0121 204.189 144.029
62.973 69.0889 74.6882
97.0519 179.334 61.6955
42.8325 133.151 112.857
61.0144 180.881 79.7153
60.2651 120.277 57.8142
75.9091 190.584 70.2244
49.1149 178.867 157.044
94.8548 132.235 38.0799
91.1206 125.787 173.391
41.8874 189.995 135.366
49.4589 160.708 123.703
131.839 129.332 40.5957
61.8196 63.5193 150.564
127.414 68.6891 26.603
67.9874 143.115 141.041
108.45 163.745 43.4419
66.8815 198.875 155.416
68.1626 77.1947 156.837
97.5198 132.82 55.1584
104.552 131.928 34.7417
39.786 124.931 168.318
77.9327 122.177 126.777
118.046 76.3338 150.408
112.887 164.018 36.5346
58.6677 171.868 78.3619
44.6957 93.3885 141.41
131.965 182.222 162.734
123.831 131.256 10.8858
94.288 165.29 51.1526
25.0598 185.284 179.319
78.493 193.112 149.95
60.823 118.468 35.119
77.908 129.156 3.26365
45.2558 179.153 172.974
145.961 86.602 6.94279
21.9462 168.555 108.488
67.0833 185.73 80.0619
10.4074 190.009 150.68
111.977 82.2751 14.2946
61.5343 120.283 89.6624
65.7757 129.022 61.3984
89.1015 205.648 150.731
62.973 139.954 139.303
132.586 122.456 3.45505
72.3305 100.547 96.1406
118.172 74.2779 40.9887
88.6665 136.192 50.7263
100.095 116.954 167.737
60.5489 167.637 174.235
119.767 84.1706 6.69333
80.0384 144.467 158.324
129.79 65.3824 31.6713
61.6927 135.063 37.754
75.694 92.6296 151.836
88.5947 192.068 176.814
108.949 152.109 184.699
89.166 207.007 141.109
108.323 74.234 29.1014
88.8245 161.689 35.2615
48.8375 155.223 194.578
40.0561 117.735 162.445
65.5004 107.512 48.8154
67.1833 157.658 194.705
98.9633 74.8416 31.3605
95.5935 142.487 203.538
36.2393 88.0576 136.414
66.8979 206.571 112.992
23.2573 144.392 136.486
93.7106 126.488 181.48
76.6175 175.472 190.583
42.6942 86.4318 103.51
66.8279 181.243 143.811
64.6754 172.301 163.444
47.6425 170.225 173.054
108.235 57.0448 50.2716
133.938 87.8433 20.3037
70.8934 90.7762 179.556
15.7726 159.184 146.903
57.8677 186.314 184.301
41.8316 199.614 153.806
35.4605 88.2664 112.395
75.9827 150.264 173.001
54.8821 181.47 174.501
122.22 96.3604 2.01493
39.8846 84.1396 109.124
63.2956 197.859 89.8185
107.818 68.3891 145.746
25.7714 186.884 137.12
90.8039 105.169 10.1607
24.7235 196.37 129.15
3.57887 181.564 122.076
48.4893 143.869 193.173
51.4275 72.1711 151.775
101.479 94.6813 137.584
54.3039 150.265 155.313
77.9273 127.054 15.8619
155.15 93.8579 19.1855
147.392 119.271 9.27022
97.9514 68.7436 36.6414
36.7524 185.696 176.555
73.5051 135.873 194.826
132.015 67.3879 119.471
90.7016 124.83 14.5845
81.694 145.945 166.689
83.0104 143.354 58.9474
85.9352 206.429 84.7231
145.959 100.892 2.33444
75.2934 199.009 166.043
101.158 128.1 159.353
107.134 208.413 110.75
118.176 164.982 5.39257
49.4551 183.57 177.274
5.99574 193.247 153.812
45.3775 131.199 104.963
92.9058 202.104 122.678
121.66 60.3033 24.3679
90.1927 77.2893 47.1057
73.8082 123.45 53.2059
76.5849 151.147 184.02
67.2711 159.53 73.9974
119.034 70.6417 30.3703
115.773 199.674 87.5267
104.019 164.087 39.5751
114.098 204.824 102.061
44.7894 100.66 35.6889
65.3262 95.2613 73.6436
54.2283 159.577 193.195
90.482 194.284 124.848
72.6596 107.621 155.79
16.4275 188.908 174.162
85.6329 108.389 9.76406
87.8454 178.494 189.132
20.6901 133.128 118.608
62.3639 130.314 42.5849
84.7225 186.96 183.936
115.838 180.412 176.393
66.4606 121.486 93.8895
96.5802 59.6182 18.9784
78.8236 141.099 103.549
73.3855 169.165 168.671
73.7796 153.674 162.06
71.677 124.303 1.58488
85.4191 135.589 5.14364
110.43 129.642 190.549
93.4128 139.376 53.8858
108.561 125.847 16.579
82.4765 99.4189 64.2353
54.0605 174.038 159.772
37.0487 118.59 108.562
7.15851 185.111 166.461
29.4326 124.928 178.415
124.446 161.464 7.47596
75.8009 105.875 167.786
60.7044 150.129 91.5068
9.83834 145.802 165.066
99.5241 187.937 170.268
106.75 79.5418 14.7604
99.1767 138.865 40.9022
68.0993 115.006 50.3568
19.0067 130.56 175.286
144.739 90.9606 3.96144
62.4942 119.968 127.394
84.659 169.106 74.0662
77.9729 181.382 185.174
89.7602 74.6836 71.3481
20.642 191.922 155.926
54.0151 162.567 82.0725
135.458 88.9899 6.61908
88.5883 151.792 30.7953
79.8907 189.921 89.2817
72.6498 130.233 59.9155
65.0252 175.823 102.362
135.193 65.4815 90.0304
87.7267 212.622 135.945
42.3275 197.708 144.006
64.5306 120.007 85.4596
93.5335 165.536 190.655
95.4391 108.827 126.94
89.9958 76.9957 146.571
90.6531 68.397 63.2411
23.8181 148.903 165.187
111.441 146.874 175.881
89.5273 117.274 175.347
89.5336 149.552 5.08136
21.2801 196.233 164.254
30.4999 129.965 109.548
72.1143 154.592 186.332
120.93 56.9251 40.5173
100.14 62.2762 66.8419
94.5536 140.145 4.31074
57.4102 163.746 124.648
89.5667 56.45 115.305
123.413 155.571 174.795
70.0364 192.692 140.665
68.4121 126.311 6.79799
63.016 121.072 192.123
71.8838 187.578 182.346
87.6992 56.0243 31.9374
112.123 74.0934 102.822
11.9116 188.059 123.029
68.3685 130.269 4.79358
107.577 66.4759 65.847
75.1264 111.915 74.0111
78.2638 134.088 105.031
94.7753 207.111 149.083
26.3377 116.249 168.281
89.1055 97.6002 101.769
36.7408 193.633 148.265
107.862 153.497 7.55413
83.4834 198.107 169.381
114.515 123.363 183.063
97.1075 58.9736 36.7827
77.682 136.333 60.9799
81.4927 139.927 174.36
67.8222 133.525 47.0204
121.134 114.42 30.8395
41.5349 101.289 6.87906
13.9905 133.392 166.77
68.6426 137.451 154.496
43.6838 135.811 192.282
76.4399 108.073 50.2704
62.5349 149.659 102.175
38.9681 137.743 113.303
58.7287 168.343 187.352
87.8952 82.6903 172.541
84.0935 212.304 125.284
118.645 119.878 179.523
48.3161 152.025 166.757
45.9751 191.447 165.653
47.666 170.388 100.538
104.088 196.958 73.8014
22.477 136.051 173.539
123.043 80.0837 33.2322
96.0821 201.445 160.581
102.996 64.7369 75.3685
56.0574 69.3102 1.34374
121.947 176.188 181.834
100.872 158.896 28.2453
88.5112 148.3 18.2692
67.3321 125.269 81.3943
64.166 173.165 189.426
111.82 126.792 54.0217
115.705 134.344 18.6606
78.9106 116.212 180.376
30.0801 194.652 140.652
78.696 94.9934 179.752
53.5106 106.461 139.893
68.7438 179.061 168.069
66.1898 98.3424 1.5898
86.2067 69.6748 46.7713
81.6212 152.429 21.8975
79.6608 56.4263 19.194
101.856 107.508 167.322
96.2836 67.3132 91.1664
121.762 70.0786 22.3472
90.1997 200.473 130.473
78.0434 139.728 87.9382
1.81929 137.63 171.13
79.0222 178.125 177.821
38.4142 72.9545 143.398
92.7569 213.164 108.829
102.14 58.489 137.658
58.8372 189.146 176.857
83.8953 144.334 63.5417
89.2188 100.666 167.965
94.0827 102.748 18.7524
92.0145 109.025 152.984
107.789 147.16 198.966
105.512 185.972 75.6675
141.242 72.1835 25.6629
32.135 193.792 118.748
76.7559 63.7296 89.9037
79.7148 81.7938 123.852
83.5187 145.371 4.63938
40.0683 108.317 102.737
42.1138 187.593 108.885
76.075 136.79 56.2177
45.855 112.327 105.56
76.8375 122.371 114.201
105.595 191.997 171.391
113.337 187.675 178.445
112.46 153.485 176.129
85.8571 59.0327 63.4552
85.9825 77.3369 92.1722
45.0891 157.285 94.4548
119.064 67.0693 35.6173
91.0028 146.457 60.9944
152.332 90.3826 23.5048
61.3433 163.145 78.6923
71.7176 188.99 121.225
59.3955 92.0708 168.991
48.8302 169.2 127.257
120.474 130.373 34.5173
134.218 99.4427 9.42974
87.1417 97.0385 151.228
120.38 157.882 20.1003
108.532 181.374 183.286
82.3397 131.76 8.59264
61.7815 114.567 50.1981
31.9305 177.115 108.093
50.4073 167.324 90.4652
74.6107 135.121 3.64524
84.8544 129.951 54.1239
109.111 115.418 188.273
85.58 110.406 187.835
70.8789 107.97 92.2138
90.1208 208.193 124.928
90.3851 131.276 30.1063
54.7565 149.465 97.6343
99.4383 183.522 187.359
80.3668 104.654 177.875
109.67 71.3587 83.2834
101.726 85.4409 166.979
40.1279 186.93 155.397
67.0624 126.242 30.3881
78.5795 78.325 153.263
75.8944 132.628 129.139
48.4611 188.455 132.361
48.1366 142.046 187.427
8.82557 171.665 140.533
77.5949 129.65 197.952
33.7351 189.774 180.254
25.1756 133.512 141.989
57.8385 154.448 196.463
55.5567 180.101 187.295
88.2124 93.7779 179.758
107.903 65.2389 24.5328
112.576 140.121 36.7575
47.9476 98.2723 158.306
115.778 124.281 30.5908
67.6146 98.0804 161.782
107.187 195.238 80.0358
71.4226 139.738 56.2663
77.3722 210.139 115.334
71.6367 72.0369 49.7555
118.963 128.863 48.594
77.8292 145.597 193.04
52.7477 192.434 100.435
17.9598 177.362 127.829
84.3565 146.76 73.0338
108.784 55.7731 38.9708
100.086 91.4343 25.0417
129.677 90.0394 24.2091
79.0107 180.646 169.196
92.0664 124.016 161.256
123.686 122.327 32.8402
74.4104 128.685 65.465
6.93648 191.032 145.635
84.8121 122.387 33.4207
48.378 192.707 104.346
130.863 110.066 26.0992
74.7959 116.414 192.666
103.339 199.577 94.9534
87.0297 144.782 13.7006
118.07 140.487 157.105
110.365 75.359 54.1966
86.9518 67.7237 65.9744
68.5226 97.7439 54.4061
76.5781 115.534 136.717
84.7246 79.3474 138.775
111.427 127.277 161.732
112.652 182.609 75.0965
86.109 115.145 79.0527
79.0181 78.2959 51.3164
53.4666 190.718 180.35
61.7711 155.482 82.2299
13.6877 150.71 157.863
118.223 174.407 59.8562
60.9311 176.257 89.6374
80.8274 136.865 164.177
80.9748 127.364 186.406
60.7988 131.985 140.899
16.2054 113.949 130.104
96.6778 200.402 95.1886
113.929 61.9996 35.2414
39.1171 197.689 128.116
80.8778 132.942 48.6106
103.617 69.571 56.6882
84.1624 130.391 180.52
122.649 75.2834 94.3353
54.3674 157.958 93.7849
140.521 79.507 23.344
79.1824 201.416 138.137
70.2666 122.735 77.4191
15.2614 192.733 164.611
87.509 131.089 183.272
20.0747 141.741 166.737
110.428 128.076 38.2957
76.5511 157.813 190.56
64.3654 157.094 117.368
37.3988 195.036 170.478
135.688 142.823 32.8922
90.3134 181.201 73.7753
85.8807 171.279 184.437
82.5253 83.3346 164.069
10.2047 189.698 163.723
68.5537 114.549 76.6915
107.875 67.166 135.43
61.5738 109.705 178.72
25.9636 130.802 137.628
140.059 135.941 23.5791
75.4058 195.353 81.1633
51.7824 149.498 107.167
119.325 128.133 3.81498
81.3754 195.78 124.039
73.4479 149.585 98.2695
92.0106 197.564 172.139
76.7461 133.815 24.3525
16.5993 136.734 150.032
66.843 147.207 81.0696
40.6023 100.572 122.571
57.9036 201.012 134.792
81.0763 191.81 179.144
89.7269 123.106 136.789
110.671 52.1916 78.9591
86.826 136.86 18.7179
134.87 132.281 34.8991
99.5406 142.806 2.68755
78.6481 120.028 41.746
87.5183 132.984 166.077
52.7749 136.622 95.2311
50.1971 176.564 123.346
65.2258 137.717 54.6004
30.7871 117.299 164.589
123.752 141.801 180.397
70.2771 74.4101 168.88
146.681 116.91 4.37918
68.6879 180.963 100.805
71.2986 208.333 138.726
76.1573 96.2854 50.7377
131.116 132.871 175.618
60.642 204.238 106.042
111.226 180.442 163.399
79.1354 140.371 53.9743
65.3237 165.879 101.567
46.0552 201.795 141.26
143.774 124.932 40.6106
22.5468 129.425 147.125
139.238 91.7627 8.10306
70.5552 168.165 117.899
89.618 182.633 184.498
97.0854 153.286 79.8255
104.514 144.682 100.718
72.7091 199.818 149.908
90.7945 145.081 111.292
103.452 71.3049 114.066
56.5237 117.474 113.805
70.7213 129.729 10.8287
96.9126 95.9641 53.4586
114.931 158.478 197.595
62.2743 148.958 82.2271
135.116 65.8013 97.5641
101.797 166.856 175.901
44.3828 105.304 140.721
145.896 84.0157 12.5333
72.9017 125.649 34.7673
78.1916 134.309 36.3794
94.8434 158.377 13.8917
47.6666 154.295 175.335
100.543 165.605 65.3664
105.187 80.8039 153.62
65.7972 95.3527 167.744
50.5768 158.922 89.253
73.0783 151.142 81.0041
115.236 152.424 30.3244
31.6676 103.649 151.874
29.2881 192.605 128.973
48.6413 157.221 98.2935
73.6099 109.162 194.061
25.2816 199.111 147.567
89.2934 139.046 3.29528
124.545 158.95 168.973
98.0859 167.452 193.526
108.671 172.452 168.993
48.2005 102.286 51.4699
64.3872 139.216 146.209
113.292 161.123 177.484
107.137 125.874 194.73
81.241 90.4222 73.4319
100.967 153.641 87.3841
127.783 87.1365 28.2247
149.869 119.163 25.7753
28.7872 134.576 133.721
84.3863 131.232 44.2668
110.489 171.953 63.2756
122.457 153.273 26.3537
111.928 192.814 169.922
70.5676 115.951 45.6081
32.4509 144.342 191.535
95.5131 142.798 69.2526
108.875 56.3823 85.2612
121.82 159.212 182.566
80.6084 124.931 41.6599
123.874 62.3247 32.3644
116.775 149.816 198.089
107.478 182.804 83.1408
84.7536 139.363 31.4656
80.3894 173.69 185.241
114.021 113.004 180.725
73.531 159.75 110.59
55.4807 71.7299 128.127
125.49 60.4685 37.2131
86.906 135.642 160.489
140.626 123.967 21.6042
103.67 98.583 1.28373
81.6127 116.402 125.265
98.4842 67.7615 117.734
69.6615 118.186 119.621
65.1803 133.471 29.5031
101.641 125.846 166.955
45.6704 188.148 103.269
31.1037 195.4 154.715
127.146 123.785 1.49761
116.718 201.282 121.207
43.2336 179.548 186.857
18.8613 135.467 178.097
77.5498 139.916 69.1959
95.5138 57.3661 27.093
98.9461 184.945 89.2794
92.5826 135.437 102.283
78.6154 126.678 98.4527
92.7306 86.2612 5.63077
116.368 200.298 97.5686
24.1583 123.198 154.622
63.9021 184.772 167.997
75.256 129.383 153.249
116.666 142.594 189.188
47.0465 198.416 167.33
141.13 132.648 33.6961
90.0469 135.378 76.5273
79.1537 204.107 144.642
69.8421 155.219 155.258
61.9043 174.317 75.1812
99.5997 88.7639 13.6449
86.8798 91.321 157.06
105.009 58.8769 122.586
74.623 201.905 90.3012
38.2521 145.183 186.866
96.471 130.465 7.0338
50.8829 85.5282 114.656
86.2517 148.805 50.9583
81.6311 83.3208 177.802
75.7257 57.6938 91.6061
105.016 202.701 156.591
65.3474 74.4931 75.4693
138.197 95.1565 1.43216
88.521 109.814 176.745
69.2097 136.422 71.5497
58.6132 165.402 82.9899
33.549 196.519 125.036
55.3964 172.467 124.71
53.236 105.199 86.4227
101.149 64.4289 88.5917
80.2175 138.154 1.28444
49.9955 136.99 89.775
98.0799 115.647 158.497
101.412 199.558 127.588
67.3842 77.8033 1.08023
58.4511 193.259 170.085
93.6767 160.011 68.1756
2.13303 167.184 135.464
82.4429 120.132 75.2873
135.892 115.441 27.1574
50.0408 137.555 193.914
152.361 116.073 13.7898
73.6457 119.878 132.433
61.7622 146.86 123.149
116.161 87.485 147.912
65.2633 149.089 94.3673
110.169 56.4608 125.436
64.2225 163.9 86.3623
112.419 78.5637 46.1839
138.801 68.5413 107.73
39.8754 160.17 181.339
67.4452 142.854 104.416
46.2464 147.839 179.459
127.806 146.042 17.5822
119.397 149.374 4.515
110.678 169.039 176.452
102.024 159.168 79.7479
113.567 87.6636 132.988
82.9094 209.945 143.369
88.6072 208.934 106.862
115.279 54.0418 70.7139
92.246 148.209 64.3268
79.9936 95.3079 61.6365
49.4187 182.209 167.866
78.1813 199.373 92.3154
111.178 51.906 49.5904
123.18 64.8897 95.2147
59.3864 135.402 136.045
137.989 127.34 3.89177
75.8471 119.961 34.425
125.652 57.8057 73.7777
83.1112 130.487 14.5708
109.805 52.4303 72.0341
144.575 85.3604 26.8315
121.079 54.1578 69.9419
141.649 126.505 35.3001
96.2265 136.956 17.0602
37.6989 191.501 125.139
71.6089 130.382 38.8344
65.8057 191.972 173.976
69.3688 143.29 126.464
92.5642 212.859 68.7138
29.9624 192.149 123.218
79.2563 158.046 164.238
83.7398 143.852 24.2201
114.46 173.26 54.334
114.232 144.931 1.38801
68.3735 201.954 79.3009
81.2735 177.547 191.522
44.0672 148.574 117.908
101.205 109.21 179.872
54.2089 101.356 52.8796
15.949 195.106 158.674
114.56 203.164 139.668
126.431 178.197 71.0317
68.2645 88.5994 73.1369
72.8608 147.255 112.337
123.574 59.5312 49.881
54.874 151.327 86.8178
76.0967 128.489 80.7166
77.4072 188.777 142.834
41.0167 184.303 161.233
77.7353 81.2987 32.9878
76.1806 109.481 91.9099
68.6852 188.331 158.964
84.6918 140.807 69.1349
120.455 150.587 45.3785
118.926 55.5853 89.594
101.756 60.3768 99.5444
61.6485 72.7625 149.784
84.2131 86.3789 130.851
126.02 188.843 85.7499
60.932 186.29 137.204
85.9127 106.316 1.37148
143.544 130.678 44.9957
57.3124 156.981 117.674
