ply
format ascii 1.0
comment Created by Open3D
element vertex 592
property double x
property double y
property double z
end_header
55.3331 194.614 215.412
113.141 162.879 121.341
80.2977 102.802 180.879
26.4981 176.429 164.843
53.0627 104.653 182.044
29.5924 161.915 189.883
35.1131 181.707 195.116
62.2541 206.528 214.576
37.3025 211.245 167.979
31.4151 189.931 173.222
107.173 205.138 120.413
50.4783 127.029 202.54
86.0723 153.016 88.409
84.621 109.376 189.61
70.3576 178.764 84.1393
45.942 189.049 208.789
42.4301 220.45 164.92
72.3117 225.67 123.464
59.9052 112.615 197.803
39.578 200.132 139.001
81.218 101.182 166.784
57.9478 43.0919 165.723
107.39 139.097 181.57
60.8826 191.731 220.514
29.184 139.199 173.738
112.317 199.577 140.1
51.4107 136.884 209.184
25.4303 149.014 167.125
74.1161 105.24 141.548
87.4996 112.159 138.393
113.782 186.925 117.243
39.195 123.903 186.823
108.673 140.802 133.66
33.7791 187.687 186.326
43.0681 223.31 158.937
91.3905 112.205 147.602
104.619 168.82 102.492
72.6329 98.4601 165.268
64.1913 223.738 124.534
64.326 219.476 204.289
103.602 142.149 193.555
115.67 174.08 128.997
75.7166 102.683 150.417
43.0296 131.762 200.205
107.128 192.166 196.054
59.6263 208.217 109.345
39.6865 174.221 202.758
86.6743 114.645 127.191
55.4262 142.712 94.6154
51.812 154.737 94.0299
56.6941 23.5487 147.414
77.1467 149.495 85.7498
35.5566 208.845 152.355
45.3603 141.793 206.091
46.8424 109.354 154.306
101.682 216.812 144.494
100.402 180.595 212.262
62.5136 58.8453 163.378
81.3648 176.092 226.967
37.7989 210.05 160.223
50.1608 59.54 129.924
45.6399 181.412 99.6559
76.3756 126.984 103.351
48.7973 109.045 189.492
66.4024 201.451 217.539
39.0721 155.144 204.018
67.4586 227.177 195.16
55.4429 161.978 87.6591
103.511 196.213 201.338
26.2623 151.012 131.878
78.257 6.14038 140.478
64.3525 104.392 141.647
94.6405 184.457 219.106
54.2128 216.661 129.594
40.6712 34.619 91.8609
57.4228 172.485 86.6662
38.535 115.346 161.659
25.4488 162.722 154.284
54.4152 180.076 217.045
66.3235 99.8325 183.275
40.0897 55.3576 90.2234
94.2769 125.942 119.75
29.5339 169.381 130.54
71.3944 198.004 221.971
47.6285 111.086 140.593
112.733 198.097 128.837
49.4451 163.205 96.4933
69.1563 58.0898 156.32
105.717 220.123 162.627
65.2845 32.5474 87.0246
100.854 140.881 202.52
58.5052 225.143 194.744
70.9656 3.92353 149.466
87.492 138.294 98.048
46.3209 209.208 122.506
46.7008 222.696 175.091
66.7871 116.912 114.466
58.0838 33.8284 86.3653
67.5102 46.2725 170.798
34.8333 202.888 168.962
111.153 169.061 114.126
32.8113 58.6311 116.452
41.0891 43.7235 87.5988
33.2691 192.467 149.397
55.0147 175.055 92.4797
87.7239 182.678 88.3621
28.3553 131.476 154.329
67.4956 160.927 82.9553
27.3544 159.642 176.981
112.987 158.568 184.222
116.267 182.386 161.926
45.4332 109.966 180.035
109.424 156.683 113.222
56.0565 48.2785 87.1697
56.9047 151.668 89.5109
74.9991 114.367 198.695
45.7261 151.509 210.297
67.6105 43.7922 86.9342
77.8103 6.66107 175.389
56.9243 58.9899 154.129
52.9587 200.532 210.485
73.7702 143.838 90.3772
72.4126 111.134 125.107
53.5233 207.612 207.081
26.9573 172.246 175.521
114.173 168.947 183.67
59.4106 124.734 104.017
42.8367 191.773 116.708
43.1203 23.6966 97.2973
47.602 216.783 143.104
50.9484 53.1929 157.04
29.4215 141.349 124.992
32.4068 42.9895 110.203
44.4729 190.659 106.661
102.79 173.194 206.766
78.8474 174.057 84.4199
93.7128 24.2081 172.056
111.098 149.971 187.228
79.8594 160.63 221.188
107.396 200.129 113.646
98.7626 12.2467 180.032
77.2064 190.016 90.9849
27.3959 150.806 180.468
53.9508 37.8402 156.353
46.148 176.886 211.721
84.1318 129.462 103.685
112.905 146.795 143.625
61.226 19.1444 154.284
82.7064 3.40805 168.243
65.4526 18.7891 100.436
99.3088 152.981 205.733
64.2941 185.53 223.032
91.1551 164.975 85.4309
41.1983 114.417 183.823
106.449 135.104 174.198
47.2673 174.117 98.2451
90.6181 174.188 86.9362
104.622 128.796 159.788
65.3285 108.733 131.92
84.8752 142.413 91.1788
57.3164 113.05 123.448
46.3953 218.945 182.858
98.4861 171.917 93.4126
84.7814 119.801 117.533
87.8387 201.387 216.334
114.564 177.275 119.987
30.5761 142.852 183.451
73.3168 42.552 93.5925
60.5348 61.9616 145.845
111.276 142.594 151.761
70.5185 167.444 222.517
108.041 17.189 145.743
56.2074 182.23 90.1055
78.7298 197.607 222.341
29.7556 181.416 177.533
40.7936 114.171 150.766
36.0528 163.792 201.153
71.9479 8.80668 161.542
106.171 152.439 195.506
53.0454 216.037 121.477
55.0236 48.9315 162.689
112.313 146.302 176.754
42.3031 199.62 120.89
56.3061 216.797 201.449
83.3718 126.178 205.365
98.086 118.967 148.182
34.752 198.481 184.365
61.1988 135.458 95.752
63.0241 206.348 103.846
60.8109 228.82 186.633
102.444 216.123 175.699
84.3395 11.299 114.129
43.9573 212.672 137.289
29.0787 144.333 132.07
50.3054 206.722 113.941
77.7458 16.0419 108.899
65.4869 25.0838 90.2831
115.005 182.323 135.151
30.195 182.308 159.362
27.8824 149.685 147.452
57.2375 23.8568 132.211
40.0121 197.847 127.018
35.5196 170.331 115.538
97.6571 224.78 172.254
107.954 207.779 128.717
96.4335 144.385 209
28.4278 179.803 149.252
100.624 205.906 109.612
27.5773 159.191 134.612
63.8719 227.324 139.554
102.201 122.416 169.775
44.3052 196.17 203.19
106.242 133.681 146.972
91.1729 110.554 178.556
75.6017 135.531 93.0655
72.7129 14.7698 170.37
47.8052 164.172 211.723
67.815 103.471 189.798
48.0546 227.988 153.331
104.913 156.899 104.062
67.5669 133.628 95.249
31.9603 151.359 192.301
49.0479 50.908 89.4362
63.6504 181.246 87.8486
41.6917 204.549 132.114
33.0958 124.582 169.128
59.9716 100.825 184.309
103.129 187.74 102.961
108.345 204.44 180.362
84.6402 106.775 148.907
55.3546 229.851 178.677
68.0223 123.005 104.784
46.6039 221.622 148.742
31.8799 123.615 155.779
97.8204 180.855 95.3247
36.0169 163.061 111.024
109.472 185.859 108.386
36.2085 44.9083 124.017
56.7377 107.379 134.643
58.2083 25.8103 158.291
62.6834 177.594 224.756
53.7092 229.219 162.599
50.3888 60.1398 147.749
54.0129 105.039 150.238
29.4414 172.266 186.465
75.7083 20.3642 166.16
73.5331 28.5063 97.235
48.8636 188.495 100.898
32.6907 43.6936 99.2334
101.658 5.80622 147.041
52.7705 24.5914 95.3392
67.3154 14.475 144.626
99.328 140.714 108.918
62.8946 169.368 84.4004
33.3477 55.1788 107.33
38.5204 146.294 199.853
84.1122 165.276 84.33
114.077 184.003 127.225
66.6056 110.387 197.091
101.154 191.795 209.697
55.5454 188.545 94.4406
64.9774 193.964 92.6006
106.046 209.188 139.466
95.7492 122.562 132.6
50.3353 29.2267 89.9035
62.3714 218.845 119.825
74.1792 106.718 191.92
109.683 209.951 160.643
59.2855 61.4026 114.54
109.524 183.216 198.686
43.1631 133.906 105.863
103.741 141.968 117.759
37.1385 131.962 117.428
69.9837 19.5701 178.594
105.073 184.432 205.354
115.955 190.991 131.275
63.2195 100.102 160.931
66.2455 99.7327 174.537
67.9383 147.161 90.484
111.501 188.426 189.669
95.4591 215.111 120.406
62.4082 64.6429 135.052
105.064 165.524 202.707
50.7116 48.1033 149.151
104.862 2.58475 134.861
74.1397 53.1454 104.466
89.3137 164.763 220.276
92.2155 117.583 190.387
40.8602 49.5596 132.294
53.8375 32.217 150.105
103.217 212.019 123.823
71.6391 48.8021 123.629
28.5252 137.307 147.974
31.2045 194.961 165.164
30.7381 134.652 164.797
77.5702 166.547 84.8401
50.0963 195.612 109.412
103.306 210.776 193.352
75.5386 230.685 141.56
89.0803 219.723 120
111.538 151.513 125.974
33.1101 129.376 178.613
72.2958 22.5818 103.873
64.6411 51.6913 95.4448
76.555 221.053 118.942
112.094 194.641 121.609
63.7418 25.7069 166.304
76.4549 119.489 112.394
40.916 121.353 124.153
45.2116 109.255 162.857
68.7988 27.2999 176.476
102.947 222.621 151.665
49.1015 58.4117 116.745
57.0693 199.242 101.199
42.2599 57.4839 129.571
24.2576 161.976 165.544
97.4689 16.0426 175
101.847 132.656 128.812
109.523 4.28184 144.557
34.7021 120.891 147.614
79.2066 110.546 130.781
29.1122 139.749 140.982
80.3149 21.0802 98.2106
73.0403 50.5395 113.188
96.1564 5.85113 182.389
87.1309 169.65 226.176
28.739 152.195 120.413
103.864 159.624 208.063
79.0305 19.6892 180.766
51.0263 115.016 194.093
65.5031 187.846 90.9704
42.6102 58.6725 121.265
36.5833 152.124 114.214
79.02 13.145 177.245
35.739 35.7171 99.4578
98.8194 196.063 102.167
71.4905 43.9913 108.505
104.752 20.3873 141.288
36.8399 189.051 132.773
98.402 117.847 178.207
61.6175 103.54 148.614
87.5559 34.9095 163.522
83.1153 186.539 90.0534
94.0122 23.5843 117.367
68.7594 54.6011 128.521
84.0522 222.326 200.518
51.8589 67.1617 128.809
92.9043 154.643 214.143
31.8608 134.182 123.887
31.963 125.427 134.211
34.2809 140.038 194.043
55.9198 40.7777 86.2564
53.3925 58.1915 95.9843
40.143 184.781 111.066
85.3374 209.071 102.392
98.6155 200.669 206.651
83.9661 151.563 217.894
95.8286 160.107 89.3355
65.6119 127.131 98.1029
86.2967 104.418 162.892
92.9362 109.203 161.41
52.7042 133.832 97.1711
52.2644 230.095 169.15
85.5239 228.502 189.181
101.253 219.796 186.299
57.3244 104.698 192.035
71.6897 186.594 226.599
63.5766 16.1212 124.59
104.473 199.167 105.051
56.6364 118.152 111.785
80.4889 183.909 227.079
49.346 117.039 122.911
59.0361 166.186 219.805
99.7467 118.238 159.217
109.765 9.42863 160.964
31.4944 146.526 117.126
92.5599 203.83 210.835
71.4561 40.7856 122.691
74.2906 222.664 202.706
58.6163 228.451 145.436
39.5277 200.193 194.685
69.4958 101.7 155.118
98.4301 152.548 99.5908
75.7958 210.327 102.146
42.3761 59.815 101.334
47.6977 34.9085 85.0856
33.6448 134.381 186.786
72.7553 31.8395 90.6143
90.19 25.5927 143.898
82.0552 36.7061 171.634
39.6362 177.238 108.706
89.9017 16.6592 111.127
86.3716 230.492 178.036
94.4537 5.15792 127.327
40.7774 163.53 98.7452
86.1954 223.843 134.561
77.3035 29.9062 174.813
32.0209 197.869 153.937
74.8995 40.9386 114.175
68.7382 59.2786 111.849
50.9689 181.186 93.9415
111.421 194.064 111.574
40.9016 142.957 105.98
38.6009 118.221 176.31
45.9165 105.944 172.503
40.6271 213.446 180.89
111.301 200.22 168.218
106.803 200.576 190.678
79.3656 189.653 225.307
77.0633 46.9473 166.766
40.8114 152.767 100.57
46.3151 123.296 195.909
114.415 197.193 157.948
49.9045 42.3974 143.765
86.4789 8.33413 178.963
40.1396 219.181 151.322
53.7686 103.395 162.11
57.8031 223.196 131.02
94.3096 225.465 185.693
32.1564 165.735 121.727
82.1607 225.91 124.087
65.4706 54.0343 141.497
68.3736 63.5271 129.65
91.1965 176.941 226.052
71.1133 56.9668 120.327
64.7803 138.511 214.75
26.7212 137.673 161.246
100.56 25.8694 138.015
31.4568 158.622 120.886
58.2195 123.569 206.736
104.623 18.7882 155.398
70.9748 209.589 212.842
51.5106 201.481 109.941
75.4601 46.0195 174.518
75.9444 202.166 214.527
53.9375 104.795 141.759
42.0446 207.276 193.286
69.8297 209.766 105.658
60.5524 12.6789 149.457
37.839 115.864 169.95
108.339 12.9337 167.189
45.9328 143.834 103.36
57.7905 230.724 153.931
109.888 12.8898 152.96
112.204 145.097 165.061
83.3904 2.95137 146.349
108.28 159.462 196.774
71.9834 20.7005 90.7238
64.2612 119.939 202.674
54.3978 145.69 213.693
35.7077 144.493 109.162
71.0457 19.2266 155.073
100.915 8.63725 133.983
51.3697 129.201 101.641
55.4609 20.5343 106.243
97.7666 161.886 215.442
75.532 228.249 131.095
62.0126 145.966 90.0129
70.7846 47.6842 150.377
72.6754 100.463 178.943
60.3748 160.018 84.2709
36.047 184.862 123.02
93.4133 136.672 103.249
38.8281 213.342 142.909
112.681 195.086 178.427
62.6139 37.8785 162.379
56.6331 63.7033 109.709
49.7824 216.563 134.165
94.3324 230.127 159.554
70.1397 156.691 220.887
88.4099 229.399 145.435
37.2999 131.837 192.661
38.6204 117.74 132.932
92.4194 225.66 141.913
28.8068 132.831 138.88
77.0591 199.46 95.5431
70.0119 125.42 208.592
113.826 184.265 180.336
94.6103 216.386 197.858
72.2415 177.44 227.4
87.1099 201.768 97.6578
37.282 206.469 182.374
67.3824 153.337 82.5856
66.781 213.489 207.925
104.946 18.2176 132.293
52.9119 226.207 146.616
64.9585 149.993 219.108
22.3399 111.094 2.04191
100.893 161.659 94.2263
77.1361 230.776 186.14
45.0448 124.646 115.642
24.4585 155.794 147.506
108.467 177.325 110.416
45.1125 138.532 99.8092
71.3066 217.082 111.253
74.0259 137.073 213.802
39.8521 41.2054 114.461
81.9365 138.403 215.703
92.034 230.285 171.904
115.07 169.796 171.939
79.9213 217.281 112.39
28.8743 132.443 132.17
94.2957 126.177 200.046
49.0368 26.5198 103.06
41.9712 169.314 101.453
82.98 230.248 142.552
98.3902 174.335 222.401
86.939 223.675 128.533
99.6529 16.786 124.306
87.6565 193.155 95.493
44.7497 117.514 189.065
73.8097 14.5229 161.016
108.75 176.583 197.938
93.7549 230.188 148.409
49.5543 166.086 90.8076
99.9457 226.398 163.301
32.9265 194.975 140.565
72.6002 33.0353 169.14
83.0999 212.73 206.41
87.9669 22.6561 103.439
59.0141 100.605 173.777
82.7082 32.8902 95.8568
104.385 18.9857 170.641
97.4373 21.7581 160.471
88.9172 25.6391 125.807
66.5198 227.898 132.685
40.7477 22.47 103.524
66.4249 56.628 102.675
88.3546 217.215 112.157
112.252 205.428 154.506
118.671 158.132 228.659
46.8647 124.323 107.664
97.7605 129.762 34.864
54.8392 194.271 98.4016
37.4377 38.6826 108.223
63.8713 16.5615 118.57
63.238 95.7803 232.017
55.5022 212.458 115.687
74.7166 142.993 217.694
86.5762 85.5824 178.256
81.6822 215.081 107.024
69.117 17.0913 114.39
87.3982 192.736 219.112
43.2446 63.1724 113.384
60.3316 215.754 112.118
38.8125 117.996 141.268
75.2072 9.8939 152.412
98.8749 216.118 135.008
117.924 167.796 145.881
101.421 167.292 212.468
95.1098 205.759 102.471
71.8055 29.2516 145.258
51.6472 212.758 194.902
99.1514 22.8503 128.399
93.0564 26.2267 150.686
45.9406 43.4437 122.203
32.4456 178.251 122.672
83.2719 145.101 215.451
91.2292 19.7193 166.446
79.14 225.872 192.986
67.541 199.274 96.263
35.866 138.156 113.476
108.431 2.02379 156.426
59.0006 133.077 212.089
93.3141 149.519 94.2589
95.2484 209.99 202.476
45.8752 156.177 99.0035
96.9553 214.033 112.089
100.292 214.69 189.958
76.6782 159.647 81.9662
99.3992 28.211 151.156
95.2906 134.654 203.745
81.0084 3.3789 122.998
53.4301 28.2765 113.084
49.6754 145.312 98.3692
87.9239 5.45251 119.521
90.7356 1.46299 178.502
35.0103 81.1672 34.9109
61.1901 31.669 162.822
69.8341 228.425 185.736
70.0045 58.7772 140.684
84.1113 2.82619 151.982
99.7706 227.922 148.698
75.8238 2.53517 163.462
108.408 105.978 205.814
53.1909 19.9228 101.199
94.4581 28.0187 137.061
62.5474 91.7606 229.14
67.1973 231.602 178.127
98.418 215.24 129.944
75.0766 198.258 242.984
101.012 1.15103 153.647
