ply
format ascii 1.0
comment Created by Open3D
element vertex 565
property double x
property double y
property double z
end_header
37.7049 183.473 157.525
33.8453 49.0434 184.974
120.993 121.361 129.763
42.9709 146.291 82.6567
30.8262 151.535 208.125
17.4888 165.583 123.811
45.4498 107.719 230.321
5.47144 141.165 141.898
38.8435 178.729 188.377
53.3092 83.9823 231.924
7.6365 70.3486 163.464
45.8985 46.3689 192.694
13.1909 140.442 101.184
25.1844 163.011 196.36
40.2763 129.889 224.901
5.64284 127.213 111.273
21.4844 166.628 185.153
15.2496 159.736 174.985
36.8795 147.698 218.286
18.4834 164.252 167.664
21.3492 154.048 194.569
16.7768 130.671 93.7649
32.6342 134.476 221.973
56.6756 122.634 74.8593
28.5108 83.3568 211.264
55.0301 154.482 89.2892
85.3852 42.1945 144.733
54.0653 41.5068 132.96
7.86825 164 138.21
22.5301 114.787 214.892
6.74793 156.011 149.978
58.8061 133.084 231.864
24.5314 117.19 194.563
5.18177 133.29 121.163
73.2985 39.5425 140.785
37.0945 49.0527 196.325
121.24 87.5875 141.687
23.7388 153.212 202.28
49.9854 128.738 230.527
5.12915 141.221 165.748
6.3979 123.919 169.933
46.3071 119.475 80.5028
40.2947 152.299 88.8303
39.1974 66.1587 205.986
17.7761 171.527 158.103
44.4346 50.5141 202.898
22.0141 78.0253 203.542
57.3665 38.8982 145.425
16.5337 154.924 185.047
21.0029 99.4966 207.484
41.3711 59.2178 210.034
6.1214 105.281 188.517
7.00251 96.6936 123.063
96.3975 45.3052 168.321
6.69289 84.1213 163.338
123.649 109.33 133.056
8.9913 137.606 110.347
53.6552 116.747 231.314
41.537 67.4232 216.277
65.6244 143.532 227.954
20.0817 129.669 209.316
46.6061 70.1546 80.0965
14.5758 126.383 202.337
59.8527 48.6869 208.271
19.487 141.873 203.667
8.398 129.886 102.314
18.4011 108.301 209.411
33.0675 45.5287 166.092
110.427 132.856 118.768
28.6685 178.108 152.171
21.7346 94.7101 83.1765
14.6463 146.412 192.336
46.377 174.832 203.908
13.5588 136.84 194.957
46.2157 93.7194 230.737
21.4001 143.009 162.664
13.847 115.63 202.102
36.3047 155.315 95.9219
17.5818 172.803 138.769
39.6872 183.271 148.597
6.15718 125.358 181.243
29.9072 138.134 84.246
15.1825 162.259 132.643
42.6861 182.926 166.115
25.6019 123.895 216.076
39.1467 57.9073 91.3451
35.6456 118.326 224.79
60.0343 152.044 200.545
105.715 120.069 100.168
65.7888 125.088 76.3285
6.60545 142.604 120.609
62.6798 80.5271 228.064
34.2004 177.695 179.893
55.9102 176.748 196.639
38.7985 57.4052 102.385
67.1414 126.702 232.008
49.2702 66.3456 220.742
35.1874 120.672 82.7233
68.8273 47.801 207.718
12.9575 58.8536 148.59
46.1725 160.474 96.0047
22.0205 53.269 159.764
5.4362 99.9332 178.732
43.1383 44.3547 172.038
44.5806 119.354 229.303
8.07016 152.119 169.128
5.69109 129.755 133.93
7.49094 154.945 138.745
46.5319 54.1864 101.724
30.2308 159.187 101.014
23.9052 171.084 175.095
9.38821 161.21 159.241
38.8699 162.526 103.123
25.1476 57.9639 187.269
12.0381 168.512 147.214
38.6075 42.7026 178.539
8.98442 134.811 185.087
40.9079 83.0589 220.771
6.38637 107.748 112.144
8.1729 67.5861 123.739
52.5482 92.9215 72.3627
62.2674 57.8833 216.52
34.7014 56.3812 203.472
5.43019 131.768 148.449
28.8311 90.7817 216.435
128.731 107.268 163.562
26.8208 175.885 138.397
11.8789 73.8211 114.47
41.2282 43.5923 152.383
66.9398 168.417 210.809
62.3357 43.2701 116.986
45.8559 37.2536 161.68
51.2653 41.6263 184.615
8.28159 72.6576 133.92
110.069 76.0407 141.441
11.3144 82.3195 184.272
107.217 103.738 215.166
60.4132 83.2358 80.2449
117.791 95.7176 194.402
27.4598 144.859 93.7008
55.199 145.397 227.744
104.877 130.001 105.27
47.236 166.761 211.774
35.527 73.7359 210.361
11.2763 106.754 199.043
23.4132 52.8104 142.057
26.6981 134.006 216.073
27.5871 175.235 164.741
45.6366 150.691 222.115
94.5037 111.357 87.6907
18.4211 73.5526 193.292
24.3255 116.157 85.4441
47.4833 186.913 144.213
82.5859 38.8153 162.451
93.4291 50.5743 126.187
5.33047 84.8261 123.542
111.072 113.483 209.865
6.78089 137.222 174.149
106.09 148.23 121.658
8.97969 96.4308 135.24
6.01223 145.951 156.189
128.566 100.393 168.015
42.9821 110.15 74.6174
113.872 142.946 129.452
43.2627 178.131 195.864
30.8637 110.464 221.234
113.986 103.968 204.911
119.164 89.2649 125.447
20.7534 56.2038 149.466
113.603 85.0312 202.337
77.3466 57.9163 214.177
6.61535 87.1161 174.537
37.4116 76.2149 78.4624
15.8517 94.9586 201.787
29.1712 47.2506 156.403
115.432 78.2673 126.549
4.88149 100.01 169.531
12.6883 118.67 98.7011
106.474 140.7 120.102
46.6828 181.141 118.541
120.238 104.91 194.536
10.2217 145.687 180.318
5.84719 113.786 181.544
25.7619 160.385 110.135
78.864 45.7091 203.207
77.6368 43.3003 193.306
26.9715 100.636 215.335
91.2326 71.0373 211.601
47.7612 139.664 225.895
57.267 185.853 168.599
123.917 96.9157 185.783
63.3325 116.85 232.76
90.2187 52.2382 113.628
7.78711 106.046 106.773
119.624 87.5064 132.666
6.8382 57.9389 129.788
28.8335 70.1694 205.262
36.4986 130.225 79.5439
61.1412 146.069 83.7731
10.4624 126.069 192.587
39.646 66.2622 84.2521
39.6137 97.6992 225.619
51.702 80.9939 76.1071
33.4047 137.194 196.796
15.0318 65.7308 171.106
91.5485 92.8573 78.4442
55.899 188.846 155.299
24.992 55.8075 117.503
90.3738 43.5388 175.978
26.1512 141.094 211.136
33.8121 96.3311 222.588
123.737 99.1922 140.916
115.93 77.7512 137.411
8.85795 74.4514 175.401
66.5782 101.226 230.988
54.523 180.674 183.763
13.4555 57.32 122.288
86.848 45.0391 187.545
67.8327 47.1548 108.807
123.964 137.932 156.602
26.6872 173.735 123.612
117.499 112.352 198.634
103.292 154.972 127.144
30.8235 54.4252 192.839
106.714 65.5124 163.231
67.6838 44.5118 197.044
18.9007 67.9176 118.297
49.7258 181.586 173.521
112.37 64.6374 174.481
51.1743 38.9291 173.984
93.1258 95.1818 230.406
12.8055 63.3309 160.48
55.3829 171.822 207.745
74.6774 79.041 83.0408
119.657 85.1733 193.686
102.632 73.0349 117.831
33.7946 106.54 74.9394
53.6025 101.605 76.0299
27.9328 174.348 183.722
57.6965 47.7414 109.728
123.491 129.266 139.447
5.3658 138.157 132.819
60.6237 41.464 185.148
27.4127 169.085 112.902
63.8548 87.7073 231.744
73.2661 65.1911 88.4579
72.5327 111.076 233.635
14.5302 96.972 90.1194
107.167 91.0455 212.613
129.519 112.526 156.887
18.1782 159.989 108.207
16.5376 72.7837 183.78
126.267 102.743 151.459
66.9547 104.183 73.1086
113.281 130.496 201.468
109.012 123.602 106.811
35.1256 61.5867 195.675
126.821 115.9 165.227
77.8814 53.036 112.433
94.1578 45.2799 146.213
31.7497 172.634 192.06
11.6164 97.2673 102.861
21.1781 150.779 99.9039
9.36957 66.4628 147.121
127.639 121.153 158.864
16.3717 84.8043 94.5923
99.9804 127.641 96.0754
89.1971 82.8104 227.767
61.4196 108.572 230.671
21.2193 57.9963 167.525
83.446 50.5599 210.621
83.1355 138.407 226.642
6.26127 111.147 167.752
82.2156 41.3524 171.658
33.1169 47.4954 147.35
42.8153 184.868 130.578
39.5399 86.7685 72.2269
8.70668 85.8511 113.702
85.4245 139.708 90.8172
57.9042 164.865 99.306
56.6638 57.0547 97.5789
69.1766 57.4047 95.1347
112.435 117.007 108.961
61.3899 37.252 173.34
14.0776 54.9822 131.349
63.5726 91.8848 74.2103
74.6071 137.792 230.239
116.278 81.2135 147.508
110.211 72.5568 199.711
100.184 151.551 113.693
22.7749 51.9237 126.682
79.6703 39.9287 181.942
28.9356 66.2721 89.8384
25.3077 130.124 86.5658
20.0087 173.48 131.737
109.15 148.075 138.221
111.652 68.2146 150.504
121.433 91.1805 151.459
101.467 85.1076 223.203
63.4926 70.6437 79.0749
114.19 93.9884 201.439
126.155 89.6527 160.055
9.48828 96.0925 113.895
6.02029 133.449 158.094
57.2381 96.2946 233.563
25.0854 67.2275 109.936
18.9476 118.977 89.7433
6.3001 154.016 124.848
43.279 136.196 80.1358
102.242 56.9359 165.604
24.9167 74.5368 88.672
18.5855 63.219 179.751
11.6804 149.696 111.304
125.876 133.498 149.411
120.405 105.224 124.591
6.3688 121.687 121.048
36.6546 169.274 108.78
126.422 128.448 157.844
52.7034 45.6718 118.065
78.0038 125.398 235.007
8.16661 114.603 102.635
6.34682 113.472 127.885
81.1353 65.8871 220.007
81.239 188.361 163.724
12.6171 77.7244 104.128
117.449 126.232 118.352
28.1842 61.4516 105.962
91.1152 51.2579 202.603
66.0708 67.662 221.569
65.0203 178.132 199.88
123.264 120.869 144.403
109.198 73.5707 123.479
49.041 42.1108 142.825
70.2034 57.4442 214.934
21.0542 167.197 116.301
81.5107 161.519 210.886
69.2687 39.9317 166.581
81.2024 101.696 78.7821
101.85 59.044 153.706
115.986 143.65 141.765
50.7327 184.524 160.538
57.7639 70.4154 223.826
45.314 171.526 108.604
108.602 70.4439 131.581
42.1171 178.899 178.686
8.99561 90.438 104.841
126.92 108.285 141.808
98.799 67.2043 200.628
51.9655 46.4652 125.397
85.0018 56.4999 99.7243
8.00374 102.693 159.923
33.5118 178.847 168.477
54.8912 169.648 105.287
71.5709 91.8901 230.99
89.8119 76.1675 219.455
71.7275 188.889 162.338
118.639 136.415 123.501
126.039 110.168 150.277
46.8903 87.5195 224.156
52.7408 111.436 77.3769
121.058 126.105 167.776
45.5265 37.9283 149.81
87.2842 58.8984 208.182
51.0399 61.1642 95.4418
62.8154 175.65 111.405
76.2457 91.3145 75.4145
98.0099 49.7503 177.687
73.2156 171.378 203.257
8.49298 92.948 188.049
28.8739 46.5295 174.82
8.5988 79.7635 140.029
120.975 137.184 133.853
77.9112 58.1487 104.614
101.122 107.902 91.4532
52.1407 185.763 187.825
36.3585 179.491 137.572
117.016 91.5753 115.72
110.574 84.7494 106.396
122.173 89.0529 182.346
90.1377 105.643 231.665
57.5048 62.4896 89.3902
109.742 72.1948 186.408
110.271 75.8804 113.939
30.6395 58.6101 94.097
86.2676 123.338 232.406
20.1061 85.7588 201.161
94.5418 49.8352 137.606
105.814 57.9834 172.751
107.28 77.8911 193.628
101.178 59.3246 130.32
14.2603 87.9797 191.934
44.9778 183.901 179.513
94.1528 102.456 82.2469
82.2543 41.5689 133.855
122.258 141.214 143.277
61.9868 111.58 74.931
18.8683 62.9821 123.9
64.7641 186.469 186.127
109.246 105.375 105.075
51.7869 134.702 79.4563
55.7005 181.283 117.842
99.6934 137.706 102.122
77.446 101.368 231.327
83.9836 169.302 201.082
118.851 120.625 192.482
83.7075 92.0644 231.94
61.0743 40.2175 193.971
67.1578 188.369 136.536
111.148 88.8755 115.009
66.0363 186.679 175.521
127.583 94.9445 151.373
18.4779 107.365 86.335
90.7929 122.654 87.6523
71.6451 155.557 220.941
68.9948 137.901 81.0812
91.6582 154.948 107.052
115.859 135.562 191.776
97.8455 119.247 92.7889
115.148 103.737 118.441
32.9853 165.591 196.149
102.726 48.929 159.372
105.013 45.9816 177.817
105.62 154.222 140.786
79.3015 74.9805 226.609
78.9162 185.063 177.766
5.6938 71.631 148.977
61.0469 40.6626 163.364
80.0456 36.5249 153.113
119.135 114.05 115.993
38.2019 41.5555 159.528
67.8713 38.1965 178.252
56.6964 34.4354 158.834
8.62989 106.221 144.51
95.9221 52.7792 192.268
121.921 81.2238 163.167
40.5787 52.2646 114.74
48.5299 152.145 158.089
81.2942 64.5603 91.4738
27.1793 53.4845 135.385
84.3831 152.765 216.842
64.0764 51.8056 101.683
29.7999 141.242 193.891
40.5294 164.635 204.073
38.3231 168.814 195.836
77.7011 44.8756 120.481
73.2214 183.095 187.32
95.5111 146.765 103.631
85.0595 115.109 79.25
27.9779 94.5486 76.1542
48.9435 111.128 82.0432
43.8934 151.837 171.169
25.8511 65.3358 197.468
26.0383 79.1562 83.7811
41.5939 95.297 80.7416
83.8496 154.92 100.41
61.794 133.803 79.1695
87.52 162.793 115.269
90.6369 128.917 224.935
74.6435 183.602 130.372
25.7753 117.692 185.317
122.486 126.749 182.665
68.8363 169.413 109.129
96.2044 165.909 121.809
94.7162 140.327 221.25
113.25 148.661 156.023
99.065 161.595 127.355
106.996 135.849 109.365
71.9715 145.804 87.2404
89.4607 180.949 178.545
5.08779 111.163 143.944
9.12498 159.994 124.47
29.3344 151.338 93.4403
83.2299 114.27 231.026
71.6999 113.446 77.6967
103.136 61.9673 111.286
106.601 160.89 136.558
20.0365 73.0075 104.37
106.885 78.7123 101.396
52.0038 62.9082 212.729
40.3278 77.832 218.136
129.086 118.924 148.81
32.5249 66.3871 85.7073
19.5427 105.623 182.705
93.698 169.634 195.764
70.665 38.4839 129.806
49.2784 180.24 136.128
103.162 79.8185 212.863
56.8745 184.031 130.784
105.393 65.3021 139.847
102.569 78.7386 91.4744
74.3579 178.092 120.252
100.498 69.0461 208.461
106.435 87.7541 95.5714
101.768 126.551 223.12
97.9215 166.843 145.535
35.5868 172.89 124.099
71.3708 187.878 143.984
46.6201 59.0624 89.8815
34.2656 64.352 100.766
16.1732 64.3841 155.955
100.67 102.728 223.136
72.7983 74.6848 226.726
108.701 139.197 201.123
66.1214 158.749 95.6924
92.6773 42.4218 159.287
99.3315 90.3289 87.0374
38.0104 177.445 123.139
71.5436 38.8559 153.818
52.3249 58.2448 208.673
64.4468 183.977 125.862
66.7132 184.666 154.475
118.132 145.507 167.192
103.433 56.1077 190.16
27.4602 122.614 171.057
79.6061 123.1 79.3599
115.758 120.197 201.536
106.353 63.8782 125.232
36.7633 97.8298 80.0194
25.5773 59.2208 176.63
37.2807 91.2532 81.1587
118.789 91.3789 173.55
30.549 54.2918 177.234
94.5427 80.2044 84.3283
101.678 167.65 133.954
94.3362 162.117 201.706
101.496 146.09 212.043
78.9624 178.159 193.739
58.352 188.532 142.249
86.3641 179.383 132.877
104.703 70.3989 105.112
97.3656 115.937 224.842
28.6893 56.7935 172.401
124.936 132.891 173.316
118.824 93.5516 167.577
88.4991 175.824 187.461
105.524 162.71 147.823
96.0982 49.9902 153.041
109.125 124.753 215.668
78.9507 168.47 111.421
111.999 74.4262 158.816
46.5317 47.9504 116.092
74.9648 158.313 98.8477
59.3534 186.372 148.388
90.6619 61.6798 121.076
88.7482 146.911 97.445
55.2051 158.473 212.36
18.5672 100.531 171.273
128.676 127.179 170.404
122.305 106.752 171.118
111.493 81.2034 173.276
103.89 98.7321 94.4918
90.9677 69.5794 94.9515
86.1165 174.303 123.016
115.182 149.134 182.89
95.9162 176.153 139.742
47.9884 155.238 171.207
100.062 68.5814 94.4029
28.1262 109.121 185.739
101.829 68.6448 146.439
117.229 156.122 161.447
109.023 55.9553 180.834
114.583 79.3258 156.854
57.3229 153.967 219.856
105.358 100.927 100.74
106.162 162.013 164.346
