ply
format ascii 1.0
comment Created by Open3D
element vertex 1245
property double x
property double y
property double z
end_header
20.9745 126.004 85.9762
39.9872 48.7708 77.8275
23.5376 49.1423 248.276
14.5778 87.242 129.989
34.9047 5.89462 177.46
35.1262 129.349 160.627
14.1719 103.921 90.8777
50.3109 44.4234 65.6926
20.2964 76.632 128.577
37.88 149.66 28.331
49.5894 132.122 171.783
60.1168 102.993 189.342
46.3832 135.102 61.5112
21.0079 68.198 123.729
37.9188 58.9231 238.955
48.91 63.8066 55.4538
18.837 36.1404 269.595
40.6133 138.708 148.949
12.4144 194.376 237.64
30.6739 49.2305 270.058
73.6599 97.6675 200.484
35.8832 50.8459 214.435
38.3037 76.2081 54.6777
40.7452 66.2264 55.9217
12.3066 87.3851 109.358
37.739 114.227 166.679
57.3661 134.215 177.29
52.496 6.11754 200.71
40.1388 48.3685 86.7411
77.4514 18.8266 228.849
51.7787 101.27 187.437
63.1889 18.1249 205.464
17.084 73.318 89.1122
39.6086 6.25707 169.898
15.6055 199.689 230.725
21.0098 26.2071 225.54
30.1462 68.2918 140.509
12.2147 96.0788 106.204
28.0197 54.2707 91.161
16.0974 82.4483 92.5247
51.2554 59.9159 161.74
46.849 82.6198 52.2975
63.6876 100.902 194.695
28.0366 188.193 26.3473
76.7362 83.0978 199.598
51.4725 125.693 177.798
13.2797 109.939 115.13
32.2746 70.8333 62.0215
17.3922 37.7284 241.598
40.5637 167.178 243.27
116.73 9.36539 94.5167
62.4566 43.0217 199.836
13.5963 20.1954 246.102
26.1391 106.181 66.7058
20.5249 103.359 76.1441
27.3316 54.6774 83.2171
63.4026 120.439 190.948
19.6224 33.0098 228.156
56.3149 91.5604 2.84116
61.7869 48.2716 163.823
37.564 69.3238 235.777
89.7591 23.6826 247.604
19.2591 40.9878 262.468
16.7101 121.72 136.061
24.491 79.6219 142.837
29.5753 38.7066 216.019
24.537 143.316 113.954
31.8577 50.4406 95.8102
21.6846 115.589 75.9621
17.162 17.7101 272.377
44.0719 60.5769 219.26
66.2514 159.097 63.5245
68.3429 23.1153 144.221
25.7062 59.3864 113.372
15.266 14.2074 264.707
42.1225 127.572 163.913
17.3362 206.196 243.78
12.4468 89.6013 97.4472
65.0892 19.4615 131.118
59.895 180.239 77.921
21.6588 65.6347 78.0632
44.3877 123.796 171.177
66.0335 86.2017 12.1251
24.4354 28.3079 218.476
28.8612 142.584 81.1895
58.1901 58.426 51.1699
19.6029 41.128 232.734
37.4526 49.7813 116.455
13.586 8.20034 258.303
52.1227 128.296 56.8136
25.9175 64.8669 90.9707
19.5936 167.644 243.902
20.4898 46.3995 239.058
15.255 80.823 122.043
38.5637 60.6855 246.06
99.3317 4.74123 144.681
15.2535 111.389 131.779
29.4249 205.504 230.933
17.9984 10.7936 271.33
18.3795 73.2457 98.8232
33.8976 140.636 76.2606
47.5683 150.084 26.346
36.5342 131.251 153.154
25.4435 97.4493 72.6823
12.8897 80.009 100.663
36.1007 82.2266 60.5668
28.2677 125.782 150.225
26.2478 73.192 141.423
48.9223 55.4731 270.857
52.8509 113.329 182.007
43.3034 51.09 205.127
48.6994 140.764 156.808
13.372 116.422 102.332
16.2144 105.618 82.0432
57.6424 155.951 8.14056
31.243 82.672 154.83
65.7284 142.69 173.279
41.9851 175.381 229.013
111.344 111.342 202.987
17.6567 36.2332 253.43
90.0127 31.233 251.778
46.9485 59.2279 211.417
55.5905 171.012 114.489
53.1561 93.6321 182.168
78.2629 9.65465 145.837
96.889 147.492 180.559
49.5335 38.3084 78.214
12.4131 170.158 20.2723
39.8567 166.431 98.9101
64.2739 58.3161 11.0593
20.1797 85.8704 75.6608
18.3289 70.7164 107.152
12.662 96.7418 116.756
97.2079 10.5868 86.3242
61.1882 163.045 3.12048
22.9511 47.2574 255.653
39.0744 81.7481 156.915
81.1683 8.60697 244.111
65.2212 26.0408 136.394
16.9243 96.2524 83.9093
29.3057 197.171 263.978
83.9865 18.7233 266.446
65.8557 177.376 139.926
35.8597 198.669 21.1579
11.7716 100.448 139.654
82.6947 38.754 180.54
19.727 62.4851 110.782
93.1351 12.863 243.795
64.4882 166.274 8.59946
16.4915 89.1788 81.8916
25.4315 141.23 105.685
33.5985 176.571 220.818
48.8413 105.401 50.968
38.9818 103.719 56.6183
26.8722 77.1524 67.3006
34.3683 60.0318 6.94336
18.4625 65.8213 96.0265
48.9284 133.069 163.262
19.5071 113.121 146.469
44.6732 39.2013 100.314
83.3219 78.2869 199.43
25.6022 123.602 81.8765
14.7331 77.475 108.586
54.2694 146.168 9.22774
89.5374 4.54963 128.328
12.5067 160.59 13.9018
32.1142 52.5041 104.873
18.2171 194.374 258.626
19.5572 131.071 121.265
34.5895 142.329 137.561
14.2017 107.17 122.559
87.4658 18.5974 258.155
59.5697 126.814 181.213
36.7343 4.45847 223.721
91.2587 94.2169 206.472
17.8728 178.675 24.9034
42.3528 171.095 235.535
31.3576 93.3008 153.699
35.2695 100.839 164.574
37.4482 141.072 2.76873
58.4672 183.648 86.0298
69.9471 144.822 166.208
77.1846 90.9424 198.996
57.3981 69.2711 177.105
25.286 137.974 91.7194
72.2199 104.992 198.125
17.8358 26.263 272.993
24.94 210.16 244.246
47.1308 101.986 174.65
73.3502 75.9556 47.4095
18.9069 68.9497 114.835
69.1169 40.1575 171.711
17.808 6.3072 247.799
62.2846 32.1904 140.935
72.3449 39.4063 66.9662
58.1295 13.2246 194.258
31.1071 147.779 116.629
32.9258 16.4969 213.954
63.2454 89.4039 46.0594
28.045 53.0517 241.984
19.7165 76.4041 79.2257
18.1767 113.085 88.1818
30.3216 82.1763 232.101
62.3904 174.696 5.35364
39.9523 98.9235 169.845
122.184 8.16834 102.295
74.6818 134.928 181.635
49.5156 58.3049 262.617
25.1887 56.94 100.554
14.6095 175.118 244.351
18.584 196.605 2.73336
58.4425 161.02 14.9053
43.0898 59.4276 260.812
36.8492 70.0404 222.813
68.2637 82.869 194.656
17.5775 117.251 95.3781
32.1903 140.145 9.95256
91.2072 13.2346 95.3009
19.801 81.4597 85.8125
16.023 107.864 98.0695
80.7304 21.4702 89.3572
23.9562 132.276 111.916
53.9545 63.9117 170.647
15.364 204.114 251.557
32.8799 154.401 90.0074
27.8549 111.725 70.4089
41.3633 85.1453 165.617
37.1488 138.098 142.273
52.0284 172.104 90.0072
78.7921 23.9749 222.064
61.8104 80.5626 188.342
104.227 54.4732 27.7353
80.8255 8.49377 137.898
72.2476 13.7731 130.934
56.1376 90.3348 47.1122
60.4932 33.7757 150.797
84.3454 17.6632 81.1393
13.8928 195.912 246.763
40.258 56.4183 64.7033
21.7326 86.858 143.492
48.615 77.1317 175.268
19.9009 192.839 16.9777
36.7972 71.1545 146.482
130.96 26.488 136.166
44.8625 134.008 157.16
71.4238 123.424 192.397
83.7523 40.1549 56.9347
66.4919 27.6442 152.706
88.1906 13.0964 85.9655
20.8177 130.27 105.651
16.5761 7.75879 59.0227
47.8987 38.4231 90.8626
12.7655 88.4253 119.678
63.9005 42.2858 167.821
40.124 107.33 175.655
62.8513 175.048 74.1602
79.8525 75.1643 45.5429
14.3779 30.244 248.802
50.4751 83.8265 180.292
25.7518 41.0586 221.894
94.1443 86.4688 203.731
48.0973 14.9775 166.169
40.7644 42.9306 202.783
39.4019 156.062 124.791
15.1057 26.5824 238.93
73.4612 10.6254 117.219
28.9097 51.3447 113.05
54.5965 120.31 181.256
27.994 68.9694 73.2943
24.3633 4.79223 273.14
33.0767 185.934 218.752
39.4601 47.2667 102.421
22.2969 180.755 259.943
82.9525 3.66246 131.548
69.3723 142.509 55.8081
23.9464 118.855 144.632
38.9085 44.7246 93.548
13.6092 176.831 8.64472
54.2727 151.019 18.0565
18.1963 102.892 146.195
92.5314 208.688 53.4227
31.7464 59.7996 130.906
57.5802 118.672 187.034
46.9573 91.6369 177.802
53.7603 61.9003 252.989
80.22 13.2174 234.386
47.0308 143.342 140.928
26.6977 201.884 10.4793
32.0365 176.169 258.415
84.8593 208.255 65.6221
22.456 204.205 228.788
12.8421 162.159 3.37612
91.0711 44.0484 186.658
83.1631 97.1875 201.89
18.5425 13.8258 246.28
40.7067 142.524 17.7675
46.0082 181.307 236.036
41.073 193.501 223.817
47.9803 145.339 2.38374
49.953 49.0033 143.766
49.9878 15.0887 182.039
73.0875 19.7672 215.816
50.9488 39.9453 130.667
70.7113 17.7985 271.36
33.3409 54.258 123.104
66.2095 117.488 51.1702
74.9499 14.0501 138.92
75.2025 12.9019 220.445
37.8531 146.651 131.526
70.1927 60.4499 189.874
18.1162 147.195 8.59217
43.8199 4.6224 215.569
47.2413 102.912 181.648
96.0925 3.94765 101.275
72.454 129.586 187.138
67.8259 92.1418 193.466
84.6199 28.2436 231.743
75.4182 90.9172 49.5549
50.9574 63.6759 224.087
65.232 56.0809 180.387
28.32 199.594 222.491
53.5648 168.061 120.447
79.7986 193.989 93.8159
26.7636 98.5254 64.8806
80.2551 8.3538 116.842
50.0257 148.245 63.4718
69.7103 37.1887 161.874
19.4609 125.25 93.8954
24.3039 121.356 72.8693
90.691 3.22244 110.76
76.5633 55.491 188.867
23.222 60.7122 83.5702
76.9082 7.77247 110.169
38.1058 107.665 165.224
84.614 42.6959 247.461
16.6993 119.741 122.195
55.6459 32.1564 94.7714
63.725 149.303 147.563
72.1444 24.8762 160.77
16.9929 162.016 26.4308
60.7554 111.868 188.361
33.916 2.6718 186.164
65.2742 81.4002 44.6593
114.556 3.60348 119.813
67.7485 17.8051 138.27
28.195 87.4765 148.334
34.6685 155.649 108
47.6133 62.8872 245.057
65.7691 166.854 64.6376
99.0585 2.96477 131.821
38.5282 115.501 59.3324
57.5069 67.1166 75.9029
36.5618 46.4295 208.308
26.2898 63.2182 124.822
16.2949 30.4308 233.831
47.769 92.9157 49.6392
36.5841 89.4259 56.484
116.758 14.1858 81.9296
12.3076 106.718 108.269
133.261 94.3201 169.954
85.2031 28.3375 266.899
19.4757 6.30046 261.888
136.396 34.839 140.038
93.563 23.2548 68.9255
71.1636 13.3782 123.356
19.9048 131.55 95.0309
58.7306 169.59 70.4145
70.3459 186.052 82.6314
45.4886 176.608 245.519
23.4114 170.089 226.383
83.8377 4.94442 110.18
13.0401 92.8973 137.442
14.0634 186.755 254.387
91.1288 98.2707 34.3343
38.136 121.462 166.129
129.591 93.1482 194.243
51.0373 196.907 14.625
71.0461 48.3412 268.464
129.134 85.4779 177.322
43.3808 164.888 105.414
57.715 149.874 61.5354
19.0903 202.565 255.911
12.3749 168.022 9.58254
135.611 24.5499 122.947
22.186 59.0162 105.219
57.1647 33.8628 84.0884
21.8969 128.369 138.463
41.481 198.665 230.307
59.0791 30.302 198.37
16.1065 116.069 109.34
92.6346 187.414 104.682
22.6415 130.05 128.661
76.6938 73.8173 196.682
21.0937 16.3611 227.454
71.8261 181.763 109.795
89.6281 131.563 189.749
99.9368 107.366 207.13
27.124 125.36 142.318
24.4054 78.6444 74.0656
25.1478 144.06 95.638
124.23 15.9871 82.1107
16.5497 27.7016 261.914
24.1372 143.425 13.7222
89.4848 31.2761 58.8377
61.2593 2.75689 217.579
69.6611 179.764 76.59
75.566 44.1663 58.0797
75.6934 41.571 180.161
59.7795 140.07 167.926
66.1292 43.7949 62.1744
31.2524 146.332 86.6052
107.645 7.58385 89.1822
96.6038 182.199 69.1725
38.2785 51.3915 130.695
82.8596 133.964 191.304
52.6279 3.96321 211.649
23.2615 5.11724 234.785
44.038 199.625 16.2726
95.7311 20.2355 74.8966
66.5085 112.178 192.265
90.2251 124.135 196.033
73.8826 167.394 65.3938
29.4513 120.828 65.7787
87.151 52.9336 51.8354
26.9539 100.392 156.763
29.3129 72.2562 236.82
51.284 65.5153 2.68743
28.3375 164.872 248.816
47.1961 118.546 172.986
102.449 132.834 190.951
47.7896 191.152 23.2347
37.5113 54.5608 265.634
78.6425 8.92759 128.435
73.3012 77.4592 192.081
27.5427 131.292 143.029
74.4379 174.655 70.2517
47.2225 117.298 181.497
130.648 91.3049 184.399
79.9179 121.111 192.421
50.7983 174.026 108.129
54.7914 40.6308 193.242
114.212 3.1104 137.303
26.2179 110.506 131.611
75.5775 32.9813 212.949
23.7719 69.9214 82.1731
92.7115 35.6102 184.398
23.3586 186.196 214.762
16.685 19.3447 232.598
131.506 85.8672 171.704
25.2158 41.6068 271.071
113.176 165.762 160.445
50.1495 49.0596 194.469
38.0383 209.518 246.813
89.1746 14.3263 64.5813
137.828 32.2834 106.424
80.1811 66.4125 196.094
39.1915 6.4172 163.427
52.7737 51.6137 58.1488
134.775 39.5692 155.702
97.1303 191.516 85.3405
86.2867 47.4809 190.336
16.3554 125.154 101.686
67.8846 16.2946 173.962
43.9666 154.915 78.0635
66.2928 128.714 187.972
29.7784 52.3569 258.791
14.2085 152.893 14.031
46.0734 7.2961 158.056
40.821 140.071 67.6909
30.9144 167.014 225.608
69.8012 152.438 60.6123
14.4806 171.317 27.525
15.0392 164.41 107.806
23.6944 135.044 132.147
40.3787 25.1686 203.933
65.2605 178.021 108.372
53.3761 67.6965 71.7881
36.0135 32.8386 204.519
44.9557 124.857 61.5501
27.6216 197.476 18.6683
46.9945 142.594 149.555
65.0157 185.053 100.423
43.1407 165.213 87.9414
52.0451 10.6946 159.366
78.9976 128.074 3.37282
12.3578 184.375 10.5855
76.2369 141.24 177.715
31.9925 60.3495 64.1387
18.729 191.35 9.43462
42.3677 160.18 118.324
76.5136 29.2947 76.4984
63.5532 56.3586 261.547
31.4306 139.026 131.471
34.0541 170.449 254.031
82.6441 122.457 198.93
54.5097 138.221 162.821
111.734 118.803 201.048
49.0025 167.599 83.4048
58.7415 56.7829 167.018
36.993 203.905 13.3242
35.6767 57.8034 79.0518
66.236 50.0658 6.1075
13.1329 114.439 138.021
103.544 4.95794 95.962
81.9069 145.11 169.646
58.6565 144.152 59.6397
55.0439 170.626 102.355
19.1393 80.1039 136.437
90.0598 109.624 205.303
41.2732 70.0744 155.55
36.7488 162.819 92.8521
60.3856 162.899 72.36
36.9996 75.2165 151.695
64.7992 138.832 59.359
28.2764 128.423 74.4023
117.38 72.5223 199.132
14.2195 182.262 19.8023
24.3731 64.4149 3.24574
137.589 43.4716 149.525
61.2722 60.164 175.457
54.8306 3.32504 154.825
108.613 14.2104 79.5246
57.0246 147.895 150.623
76.1154 146.264 171.209
69.5824 29.9525 206.661
80.0065 104.635 203.204
83.2683 182.553 117.524
11.7121 77.4308 115.057
45.5366 62.5095 231.37
27.0702 86.2268 72.1164
31.9851 46.8311 87.2339
21.7311 3.26496 267.384
97.7437 72.718 204.145
84.9607 13.1078 157.487
45.2574 94.1621 169.622
48.1323 135.878 113.35
67.7101 12.3076 165.438
12.5899 98.3205 96.9412
33.3893 119.475 159.935
30.9694 109.561 160.847
115.493 9.48437 87.3119
62.685 154.926 144.029
45.6357 89.7634 89.3001
36.953 57.9495 227.173
82.4823 61.1359 49.7054
41.1408 205.405 5.51156
60.8167 144.223 157.439
97.2707 80.577 206.275
29.2585 108.929 153.934
47.9175 186.753 243.095
20.9303 205.328 237.33
46.9832 48.2063 131.932
118.838 162.813 165.169
22.0396 178.74 244.492
87.5275 6.62089 144.407
38.1224 119.958 138.189
28.4156 115.326 111.9
26.4087 135.629 82.9953
116.449 105.42 205.854
74.6798 56.4731 50.4397
100.676 41.7413 181.151
48.6933 109.226 185.645
98.4212 156.123 167.138
89.1065 28.1215 66.6659
109.43 4.22525 102.271
81.6769 138.041 181.281
31.0994 122.829 122.942
68.0859 185.453 92.6039
57.9371 183.577 3.45891
30.2369 100.721 99.1937
67.4887 171.558 69.4777
28 118.776 154.579
37.6017 62.8821 140.212
76.759 181.618 77.0543
15.6033 14.1661 239.657
69.2125 138.867 179.338
92.4045 162.568 152.769
47.2449 41.6116 193.395
66.924 19.8736 115.707
92.6052 64.4513 201.589
122.182 128.238 194.072
55.5527 152.445 140.577
96.8128 159.624 158.612
80.5315 163.187 63.9754
90.2183 29.7196 180.229
36.2911 106.166 134.565
89.2395 117.772 201.675
101.13 25.6932 65.1879
79.8482 5.85517 234.781
90.5871 190.022 85.0652
39.4299 189.021 26.9447
75.5753 149.242 55.2755
83.5121 23.9075 74.2149
22.7122 106.98 151.621
14.993 179.397 253.732
117.336 151.28 179.791
22.5086 96.254 145.696
15.4292 172.292 234.255
43.4147 2.05322 161.568
123.136 11.2177 135.414
55.2039 48.6205 153.209
118.446 3.82748 110.164
57.1669 91.1014 188.15
79.4651 104.137 47.9008
56.8806 57.2433 264.219
62.649 134.914 182.525
75.0964 32.7528 171.022
35.5833 124.78 109.648
89.9952 168.565 149.744
89.7319 147.723 171.493
43.2119 39.9743 79.8236
99.3831 16.2027 80.4604
37.4593 98.4107 139.68
22.584 173.206 251.856
86.889 37.0866 241.908
98.3071 140.419 185.849
47.0731 151.063 70.926
51.7314 175.08 82.9107
38.0193 219.534 234.371
115.009 85.9626 204.11
111.172 6.10061 145.064
56.0435 155.302 63.9031
59.8585 174.869 14.4717
32.2611 126.188 115.641
58.8763 177.716 116.648
25.8805 72.2299 133.101
78.0377 113.018 200.808
57.6438 48.1207 193.851
92.3623 3.04476 144.049
125.184 8.95406 114.466
97.7139 6.03951 93.1855
13.751 189.648 5.03897
115.375 81.4405 197.259
101.234 192.232 95.1993
40.7314 44.0205 110.818
58.2615 71.6821 10.2595
29.9485 175.222 32.3042
97.1656 83.8044 7.18979
41.6331 45.1921 118.877
51.2056 165.542 73.9869
134.922 99.9796 177.622
39.9458 131.232 67.4655
81.5899 38.3072 224.892
84.357 31.4524 65.4867
79.3007 128.362 191.487
31.4919 208.923 239.79
85.2618 87.9203 202.649
63.3637 102.32 48.5392
48.5034 173.776 99.7891
24.8935 201.594 259.089
57.857 165.855 126.69
70.385 59.0078 249.549
78.9048 33.2798 66.733
28.921 152.562 28.9347
46.3567 49.4293 73.6858
99.5379 32.7962 184.714
106.642 10.5639 152.799
111.817 134.781 192.387
41.9515 13.6343 208.052
35.5398 116.531 114.192
82.752 47.8901 239.212
69.0662 37.9921 46.4215
75.7369 53.0699 235.376
44.9116 183.054 254.444
58.6505 67.6671 51.8548
137.856 112.685 160.094
107.228 71.6742 198.5
78.9353 18.8756 272.468
83.146 36.1904 267.35
65.707 128.227 54.8106
28.5113 58.1918 73.2046
104.215 127.682 221.027
40.0674 131.064 122.579
17.5044 94.2017 142.243
124.122 114.468 194.26
52.706 160.961 130.552
39.8261 212.568 268.266
56.3041 102.202 49.7521
53.7671 162.59 29.3043
30.8067 197.454 229.322
60.3603 90.7249 183.621
105.913 108.217 206.164
68.9389 48.777 174.606
65.8795 168.313 131.065
103.126 164.925 159.172
13.2796 153.69 141.155
47.5663 187.825 34.6376
85.658 172.619 65.6257
86.0405 70.24 200.175
113.98 170.703 155.08
99.1513 9.1307 255.832
55.7877 160.455 68.0393
129.047 140.769 177.228
85.1101 67.6485 45.8017
80.826 151.339 164.245
46.9193 38.8549 116.826
65.5155 53.1213 54.1809
83.5013 39.9267 236.279
47.0227 67.2173 160.912
77.5645 46.069 224.223
84.5248 181.41 71.4354
25.1325 97.9319 151.295
122.308 143.221 181.698
89.5487 134.039 2.56276
20.9309 162.185 152.394
39.0983 149.157 122.864
89.1651 186.591 78.3691
68.6624 9.40947 216.392
85.4007 10.414 102.48
48.4915 68.0262 167.986
130.631 78.1236 175.499
93.0727 193.355 92.6365
92.091 100.737 206.211
104.719 43.6299 190.558
40.0808 159.652 104.644
69.3303 2.51504 222.059
104.813 158.773 169.418
39.1704 157.978 83.225
35.0543 199.7 222.402
32.7887 116.731 125.532
138.256 124.067 153.102
22.5536 189.109 262.865
119.17 187.027 86.2083
104.876 2.15737 123.201
36.3363 97.7311 159.489
34.7829 110.082 127.408
103.592 35.5062 58.3381
58.3072 189.098 6.66712
131.133 13.2878 108.495
66.2495 55.1505 211.943
88.09 137.856 187.098
72.9478 2.52502 229.266
56.7615 34.8048 133.473
45.1206 123.632 134.268
85.5652 15.0058 246.744
111.148 161.598 168.57
37.5022 56.2621 137.294
54.2974 32.8845 108.845
95.2078 112.254 201.692
58.1202 76.5856 182.564
94.074 107.133 41.6458
59.4695 38.9342 68.0553
135.686 20.9592 116.5
117.39 63.1687 199.417
68.2752 46.042 180.358
46.809 199.368 140.091
13.6604 19.2491 258.573
67.7972 27.9791 81.1428
54.603 123.678 144.927
105.117 148.004 183.007
34.8774 158.716 99.5474
98.1729 151.732 173.901
39.5279 213.101 259.142
124.901 108.775 200.37
34.1319 136.627 68.9278
137.53 30.3471 128.601
48.8099 56.9277 143.157
71.4131 70.9588 15.1169
107.855 85.275 207.295
125.212 10.4075 90.7782
88.1815 61.3219 195.758
36.7157 78.4036 236.577
40.2322 177.963 32.6645
29.1174 7.75815 224.774
90.783 22.5701 173.606
70.9344 163.772 139.527
56.1688 60.4654 211.958
134.345 21.9588 131.919
108.735 80.7885 203.148
26.8825 58.0059 119.616
96.352 132.25 191.121
55.8527 178.386 23.7135
60.0125 172.071 124.813
43.9187 189.112 231.255
82.6894 96.2904 45.8479
54.5078 189.547 14.887
54.7604 209.727 138.959
76.2008 21.8601 79.6364
57.2544 165.322 23.486
45.4992 103.386 120.93
28.1432 74.2067 224.286
67.0447 175.251 122.499
120.64 34.6605 61.1889
34.5726 223.023 5.76049
46.71 173.899 29.5389
30.4053 100.082 131.793
48.1494 170.938 113.979
49.7827 162.73 123.787
89.0819 28.3292 259.397
32.6862 98.675 60.3601
47.3742 164.377 113.332
41.7906 112.624 126.561
81.314 12.3539 211.061
91.1747 158.173 162.483
13.7101 107.98 141.132
55.0057 57.5106 1.77026
31.7348 106.509 119.77
84.1327 142.963 176.019
103.783 185.25 80.9073
73.76 71.5079 190.288
91.8576 127.37 46.5367
49.2227 148.696 137.24
55.0932 197.007 4.38824
77.8554 60.3219 192.795
82.5444 46.8607 262.736
133.235 115.112 190.504
78.026 9.04216 191.25
71.7052 87.2901 45.3038
136.695 71.6552 173.684
36.0105 143.759 123.704
88.4481 169.348 143.619
98.7962 2.41555 117.357
54.0881 143.382 154.047
58.181 14.2374 163.279
81.7805 135.95 53.7791
58.9527 48.9022 2.23051
68.9032 58.0948 232.291
36.0054 101.177 123.705
31.4767 106.958 106.127
93.4557 62.0294 46.4254
85.9629 80.508 44.6368
100.047 90.3629 207.356
88.7027 201.144 98.9408
107.028 173.386 151.312
117.538 114.317 198.367
76.7822 47.5665 4.13618
59.917 173.78 23.4743
138.27 122.324 166.819
59.0749 10.8035 209.48
67.2249 70.1286 187.485
12.7918 115.215 126.524
15.3235 121.331 112.983
81.2461 170.03 141.332
73.9775 22.6928 87.3351
92.0232 2.09761 120.789
85.7022 9.52839 94.5665
41.1272 206.158 239.421
75.5882 15.453 97.6247
132.423 28.9984 144.985
73.5672 115.75 196.505
77.7598 46.1022 185.603
58.4449 184.376 16.162
79.2828 144.205 1.9363
89.22 29.0499 217.024
124.482 166.604 157.037
111.257 98.9749 205.307
42.2516 51.679 273.698
41.8701 119.171 126.605
80.6694 4.86577 260.02
100.122 168.053 153.114
137.799 66.5341 169.758
122.502 25.6992 155.139
16.3274 123.946 128.903
67.4861 21.6135 104.377
136.081 23.5908 103.996
74.4215 160.948 59.9034
26.0321 163.096 31.3569
92.6508 151.878 16.3299
34.2645 152.127 82.18
71.6816 97.4857 50.1141
100.149 64.3324 44.1288
16.1157 138.779 253.061
69.6561 31.652 167.384
120.362 136.39 186.782
46.7468 15.3646 175.647
107.144 93.3775 207.203
12.7781 167.488 168.958
108.995 59.3642 200.327
61.205 78.0611 63.3415
43.0685 98.2071 128.078
107.256 60.8047 35.1281
108.005 152.717 175.904
29.8997 204.546 1.9107
92.0225 70.8466 45.2218
75.4375 133.142 53.9061
40.5614 182.419 224.784
44.0967 53.6118 143.667
84.3349 109.3 203.217
54.8776 176.771 138.849
63.9474 49.0779 267.305
46.156 160.984 75.932
50.2179 111.597 113.69
81.8203 31.4715 182.452
79.5908 33.3724 174.989
129.245 16.1708 123.563
135.315 162.805 148.619
14.4576 179.342 120.926
49.7269 203.016 5.0117
90.6114 2.30932 133.036
32.2848 44.6038 98.5877
20.6861 111.613 81.26
21.1515 4.11333 240.031
37.811 124.968 135.246
99.1213 3.25185 108.939
36.7981 165.476 33.108
91.2483 71.0667 204.228
98.9188 118.904 197.196
31.7057 152.708 101.85
80.0539 172.582 64.1228
96.7074 32.0902 60.2724
109.631 127.856 197.738
25.8976 139.927 123.191
132.105 86.3216 165.566
46.0878 119.904 140.729
91.2578 18.0193 162.734
111.54 145.51 185.234
104.145 99.3482 208.377
90.9056 185.957 114.774
53.7896 178.914 93.788
56.3021 119.135 53.9849
43.0684 60.1246 135.239
52.6957 69.1402 48.1249
86.2897 38.4916 188.314
26.3187 143.271 1.82665
99.5637 6.24087 152.561
119.071 157.102 171.223
33.4035 125.843 70.5587
28.0611 148.066 108.588
38.8364 61.4133 147.347
47.4503 199.157 126.648
112.842 189.494 94.4561
106.031 75.2263 205.11
109.659 66.2575 202.703
86.5128 29.7928 238.117
131.007 11.7332 96.7832
99.2701 85.2486 40.9705
123.563 21.3655 76.955
45.1231 196.191 238.696
105.677 123.11 200.912
105.516 139.82 191.232
66.387 181.72 116.284
57.0144 174.852 83.6435
134.595 59.8242 168.173
43.3492 113.468 177.865
103.961 131.842 214.947
16.3434 207.822 109.934
72.8885 156.028 146.578
50.3928 124.076 123.593
95.542 49.1997 51.7619
126.003 39.4858 159.785
80.3308 17.3002 224.032
17.5053 125.587 115.981
118.092 94.8025 206.373
87.4482 192.078 91.8008
106.454 88.4181 30.6555
119.813 121.929 196.791
80.3189 9.3049 268.313
64.2026 184.343 83.977
109.741 28.602 179.185
121.862 80.3956 191.255
85.7285 6.26153 120.879
56.4729 135.469 57.6077
114.927 14.6084 151.091
127.58 161.149 162.161
122.845 4.78094 130.986
45.2707 159.274 125.346
136.3 72.7514 180.285
134.323 131.436 183.384
79.703 2.70345 213.564
57.6052 160.304 134.732
61.1461 16.6872 170.044
39.4675 91.0268 115.187
133.794 123.048 180.945
127.511 63.6231 176.454
93.8835 169.115 59.828
25.4217 103.467 102.144
82.3072 158.442 58.2207
79.4086 114.88 48.5942
28.4987 206.891 258.707
62.7036 67.6129 185.871
44.3909 62.5973 154.044
52.9401 121.13 59.0946
80.2658 25.5676 170.964
130.384 46.5854 162.919
68.2926 107.838 48.295
76.536 191.854 104.032
98.2917 20.6621 168.713
61.5717 183.005 110.699
129.737 99.2016 189.342
94.575 182.652 130.942
25.5003 194.406 218.064
85.204 207.82 53.8934
43.6966 115.254 115.364
82.1457 127.686 49.6367
93.2408 5.51286 152.26
79.9313 22.2477 164.849
55.7652 112.3 51.2915
84.768 53.2749 193.62
85.8058 88.083 44.5047
73.6415 188.947 133.052
23.2411 176.139 219.444
51.5305 17.234 203.354
134.334 78.1666 186.116
70.125 187.52 104.237
105.752 20.6452 77.8117
129.933 149.914 168.227
104.559 53.2647 191.714
44.6493 170.207 94.9668
132.677 109.074 176.842
103.422 58.4839 47.2395
40.9579 124.084 114.298
93.3024 11.7444 160.123
51.1382 169.916 32.5594
122.647 85.1773 200.334
20.9577 151.247 22.3751
64.6835 61.2088 244.667
71.6927 15.83 110.698
82.8415 27.4944 201.419
118.91 9.51398 143.843
74.4763 113.024 49.5526
112.206 74.9299 42.7431
127.332 24.3752 149.084
45.3765 96.2864 118.598
100.559 119.694 202.659
64.9535 35.1087 160.69
84.9026 8.93156 150.842
39.4873 121.489 66.1116
62.7903 160.652 138.149
89.372 17.8662 168.429
80.3139 184.386 80.6778
125.628 154.806 164.386
115.396 129.504 194.065
28.3988 150.392 98.1911
72.9841 14.4095 183.823
96.5803 151.038 54.8713
76.7036 34.4845 273.71
30.4015 119.72 114.868
55.9096 177.707 101.855
106.476 164.758 163.43
108.183 1.7738 134.678
93.2315 55.5337 197.558
125.307 5.19263 119.796
96.0795 28.4137 263.945
84.661 99.1872 6.88462
11.8182 172.936 217.208
122.236 42.1691 169.72
68.6379 200.748 144.134
67.8895 66.446 48.3366
138.773 51.2166 146.298
86.9956 84.4429 14.2942
75.1301 184.802 95.808
89.5297 112.506 1.56621
79.0704 143.304 53.8788
99.4523 119.877 44.1928
76.9827 41.0614 272.038
19.9267 28.8663 48.288
138.913 104.21 178.409
117.737 180.995 66.1368
17.5028 149.932 256.678
15.1364 165.243 118.531
98.7313 175.896 142.844
72.5843 149.393 156.302
64.3192 26.3375 120.903
87.8534 165.074 58.77
99.8265 187.247 76.0334
102.491 25.0405 177.973
98.6308 3.39914 178.96
69.0059 100.525 5.72424
91.6308 35.5925 206.062
134.308 51.4422 169.27
78.3853 121.443 48.1937
46.0668 87.2862 67.8001
85.5517 118.418 47.6901
106.776 167.754 148.965
135.979 101.856 187.185
132.751 109.259 190.922
121.734 187.39 95.2301
13.2825 13.613 79.2029
88.7395 24.2888 179.084
136.097 117.219 182.196
49.7049 112.069 129.221
30.8163 91.4329 159.474
49.0768 116.765 60.6878
95.9453 137.77 47.5099
127.469 77.791 187.761
101.214 70.7776 3.28487
112.623 59.5599 180.455
99.0455 59.2919 198.205
104.951 171.324 57.8674
60.2791 181.094 102.543
90.4179 176.908 68.2732
51.5985 45.5908 1.9173
81.6182 160.633 149.91
11.7743 180.376 235.168
135.849 22.8217 88.9203
80.4876 187.889 89.1996
106.557 1.63758 108.671
54.7842 62.8942 232.19
138.828 130.966 147.724
68.8417 45.1766 274.332
61.787 194.546 150.594
81.8284 189.156 112.048
119.55 3.93766 125.203
75.3629 135.501 1.56973
138.798 63.2724 163.875
73.9688 4.4418 204.088
126.039 121.319 189.391
53.9116 197.605 120.336
73.3239 179.787 117.218
129.548 85.5383 194.179
137.682 127.021 173.035
89.3354 193.523 100.681
55.368 32.2522 119.886
42.1409 106.553 126.517
138.036 53.617 157.068
118.838 173.155 61.9202
68.2776 149.417 151.716
121.19 183.416 76.2618
17.2005 147.175 1.76864
107.479 2.09555 148.989
43.4779 118.536 105.171
77.5113 106.09 1.85669
103.471 174.303 145.698
114.703 184.27 78.5304
137.633 109.086 182.045
102.342 46.1016 195.942
73.9017 51.2363 261.865
83.4425 150.143 54.8879
84.4841 71.0235 14.5498
41.0867 113.624 119.003
128.319 133.045 182.365
53.8777 149.561 1.29435
122.233 58.9533 194.76
43.644 145.266 69.5082
93.7869 49.9844 196.634
75.3646 187.46 107.917
138.588 44.2409 138.786
135.811 48.4706 160.392
84.0065 187.653 103.357
87.0861 102.957 45.31
138.516 27.4738 114.429
138.998 113.417 164.919
93.1159 2.46715 179.236
128.548 19.2837 139.14
123.209 168.073 150.032
123.853 38.2528 83.2677
93.2447 90.0793 43.8882
79.3996 46.7902 268.502
61.8966 47.9083 274.438
102.595 1.30519 137.365
43.7102 89.4043 169.894
123.418 98.9806 196.342
99.6622 59.0248 1.27845
138.986 127.72 163.471
107.36 23.8596 68.9135
80.4378 187.509 100.049
90.5957 147.199 53.5861
107.648 38.0589 183.118
98.5285 182.7 116.877
131.566 173.518 71.0754
91.8029 138.985 184.32
87.4691 110.047 44.513
105.184 181.748 65.828
27.6814 100.93 105.667
60.1512 185.271 120.452
85.7792 40.6173 260.292
27.8437 160.596 234.281
87.4558 174.998 122.723
139.32 98.0858 174.924
49.917 92.9942 83.1212
84.8437 154.987 159.929
50.2491 72.5868 67.3716
102.36 162.263 54.6733
110.689 16.6612 159.919
13.3766 204.409 110.297
87.346 139.142 51.7555
125.855 149.624 174.837
73.559 21.9213 150.096
124.172 40.1959 178.741
108.04 190.8 85.9339
104.349 53.9256 197.401
79.2654 1.89053 248.069
87.8711 20.1342 200.579
130.974 124.054 187.915
34.3443 98.197 91.2805
53.9515 148.518 115.738
110.638 180.786 69.2146
58.7074 156.998 1.38462
139.238 122.172 145.035
106.664 67.2706 44.772
91.8616 159.131 56.6168
76.0046 2.2249 268.257
118.639 97.9124 198.221
136.913 95.4781 186.608
137.865 144.036 167.373
59.5721 177.256 128.088
14.0048 49.5266 24.6212
88.9621 175.663 1.25625
43.9979 124.679 120.857
118.514 30.1077 67.4779
106.159 79.7595 41.6352
127.377 44.5711 56.8346
131.704 142.994 170.411
12.8253 183.075 1.10498
17.2877 189.043 129.911
93.4176 117.374 45.785
113.126 43.6469 180.511
99.6782 173.3 60.5096
29.6347 1.25696 273.787
132.536 163.476 155.988
129.564 33.8458 160.302
139.048 55.9294 151.315
102.985 110.665 44.1605
75.7197 23.584 274.518
47.8619 79.8064 168.94
134.741 154.969 159.323
139.03 113.048 175.043
22.3612 32.074 274.731
74.0147 11.3264 274.558
89.427 38.0032 262.669
49.8082 157.606 127.739
104.024 5.96573 156.952
137.77 87.2094 182.114
110.878 59.114 46.4557
137.444 33.3729 77.1672
118.827 33.6819 175.414
62.441 30.6512 125.584
60.9385 99.2398 1.06389
119.832 46.5448 179.284
139.004 139.564 149.04
111.338 175.808 61.3249
107.494 1.21517 115.433
125.908 183.21 91.4791
95.8461 1.1894 139.248
113.194 23.2329 172.009
138.871 117.052 177.418
48.8238 0.989484 156.876
60.5456 2.18856 208.121
89.8721 175.227 134.821
97.3986 24.9411 180.834
23.7521 1.04906 256.382
131.121 21.1003 81.7155
91.9566 3.11095 207.931
45.6146 74.7109 160.863
130.217 18.1387 90.3385
137.334 26.7698 81.4475
112.414 38.5307 55.6801
53.8855 118.932 110.374
124.883 180.854 83.2378
123.089 67.625 196.763
82.6912 47.5412 1.36026
137.702 18.5737 96.9084
109.367 164.144 54.8756
136.642 137.19 174.921
135.239 55.3552 176.658
