ply
format ascii 1.0
comment Created by Open3D
element vertex 775
property double x
property double y
property double z
end_header
47.6828 31.573 66.3449
25.7193 123.376 133.88
23.5736 116.577 124.232
135.222 202.859 249.48
24.1196 129.123 201.798
29.4274 142.189 81.1325
14.0528 42.4657 175.784
24.4106 152.433 87.3489
32.2889 129.456 104.844
13.6507 142.2 118.463
75.7481 59.0024 4.29241
52.7331 126.873 165.207
21.695 132.238 138.476
158.928 171.614 232.643
35.0951 143.276 73.9849
30.8249 142.218 120.979
61.6944 46.4891 67.271
55.2233 138.166 176.369
30.2505 134.991 134.872
53.1557 131.306 180.246
12.7562 162.524 136.682
24.0758 149.558 139.521
62.7338 110.596 173.207
148.607 199.024 214.101
39.8224 113.685 156.931
57.9582 100.809 109.154
10.5769 155.164 96.8283
153.941 198.996 236.432
66.775 136.504 133.622
112.68 37.436 2.85969
81.322 39.0194 8.53726
55.3356 130.735 121.148
64.8581 133.056 150.368
23.6026 131.574 113.805
53.7876 133.532 159.497
77.9577 211.933 44.6334
62.5128 97.7075 123.026
41.5761 121.197 108.987
50.3818 140.548 154.692
7.03652 122.898 167.778
24.8964 149.174 108.284
30.9719 172.07 91.3303
8.28976 119.847 174.939
38.1749 140.678 119.864
41.64 5.24482 44.7257
39.849 126.2 95.6597
52.3646 167.92 135.655
23.449 134.308 99.5194
24.1765 32.1742 101.23
39.2301 137.21 58.2559
59.3173 151.249 78.1394
56.9778 119.272 143.48
69.8233 202.835 64.2627
15.0275 109.714 104.08
40.5362 75.2411 194.508
34.995 127.248 116.225
72.892 71.5668 140.631
39.7386 157.628 147.302
25.1464 144.225 101.628
58.2117 153.205 96.9065
45.5204 154.2 144.164
45.3597 158.008 132.598
51.5254 50.8552 194.76
20.8528 130.524 209.367
45.4051 106.982 108.917
46.215 144.297 127.199
147.987 89.3516 76.9064
30.9344 121.471 99.723
150.153 164.56 241.042
108.451 120.241 7.73452
28.0233 139.238 91.999
6.30327 113.996 167.688
81.1997 35.5181 15.3008
17.5584 159.479 143.142
51.6407 106.809 72.0845
32.9579 179.474 107.164
44.5147 132.43 110.695
48.9114 122.809 153.956
30.1104 127.289 93.766
29.6642 151.887 130.369
54.9362 150.755 129.735
16.9037 151.533 123.49
38.6788 128.496 137.887
11.156 175.107 95.8167
32.8682 173.757 118.009
99.7462 213.061 66.6026
32.1169 149.991 157.062
26.1725 147.217 147.567
43.5761 168.226 139.893
17.0307 151.599 145.113
54.8956 139.184 84.5045
34.0486 97.7496 146.48
144.783 208.189 219.052
41.1488 131.343 149.208
37.9157 114.958 116.666
52.1824 128.288 127.966
145.651 96.3601 67.0185
24.1286 114.991 114.699
17.6714 156.531 103.382
25.7963 149.016 67.3497
51.1922 109.731 83.0801
146.696 166.489 252.591
145.44 208.554 236.392
11.738 133.853 164.006
108.278 120.025 12.8085
25.6938 129.006 147.11
9.82867 128.711 130.517
100.604 126.607 257.299
20.336 172.24 94.9701
15.6779 114.678 171.377
55.3841 115.264 79.0761
32.5351 147.398 67.2762
41.6111 119.916 100.548
11.6173 120.948 157.039
41.7451 122.022 143.238
140.496 177.868 243.15
19.716 143.955 183.686
40.9368 125.941 86.2537
56.3787 148.896 151.672
72.9216 134.403 163.537
21.4805 175.549 130.755
44.9083 64.6826 193.899
41.8295 125.442 131.248
41.3609 143.054 174.017
18.4021 189.798 31.3103
14.4971 133.645 123.751
24.9312 230.243 6.29812
103.304 80.3054 17.6717
18.8066 133.258 185.078
86.8669 205.398 151.537
32.2085 141.882 129.929
19.8045 103.503 109.758
69.7475 158.638 162.736
138.187 188.595 243.89
66.7562 114.549 166.655
51.8501 105.501 92.2943
30.0761 147.713 246.722
45.1043 115.48 124.934
37.552 158.281 137.953
26.661 29.2829 98.2007
33.5327 129.291 131.218
38.8725 54.3615 209.924
38.711 150.294 124.299
23.1934 141.151 121.696
26.5993 106.619 152.278
78.8757 135.65 145.169
26.9785 152.097 96.737
25.7381 148.192 250.853
79.6324 44.2527 3.56036
28.7397 174.74 98.8119
43.0479 172.6 97.8933
45.1914 65.1936 201.285
78.8179 216.316 65.3047
56.3254 113.264 120.365
38.6025 23.0288 67.1516
60.9807 92.618 133.75
39.3184 146.891 166.751
16.2615 150.23 136.621
48.9706 106 169.181
63.3945 108.673 108.98
86.5646 205.861 156.183
138.487 200.08 233.175
37.5679 139.616 125.999
24.0339 159.03 154.531
12.0803 106.232 167.072
20.248 144.486 79.6147
17.5133 135.538 169.41
46.2114 123.157 178.532
34.839 136.577 143.192
16.3322 175.59 116.391
43.2503 133.8 125.037
52.7102 151.468 157.437
70.7884 107.934 159.621
40.3748 138.014 77.4051
149.612 191.085 262.426
48.395 134.7 92.8791
29.4784 107.791 143.117
65.3655 124.075 143.051
33.4213 139.062 155.729
35.9253 117.464 138.315
72.9778 72.7824 129.207
39.0375 142.185 248.665
12.8076 168.06 128.413
17.3528 131.862 144.435
20.0343 117.681 137.891
43.1818 145.999 155.715
31.2428 171.733 155.705
32.1325 39.617 2.02421
37.9569 149.254 133.733
36.928 183.846 99.0353
156.355 176.567 238.065
18.9332 168.283 125.405
27.1629 113.273 136.712
30.0006 104.747 132.004
45.4359 155.301 157.764
5.36457 163.039 141.153
48.0311 133.826 135.935
42.7967 126.889 186.514
40.1288 148.574 80.0592
65.6728 105.216 119.783
25.2967 152.663 256.623
36.2672 181.853 118.668
5.28381 129.643 161.05
95.2316 212.779 46.3374
58.8646 141.34 108.613
33.2735 156.81 109.129
40.7366 109.261 139.039
22.0832 123.232 113.919
28.2979 113.816 105.168
74.3933 113.509 167.522
45.9879 140.759 132.562
11.8314 109.913 157.67
155.733 199.442 206.599
49.1266 141.364 142.958
32.0845 92.7938 165.325
35.4662 138.821 65.2153
9.10365 124.968 138.736
150.655 216.76 205.943
139.808 206.099 228.151
58.9673 124.362 134.981
41.9953 125.777 160.024
4.58134 140.185 91.1009
56.113 127.511 174.835
143.458 217.365 209.89
62.2678 70.6414 137.381
15.4484 159.406 130.647
25.2714 140.496 134.226
53.6213 98.6879 98.4188
52.3732 118.736 160.594
75.5973 158.686 130.627
23.949 99.6116 161.394
14.1444 148.294 107.537
47.8991 130.518 171.254
35.1319 79.7629 186.946
53.855 113.829 89.6864
41.5921 110.034 92.038
147.962 89.0256 67.1525
16.7855 103.096 157.966
20.4149 112.85 155.834
80.6289 155.572 54.8643
43.1772 133.819 179.407
10.3662 137.608 101.726
48.705 131.83 60.8749
43.6868 165.05 151.346
39.6774 142.8 257.087
25.1196 171.722 121.102
18.415 171.977 142.169
59.6493 107.435 129.788
48.611 93.5463 132.732
53.5565 116.39 151.952
53.6775 121.163 122.442
40.5432 161.017 168.732
155.233 187.607 229.817
134.746 195.69 238.902
50.9924 115.678 96.549
12.1987 171.555 138.842
154.202 125.695 242.089
43.4627 137.836 158.985
67.5025 127.912 155.664
41.0281 142.805 139.229
41.7889 156.144 89.9736
86.4938 151.802 54.9408
66.4027 107.209 143.738
14.5358 161.3 119.794
22.2598 161.863 88.1519
3.90804 151.257 114.381
26.5692 119.47 77.0796
83.6735 114.198 163.228
59.4213 133.731 171.009
28.9462 157 69.4543
23.2234 118.845 171.065
55.8769 115.172 176.187
49.9779 154.285 138.327
66.8296 110.71 152.039
37.2398 89.5507 157.57
8.82034 120.693 146.211
11.9263 185.631 9.20438
26.9972 181.296 102.672
51.0627 163.387 150.802
66.8758 84.7591 125.717
28.6524 125.952 171.992
39.8779 156.667 163.837
21.914 129.85 160.933
59.7228 67.5292 144.029
25.7677 121.491 107.273
24.9706 140.211 73.1971
58.705 95.0279 166.815
68.1536 120.726 174.784
28.8241 165.638 131.887
5.37655 129.104 153.762
55.8367 112.291 168.61
11.8899 143.56 97.5542
77.1432 167.327 34.1297
11.0965 143.483 84.7687
53.1455 115.026 128.75
58.1123 152.989 121.669
46.911 93.5092 115.989
55.9461 161.716 127.319
34.1037 120.605 157.549
49.7573 148.807 70.6208
75.6266 203.419 71.4114
52.082 139.22 115.451
41.3748 134.605 169.076
140.141 189.228 250.952
50.9649 145.184 107.206
41.4103 122.456 121.433
32.6983 147.505 139.869
46.876 147.483 90.8561
17.1741 163.09 97.3118
54.129 170.977 121.173
64.9913 140.902 161.763
36.4494 125.215 70.966
41.6723 135.874 70.7013
59.6173 63.7576 140.614
43.1417 80.2416 186.934
9.65742 96.3102 136.778
60.6065 131.965 92.0048
53.7538 129.562 150.543
32.7887 147.948 88.5363
50.1902 139.877 167.402
69.8171 162.559 194.55
34.4743 165.203 109.559
15.1389 168.657 113.638
63.2372 119.735 183.696
5.7051 145.183 99.5003
50.6213 119.64 112.398
18.7289 142.795 147.683
147.888 171.523 238.673
58.6084 169.582 128.608
53.1936 158.591 117.106
27.5441 135.068 177.078
10.6401 135.638 92.1663
60.4632 166.132 109.099
33.6129 172.063 137.641
25.9506 117.855 184.21
79.0391 52.7655 9.66035
37.6885 162.772 130.413
60.0421 175.842 140.507
12.5844 160.698 108.115
142.339 194.509 238.747
47.8119 155.263 123.657
142.168 182.697 231.168
16.3656 150.538 153.363
29.8659 147.114 167.684
32.488 160.285 156.427
42.873 143.924 110.158
62.6805 122.304 122.155
91.6675 204.506 45.024
11.3645 141.668 144.193
151.07 96.7286 78.7569
37.4168 176.016 126.41
41.7137 4.27642 50.0742
18.4432 124.895 183.667
44.2906 99.5964 103.33
52.0285 125.554 138.348
153.985 193.195 203.022
67.2431 94.3742 136.018
50.6434 155.28 111.484
46.2756 140.024 84.9238
23.3305 106.965 159.699
16.6575 153.498 86.8947
18.6939 139.656 161.089
51.8587 134.398 74.2487
74.488 130.392 173.909
143.491 60.2971 5.95803
43.3934 180.879 121.044
43.4672 151.827 151.797
36.7251 113.273 107.711
7.34768 137.741 125.457
87.8631 37.0229 10.0728
16.6392 127.883 172.627
49.6995 154.187 102.494
33.0654 152.849 74.7136
20.8883 149.834 254.779
148.037 217.814 200.197
19.5758 148.202 100.16
63.886 152.898 129.713
18.8701 133.951 177.096
10.4106 109.12 176.333
157.518 194.801 222.392
64.637 132.224 142.238
28.9086 131.967 154.017
20.5348 127.944 215.004
48.3581 136.803 186.282
26.3848 126.917 195.311
40.2107 172.551 155.18
75.3519 204.627 47.5177
50.6746 98.4001 163.62
50.6041 149.475 168.551
22.8185 145.293 158.298
23.9868 134.555 171.842
24.2065 126.372 188.56
9.68586 152.073 138.577
46.6063 117.597 138.414
61.9756 129.646 111.571
38.0012 107.049 187.168
14.8131 151.688 78.6778
48.4832 59.034 194.56
57.717 139.612 138.712
31.8986 121.136 149.126
33.6104 129.395 166.915
20.8496 141.245 88.3098
63.8062 138.336 180.45
33.7884 138.602 180.449
19.0191 160.053 79.9809
152.819 209.098 210.971
16.8252 112.898 147.725
36.6021 102.639 109.753
20.4597 166.133 154.608
145.442 182.777 252.147
64.1054 78.3092 133.112
44.1544 110.317 130.962
28.4209 151.539 117.165
18.0546 106.937 137.597
39.9581 125.055 176.045
23.065 184.873 125.895
18.9778 148.422 71.6029
69.3889 78.9366 127.657
18.0179 102.388 174.026
35.8239 169.691 145.499
55.6592 138.99 101.242
37.3412 132.596 158.067
59.463 124.526 160.667
53.0444 103.466 158.284
144.558 94.4981 80.5628
53.4125 94.6071 124.686
57.3309 179.155 116.065
153.925 211.292 221.206
14.4406 135.459 155.016
73.6125 205.983 57.5171
22.6235 169.187 87.944
39.8023 119.318 151.33
148.489 176.803 244.614
55.9277 143.492 96.4648
16.8448 167.025 103.548
44.7116 179.87 132.607
10.1274 100.282 145.261
53.4532 96.8812 153.141
56.0981 161.716 100.11
23.3195 154.289 131.447
150.389 185.263 257.596
54.4012 149.984 144.893
38.8647 156.423 117.483
45.4565 127.363 118.302
52.4267 129.353 88.9387
21.3573 153.084 179.65
17.4318 133.587 98.3249
43.3522 167.976 128.886
138.142 202.983 202.588
69.6457 199.345 55.9132
47.1691 108.749 159.535
143.1 170.094 248.027
29.9396 175.436 128.562
10.67 147.903 127.766
50.4474 72.0165 194.408
8.6094 121.761 87.118
71.6503 144.81 171.381
64.3927 164.126 124.831
58.5532 150.355 102.954
32.0587 105.739 165.55
13.5343 115.6 134.387
34.3805 96.2598 124.109
151.089 192.276 244.38
61.4794 98.5896 173.703
62.9449 174.1 117.256
52.4863 129.344 109.799
67.6242 135.714 173.64
24.9073 151.886 158.868
48.0723 157.049 165.917
29.347 125.003 183.464
43.6448 151.05 113.426
48.688 105.002 99.7816
55.8155 172.565 109.774
50.4028 145.404 120.48
52.4067 109.067 133.383
26.7775 119.86 143.491
63.6131 149.005 159.177
37.5169 164.803 118.533
5.38814 115.736 156.823
34.9666 143.9 252.3
10.0956 131.133 148.376
21.129 167.745 79.9444
6.0632 148.976 89.6727
55.1095 171.397 100.933
5.61629 154.519 131.391
19.599 154.545 93.604
58.425 127.585 184.378
88.3548 208.022 76.1773
83.3879 205.694 57.6261
47.1885 112.965 117.276
64.7768 119.299 156.788
22.9657 155.048 73.7263
134.718 195.227 246.372
22.0606 162.167 122.384
152.229 192.969 218.526
41.6987 111.863 83.7695
27.513 161.439 97.8016
27.8641 158.912 78.9632
61.3192 126.515 128.568
48.5344 118.797 86.1525
38.2913 98.4408 139.499
46.4327 129.745 101.371
27.7771 167.591 99.316
63.1322 159.483 164.286
38.4198 111.413 100.209
56.1128 163.368 160.516
13.8801 165.337 77.8986
37.3297 143.288 149.524
42.2654 164.91 160.089
18.7714 155.188 114.928
4.41303 127.437 114.751
74.1437 111.544 185.673
71.2952 74.0622 135.914
58.1069 136.326 70.4838
156.281 129.401 236.751
58.3836 103.896 167.003
48.9293 166.532 115.399
36.1627 106.342 171.339
16.1928 108.949 180.73
50.9468 162.675 108.521
26.5306 146.179 259.155
22.1001 128.796 104.604
25.7234 174.765 137.92
46.5604 158.721 96.9383
160.971 197.261 231.896
19.7681 143.421 129.72
20.0257 123.685 127.804
62.9779 135.979 105.161
48.8357 166.034 162.674
44.0252 136.033 117.531
69.1135 220.271 67.104
37.6874 1.71843 28.0129
28.4965 167.261 114.828
24.3599 161.235 105.519
159.311 116.047 234.718
157.364 186.075 241.126
33.4875 157.157 124.295
37.0391 177.833 89.5091
83.3189 215.583 54.356
28.306 170.038 106.755
27.8588 130.731 162.783
30.4105 139.823 166.099
48.549 111.158 176.459
77.0123 102.303 167.068
4.9492 157.677 140.091
31.5103 115.997 165.688
35.286 67.8369 197.689
147.996 191.595 226.8
63.6363 127.376 178.714
32.4283 98.4466 115.876
24.7404 120.542 152.015
24.1133 105.838 171.615
38.0239 104.081 96.6243
50.5168 137.14 108.406
34.602 129.332 181.265
50.7291 181.98 111.521
34.0009 134.512 85.4145
14.2195 146.548 91.8261
23.4114 167.228 141.496
33.3443 149.824 148.932
50.1716 127.2 68.853
68.76 157.581 171.522
33.4876 177.974 135.736
66.2422 104.657 170.216
26.217 177.391 114.444
44.5572 134.091 143.912
143.162 206.143 208.015
53.72 132.458 97.6107
36.0404 102.635 156.414
68.7199 144.146 103.643
23.6709 117.128 162.882
48.4679 166.255 93.7753
9.35127 134.704 111.158
50.9869 149.396 95.2137
60.2459 49.765 153.273
9.09212 153.764 83.5915
44.3339 97.2422 138.247
26.6085 160.765 119.048
158.314 201.683 226.274
57.6071 122.422 93.2134
23.2479 184.526 130.752
40.7948 172.161 119.239
145.462 190.275 251.687
36.8025 174.397 99.218
12.2617 141.439 110.667
87.2389 157.268 65.5247
36.6154 132.113 258.148
51.277 176.228 129.952
47.2709 173.062 109.076
62.0825 133.493 117.315
16.1745 159.594 149.941
48.9733 165.35 127.824
34.6089 106.794 135.384
17.5678 122.793 148.878
80.5569 206.197 65.6158
17.9124 108.689 165.372
42.2653 97.3228 125.284
34.134 141.605 172.727
34.6017 163.9 163.192
46.6095 168.678 102.999
67.0374 211.703 67.4231
51.8252 100.93 130.641
29.1603 181.956 91.662
20.1267 114.781 181.007
21.6517 171.509 109.605
73.9931 138.033 155.715
11.921 133.431 74.1
9.91986 108.347 137.953
70.832 99.554 164.839
44.5611 118.399 171.698
57.4133 149.507 111.52
84.1106 1.53784 224.864
144.029 211.263 202.231
58.15 159.234 137.572
36.8895 164.229 102.549
21.8074 166.31 159.983
71.8695 212.049 64.8596
42.3567 107.86 166.383
73.9562 223.413 66.6535
146.99 98.1391 84.4952
49.1751 123.085 93.5672
64.6171 136.379 96.9234
18.3344 105.87 147.221
4.40875 141.021 107.069
4.7772 135.163 145.674
58.0005 178.669 125.717
142.562 202.43 221.197
68.645 114.856 135.959
60.0749 131.807 81.825
89.1871 159.021 57.8315
45.6124 102.312 116.847
145.341 196.163 222.016
31.3243 115.091 115.067
9.67378 97.6442 148.836
150.308 197.757 205.155
52.4994 156.189 79.4394
50.1884 177.172 119.231
81.4595 201.399 50.2009
44.3009 144.738 180.53
77.7584 121.541 142.472
13.3582 119.372 118.309
144.8 180.723 237.716
49.398 74.3207 188.602
34.3226 162.25 88.4262
61.2996 142.462 173.061
51.1695 119.551 103.433
29.4566 111.084 178.86
59.1532 109.823 138.514
42.5005 118.067 163.972
77.5048 120.496 174.924
44.1678 173.063 135.578
45.8635 114.706 146.784
44.8028 129.67 68.299
28.9968 141.288 254.864
33.8299 114.744 174.894
73.1276 105.686 173.313
56.7164 129.617 66.34
29.2089 107.51 121.195
63.6927 53.2677 149.023
55.0736 155.952 166.033
14.7463 118.01 100.729
57.1626 104.927 118.221
28.82 124.286 118.393
15.1024 120.915 176.744
68.127 59.266 150.279
63.5541 100.696 158.563
77.7851 211.305 52.9505
53.8452 108.319 109.279
19.0644 129.341 126.298
10.9591 128.676 68.0866
37.1903 157.358 158.468
141.412 199.196 245.311
76.8718 145.013 160.791
77.9653 146.301 58.2783
36.2629 106.114 120.529
68.79 127.825 180.823
158.766 187.245 255.003
22.5199 99.0446 106.606
22.7219 231.23 11.0482
57.4583 122.722 82.0945
56.4665 119.276 182.544
161.207 192.677 256.542
70.4825 209.825 71.9801
67.0045 63.3773 144.186
16.4717 123.942 85.6464
55.52 82.865 195.184
68.7649 150.938 167.158
59.1471 150.234 170.159
27.2472 165.35 158.299
8.15863 161.254 125.545
29.7938 231.284 255.097
66.3839 81.1625 137.265
21.5401 94.5148 130.574
166.592 204.459 234.402
143.503 197.92 231.354
55.7753 125.441 75.2356
11.5074 121.693 98.8132
57.2803 138.3 184.707
40.1555 165.022 92.9579
145.251 206.344 226.478
69.7849 67.9555 143.7
42.8174 180.937 111.55
139.71 195.793 225.819
80.3677 160.051 60.8342
9.56131 122.514 117.569
74.9454 149.84 130.533
47.8518 82.3014 192.031
63.7639 118.322 107.416
146.172 63.2057 2.31106
70.7324 62.8167 148.156
98.1623 208.814 48.2245
12.6586 138.723 133.475
59.7172 111.378 150.22
69.9191 115.696 180.801
40.3839 138.12 90.7336
21.9424 128.614 129.974
24.3027 105.863 125.206
72.9092 214.917 54.9769
54.9704 144.602 162.835
32.3267 146.031 257.023
30.0691 114.423 155.563
51.6519 100.038 144.09
8.63458 137.109 72.7432
36.0068 121.151 183.162
79.167 222.687 68.8939
73.6232 49.9719 2.0314
157.363 116.672 239.864
76.3342 133.103 181.446
21.1156 109.902 92.2663
60.1422 115.535 99.3058
64.8039 123.804 98.7217
66.6902 122.503 114.124
66.7795 142.661 150.058
70.714 150.403 108.611
57.2831 138.91 149.66
51.2983 100.653 118.308
65.3654 145.927 117.362
77.0048 104.619 135.776
60.4418 160.992 83.6514
13.8625 147.541 173.9
147.424 189.42 242.038
29.663 115.865 86.5174
84.0718 218.555 61.4104
155.248 200.694 222.028
23.1436 122.124 87.8213
39.6595 173.962 107.619
50.2826 124.91 189.042
157.572 121.268 238.59
26.5244 169.175 153.225
44.2746 165.985 75.0233
37.4718 1.17407 33.4775
45.1895 99.9898 130.078
32.7746 85.9961 152.823
54.1715 109.479 100.618
26.0613 142.985 152.61
50.6676 102.824 123.015
57.7321 105.694 147.044
69.0811 48.8683 2.86558
86.1661 163.159 76.4434
80.9598 153.705 82.181
36.6465 140.372 102.873
14.6386 126.641 150.177
69.1796 34.4774 1.06887
51.2547 86.078 193.772
8.43 129.826 74.2581
79.4893 139.268 171.697
70.5481 42.9727 1.49893
50.7825 79.6938 196.205
32.3581 160.556 167.645
155.035 121.69 245.283
45.064 132.946 76.5186
71.4686 162.264 131.171
74.685 147.068 124.123
48.9717 130.841 80.654
18.1546 116.181 95.163
