ply
format ascii 1.0
comment Created by Open3D
element vertex 288
property double x
property double y
property double z
end_header
15.0103 106.142 130.538
37.2701 167.974 165.937
46.772 122.801 70.0781
23.8919 173.074 108.182
6.02727 136.625 110.559
22.7266 164.426 111.277
21.3913 94.8217 148.886
29.4244 121.356 135.26
25.279 121.759 124.873
16.5656 158.584 77.3781
14.4616 137.891 107.577
17.4531 130.801 76.3427
12.5108 152.159 148.628
5.08829 20.5369 38.6253
10.8514 125.94 102.268
38.4927 119.385 83.4358
23.5619 134.024 109.433
70.28 109.105 83.3091
6.32345 130.239 136.839
39.4874 124.708 106.096
6.14999 129.07 189.219
22.8588 147.85 73.5445
34.5273 178.702 116.523
18.3813 98.078 97.917
8.81486 137.895 83.5186
66.4897 142.751 170.398
28.5102 110.225 102.303
8.98536 127.095 113.525
19.1481 123.299 146.646
40.3594 169.038 100.293
37.8844 172.402 154.076
33.9351 182.233 137.302
74.9998 161.985 160.764
25.8489 126.472 74.5066
26.4492 180.526 137.694
15.7717 159.963 141.156
8.55812 137.702 147.387
10.3013 221.276 258.815
61.2003 177.971 152.089
28.9307 123.613 145.73
21.599 161.711 155.871
25.1082 133.174 117.992
14.1252 161.912 148.085
20.6402 157.389 168.24
74.9265 91.106 133.881
27.9852 174.041 149.931
58.2514 90.5322 101.041
35.6329 131.519 137.241
42.0481 92.023 97.396
36.0509 178.951 148.856
20.7913 109.198 84.8762
26.6985 168.646 156.476
49.2551 97.7786 142.506
53.9013 111.638 88.3455
6.20417 116.534 128.271
20.9539 108.283 107.768
34.1297 230.322 245.508
38.9221 94.6293 130.353
18.3695 166.54 130.726
16.8281 230.042 173.555
11.9952 116.723 137.135
58.9362 92.64 117.221
45.0799 181.128 127.922
22.9803 149.393 159.307
12.4873 112.077 115.042
35.9543 129.871 79.2617
32.3479 230.069 269.718
27.9962 152.878 126.793
28.528 187.988 104.162
38.9027 150.516 82.0216
33.1361 223.181 265.642
56.8182 168.69 148.148
17.8475 132.433 86.534
18.7351 153.412 135.538
9.93165 153.703 117.961
42.4425 213.635 262.961
8.42158 149.664 108.504
20.2962 142.124 160.125
64.2511 168.131 142.204
46.0792 166.081 158.362
21.4575 155.468 89.9389
33.0226 146.402 81.5931
41.8331 150.162 144.656
19.5954 130.232 149.954
87.102 131.183 181.799
49.358 226.472 256.534
33.1287 174.634 106.652
48.4744 126.864 84.2521
22.2419 224.079 266.489
10.5469 113.983 168.706
55.0473 166.853 232.945
57.0335 167.614 100.246
31.8133 150.602 117.793
6.0628 127.372 123.177
34.5473 137.252 105.932
14.8247 224.168 176.224
12.5144 170.253 133.367
10.3136 154.929 169.883
44.0051 133.927 67.5543
3.99069 141.731 124.363
41.6437 224.674 262.796
14.2831 160.171 113.208
48.6939 128.652 138.07
27.3486 159.701 152.948
24.998 113.125 97.0663
31.136 127.264 103.654
16.4058 170.005 118.483
60.5919 98.4184 91.1546
31.0769 125.024 157.434
40.3375 110.994 132.668
34.6795 158.104 116.902
35.1096 213.12 266.779
30.1845 157.152 142.493
36.4 131.969 116.245
57.0064 94.354 134.141
52.2409 174.457 107.716
15.7516 169.484 144.075
41.6592 142.7 101.362
50.1927 187.964 118.207
4.61294 121.615 160.187
18.8524 114.194 141.223
8.23704 117.708 114.534
23.3002 171.458 139.094
28.1684 180.86 99.8266
15.1217 133.701 142.835
27.1004 96.0686 134.085
52.6691 134.77 81.3408
32.5081 139.5 90.1621
33.6985 94.682 136.687
63.0159 140.618 106.541
48.9496 92.4896 118.021
14.4839 145.399 132.353
42.4775 175.939 107.955
26.3975 110.898 132.209
36.3781 161.436 156.629
41.9724 93.7606 121.055
55.035 141.312 144.101
36.2281 183.394 132.23
49.7703 166.543 93.0331
29.1819 224.773 253.401
36.1384 115.913 100.639
28.5185 230.614 260.423
20.8004 155.421 126.648
41.1091 227.547 251.152
16.0233 120.502 127.72
37.7344 110.164 152.891
40.4586 151.064 162.486
38.2892 121.227 168.293
42.658 101.708 145.387
47.1137 178.577 118.436
22.1658 128.551 135.779
5.06818 139.909 131.712
53.2044 118.603 130.133
4.11015 134.146 122.002
27.0707 143.127 114.13
34.9458 145.798 110.99
12.5767 133.784 151.582
50.3967 146.733 114.64
21.1613 92.2585 106.528
20.4468 132.883 98.5745
41.0356 151.054 129.021
52.2836 23.8824 116.807
51.355 148.532 163.978
38.5905 164.628 91.4466
14.024 129.96 95.3061
28.0916 136.816 161.006
24.7326 230.907 245.476
32.8835 136.639 77.7485
61.442 126.848 142.19
49.0176 180.325 94.8835
24.748 230.668 268.199
45.5437 108.628 150.695
16.5349 147.919 96.8465
20.6888 154.262 102.167
39.7151 99.0919 110.864
49.7767 144.48 77.3259
38.1238 166.404 114.364
57.8791 176.705 127.159
81.8414 119.636 91.9193
13.7205 115.192 103.255
45.3984 138.093 143.021
45.7312 115.176 110.985
25.2747 159.827 140.402
9.3756 150.389 135.58
52.2994 147.967 104.117
45.5518 164.131 86.973
65.5464 161.013 149.307
24.4389 101.361 109.521
32.1388 162.716 97.6502
40.3965 229.9 271.31
57.9912 98.5678 144.616
56.1747 161.039 160.352
22.2262 186.048 123.035
24.0205 142.527 86.3112
26.0185 131.279 102.236
2.62668 134.248 156.267
65.1965 156.171 167.407
58.805 98.5287 109.441
54.8197 230.446 270.082
22.3223 144.175 99.483
61.7691 125.656 86.797
54.6467 177 144.114
14.4436 227.923 273.504
31.2637 104.691 110.497
50.4365 225.887 272.822
27.8111 131.957 128.64
42.7857 146.371 115.652
44.8539 126.646 117.115
32.1869 149.975 103.293
61.1312 174.473 120.964
38.8318 124.82 129.241
39.0576 137.958 123.856
45.7315 109.902 118.167
65.0135 124.624 153.739
18.7953 128.152 116.989
55.1328 113.015 153.883
29.8902 95.0381 126.458
23.2122 144.721 133.513
27.648 224.727 274.234
21.2261 106.387 136.105
7.30193 149.663 141.22
46.6296 134.199 106.034
34.1048 98.8608 123.905
6.10816 109.037 157.095
49.8991 156.152 102.887
64.8242 111.51 152.35
61.6733 173.775 139.05
32.5995 189.533 106.606
22.36 87.5365 103.985
43.5831 123.147 159.053
3.24184 150.442 122.853
10.1105 119.911 108.844
19.9628 112.153 114.167
3.54916 117.387 161.74
56.5481 230.067 260.003
31.8984 148.125 160.328
20.9427 136.81 158.431
44.1148 154.62 102.971
39.7701 145.222 164.822
38.1647 141.994 134.347
47.815 163.722 107.247
47.2914 231.241 245.598
42.57 135.022 94.8737
71.8184 104.189 106.823
43.4206 154.733 150.819
25.7309 163.928 103.155
34.5216 94.0735 118.931
55.0227 106.029 98.0737
51.3515 137.008 108.561
31.3013 181.244 95.2405
28.2873 138.239 134.269
26.5125 161.499 96.154
29.7587 213.972 170.032
19.8968 229.791 255.251
62.6077 165.223 114.169
17.3062 102.339 131.981
39.1759 154.861 105.231
55.1067 137.391 162.253
41.557 162.982 111.151
84.8034 168.095 138.921
44.3962 121.23 130.654
57.952 155.55 135.939
57.7026 103.528 149.578
26.8332 159.956 129.369
6.77979 91.4842 118.766
79.5817 150.509 120.068
40.0879 126.939 89.4994
52.585 113.659 121.744
41.1035 223.239 274.62
62.1819 155.883 124.508
43.4961 177.242 150.701
28.1277 96.0587 113.894
41.5502 152.857 118.139
76.165 161.6 124.146
63.3254 163.282 107.304
65.6294 96.4212 135.863
51.8501 105.172 170.495
66.102 151.763 155.002
42.9105 118.813 146.514
51.6322 162.12 114.305
6.07241 155.335 136.071
62.0785 138.227 145.021
37.9 101.001 128.355
55.2747 151.304 153.97
3.74715 151.508 136.792
26.0356 123.283 119.008
49.3607 142.233 92.9972
46.3188 138.01 166.538
