ply
format ascii 1.0
comment Created by Open3D
element vertex 391
property double x
property double y
property double z
end_header
15.8848 91.1188 71.6743
19.5606 102.09 40.5398
23.9154 138.067 79.1953
31.954 25.445 188.041
43.7707 134.618 73.2707
38.6988 63.5307 25.0264
51.5008 57.8528 51.1422
3.80281 139.893 138.154
8.02818 102.346 118.389
22.9942 148.037 82.9244
44.5068 195.243 7.2213
32.2426 135.877 74.9202
20.2223 104.852 58.3783
28.344 100.404 83.6373
13.8368 138.988 122.226
63.243 133.997 45.0004
23.1483 34.2038 121.449
11.0284 153.355 94.4028
26.1244 217.442 3.16867
45.2107 154.267 64.3502
4.43649 6.85289 189.214
17.6619 32.1846 11.2453
31.3953 112.737 77.7554
14.4615 213.045 50.9059
50.7957 57.1659 42.4476
14.8685 100.847 50.7598
12.0651 73.8803 59.3219
40.0701 200.027 47.7547
35.999 81.1211 21.8232
19.5373 79.7433 75.3021
10.4275 140.213 150.906
32.5488 56.0232 33.9324
35.6003 146.689 78.0327
43.7195 89.7892 27.407
17.1201 64.6327 55.27
46.3608 59.8716 65.9304
22.4802 224.944 49.6788
39.3137 157.147 55.5975
8.54075 137.291 92.136
48.9569 68.7286 29.7846
13.1515 164.059 121.737
20.6305 94.1525 26.223
29.6971 105.097 61.848
11.9323 10.8623 195.402
27.8607 99.8984 70.1355
22.6623 82.2675 23.4715
19.7943 5.41621 200.47
27.5716 103.203 34.8839
20.9531 113.811 28.3621
24.0013 171.573 107.746
29.7437 187.079 3.97082
28.4309 75.3891 74.543
9.24271 148.337 144.394
43.4507 213.916 46.9383
34.7298 11.6088 19.6601
84.0536 122.73 105.958
19.0245 9.27661 106.048
58.0642 100.254 146.312
35.3916 124.596 73.451
4.09897 112.142 113.787
19.2284 168.388 127.776
83.0156 129.347 126.78
45.0503 172.911 102.366
40.6504 105.34 155.992
57.3759 111.459 77.8248
30.2448 91.9821 91.2452
15.1825 107.574 145.479
50.6051 200.972 17.3967
45.2534 148.798 77.3888
43.5887 56.5731 47.6086
50.2191 80.9437 24.5772
12.9867 219.743 45.2475
42.7182 54.4634 38.1025
5.06319 116.441 138.693
8.38105 88.633 41.6551
8.29871 11.4705 179.973
21.2067 156.57 88.9373
16.0546 169.266 114.153
5.65643 161.934 120.691
35.6065 157.329 84.5935
9.52852 119.328 6.33772
74.8751 158.676 111.324
14.7934 163.648 100.517
41.1437 98.8168 43.2025
80.9564 129.257 95.28
27.9668 170.468 128.686
35.4217 56.4895 45.4931
82.0115 114.887 121.119
36.6099 171.583 127.337
19.9698 95.2054 95.131
11.5027 67.4519 40.9156
13.7724 88.081 32.8481
13.6554 95.6235 122.406
20.7681 104.851 85.8584
22.9109 132.906 157.164
31.4683 68.3574 68.2764
36.0692 175.534 107.62
18.5161 114.582 152.24
5.30348 111.89 97.8825
60.6652 67.5448 43.8226
38.3342 98.9049 82.5386
46.1927 27.0795 168.05
5.00645 110.776 127.038
36.83 104.241 38.4801
40.3208 78.4821 78.3428
3.83427 151.375 122.912
18.4453 36.4267 105.272
22.1439 167.693 96.712
17.3289 146.038 147.782
12.7566 124.123 107.815
12.1742 127.318 14.1466
38.8923 127.327 161.337
37.7659 98.4249 148.664
28.5733 83.6922 79.413
14.2152 73.8439 30.3696
43.7283 210.7 5.35925
55.164 83.8538 31.8016
68.8079 160.857 101.183
36.9234 59.2101 68.2084
12.4603 77.6814 67.0125
12.0184 189.44 36.5347
41.0134 14.4001 11.0996
16.382 93.6465 107.463
15.3238 209.157 4.7653
63.81 140.745 36.2841
50.1709 105.876 154.915
30.5984 205.39 54.1698
14.968 110.966 86.9533
16.8439 124.745 155.813
24.6172 174.764 120.453
41.7588 107.059 46.4733
27.1798 101.985 148.858
16.9388 196.878 2.6571
2.98948 129.102 109.659
32.7895 173.63 100.447
41.2901 189.756 39.2981
58.5152 90.2907 121.255
37.6804 105.558 57.4891
16.2614 132.514 26.1025
8.59458 128.326 90.9925
27.7223 218.874 51.2957
42.9459 168.958 91.2348
22.3278 88.7731 120.609
73.4472 109.062 100.925
48.4818 80.4168 73.3353
46.3162 93.2127 141.03
52.1187 163.591 49.5999
24.5173 65.0291 26.257
42.8111 87.8315 97.5148
11.8012 102.502 97.3983
11.7969 119.577 89.3158
18.8816 137.981 154.387
17.3313 186.994 10.6744
39.2829 184.634 15.1131
51.4169 93.5431 89.9593
52.9939 75.7094 32.2892
13.2454 226.997 37.195
10.0701 92.0616 56.6936
35.6224 18.988 115.072
31.4101 32.2976 173.626
13.074 22.2795 97.2115
83.6248 130.759 105.672
43.9777 134.982 47.1777
17.973 8.24021 50.6541
28.4295 106.687 50.3368
17.5867 15.5497 116.268
50.3336 61.4286 34.7194
29.6931 36.3198 109.534
82.7352 122.332 114.857
37.1776 5.88128 8.69906
96.1023 217.815 52.6398
44.3485 160.865 84.9647
20.8887 97.3738 142.47
16.0833 131.734 83.5991
82.3134 142.396 114.392
77.2177 111.409 130.181
48.4385 122.391 73.5712
58.7956 129.163 49.1292
33.6165 84.857 125.241
79.106 147.445 102.708
25.3139 36.3608 41.8144
11.6159 176.587 46.599
18.9928 59.275 41.6294
72.7221 114.049 140.614
27.6375 192.146 49.6105
3.84229 140.93 117.286
2.97942 120.234 127.424
9.55499 197.059 10.4842
26.1595 56.9614 46.2855
3.25432 119.01 106.002
43.9029 113.052 73.7161
7.65257 162.951 110.126
62.7462 125.572 155.289
59.4078 132.581 59.019
25.261 186.199 41.3923
5.72232 153.917 131.605
45.6953 92.0357 38.0788
27.9333 88.9391 131.109
8.63821 122.103 23.8974
10.2877 2.4483 196.618
77.7354 139.467 91.9916
7.393 25.5227 85.2043
30.4767 36.0923 5.5403
81.1984 140.621 127.371
55.1578 92.4667 41.3018
70.2673 152.029 40.5607
32.8559 97.7574 27.1052
66.87 95.3766 115.129
57.9885 140.014 78.2044
9.70317 119.253 148.388
22.8211 3.34355 175.341
4.63143 203.129 37.4952
35.4669 18.1837 103.754
28.1225 112.932 156.133
43.7434 227.33 31.2863
68.7562 159.837 49.3864
12.1375 216.955 11.3317
61.9431 80.2487 43.7295
31.0093 173.368 116.314
29.3003 87.3072 103.366
66.0126 156.797 91.1231
40.4733 106.668 76.724
24.8818 14.1964 96.0155
29.9338 3.33297 2.91636
22.4875 230.744 34.6984
4.84419 217.087 28.153
7.06443 75.3685 48.5754
12.069 14.2378 5.15449
81.3628 121.176 130.047
71.0698 101.285 125.805
17.2499 5.21489 5.02366
67.9955 133.224 82.07
42.5235 153.812 40.0686
74.3805 123.934 139.863
51.1321 129.179 50.0799
58.3232 122.688 75.445
28.8651 147.855 149.08
47.0143 88.1139 71.5087
108.757 16.8685 203.101
65.691 94.2257 132.305
28.6103 125.97 161.118
67.4421 143.921 84.4998
58.9368 167.834 103.077
33.317 228.835 42.541
40.4292 68.1349 44.8398
70.5267 156.294 130.894
18.9984 16.4557 97.6213
78.7436 118.912 96.2861
9.94692 22.3296 5.21173
74.3299 148.279 91.313
22.9917 67.7269 68.3699
25.8076 128.176 76.5945
30.0819 2.74113 192.188
30.2859 180.04 26.4694
65.1577 166.172 120.357
53.1081 169.972 95.0592
53.4079 160.783 37.8366
9.08751 156.794 137.607
52.8074 225.013 61.1537
72.429 125.114 148.519
33.5328 31.72 123.558
40.4457 14.1109 178.469
45.5623 173.853 125.37
69.25 105.128 138.497
73.7131 155.819 121.31
73.7728 148.295 133.621
47.1545 144.381 154.939
51.651 210.149 28.7371
26.6574 225.132 10.0928
13.7859 2.32046 93.4452
30.8381 160.917 139.537
20.1861 121.262 79.6254
5.66076 64.9717 170.298
43.9586 35.9279 180.374
17.3151 159.945 136.799
60.9427 92.3238 107.427
14.4362 186.718 23.4753
21.0957 134.964 124.36
39.8258 97.0865 69.8903
58.5931 88.0659 57.8233
64.077 209.787 53.6984
12.3062 124.605 32.271
24.5307 125.943 8.80862
18.6911 153.011 146.157
58.9502 110.513 150.958
51.9499 123.449 159.052
10.0924 129.216 148.568
14.4116 96.3289 132.883
53.8958 152.357 80.3237
57.0493 104.638 82.3936
33.9519 212.924 90.4912
35.0187 89.2642 74.8465
51.8097 174.494 112.698
78.026 147.783 123.844
20.8261 139.287 114.306
72.6736 153.809 100.441
81.8908 139.617 99.9339
39.1869 84.708 121.613
86.3643 140.445 108.733
28.959 11.5838 102.892
8.03614 126.783 132.98
41.7347 89.1283 50.3833
5.26203 141.871 100.736
50.2231 216.288 37.9481
4.71488 22.7782 96.3004
79.3711 149.958 114.383
72.7261 102.996 112.471
37.4057 69.0218 72.7533
13.4999 224.513 20.2988
40.7024 25.8773 5.45383
68.1484 102.451 98.7162
64.4156 117.847 151.649
63.8692 165.905 110.739
75.9351 140.66 137.748
16.5639 127.614 122.308
53.5543 168.805 130.81
80.4296 130.596 136.066
61.6259 224.029 66.7791
58.0611 160.793 88.0814
26.6043 180.357 17.7105
38.5803 142.757 53.9753
39.5789 16.5286 84.5583
5.72233 217.509 38.854
6.29007 198.548 22.8655
52.7579 89.1273 106.56
9.35368 132.733 143.49
11.7005 14.9413 102.244
61.2278 90.1558 45.2337
37.1266 28.7845 107.931
78.4589 110.174 109.573
16.8558 118.791 110.416
66.7824 145.274 56.2329
51.3841 94.8368 53.7373
46.9588 190.194 26.0731
67.0645 114.615 86.0304
57.5434 72.3148 66.5861
32.1855 63.941 57.0609
17.5826 122.313 114.627
11.3944 2.14366 176.764
22.9335 7.39714 16.4711
41.975 174.026 115.575
24.2421 13.6271 188.901
48.9945 24.4661 178.805
41.9733 78.2622 43.109
72.8588 122.548 86.6297
49.4421 202.778 35.7194
35.9256 138.189 156.684
41.3221 97.5123 56.9091
40.2566 225.756 16.092
48.6774 214.819 15.4342
31.6739 58.0427 57.8277
58.8671 159.591 57.3119
52.419 141.174 35.1502
47.2681 151.187 35.864
73.3897 220.333 54.0165
61.4878 98.8782 92.8056
104.77 226.886 33.3641
52.787 92.0728 133.38
59.8661 219.663 40.5895
20.7698 23.3143 92.4201
24.8571 2.43723 96.4476
45.9447 116.772 158.206
45.9824 90.52 54.8645
83.1828 225.567 47.7452
34.0682 230.526 23.7094
24.2486 38.0658 1.30248
13.9091 196.076 42.5994
4.83493 136.663 129.767
82.8144 134.548 118.295
9.66641 154.111 108.576
21.1257 230.257 23.3566
36.9981 112.963 157.564
30.2977 163.054 92.3199
31.6903 27.8584 98.8861
46.4407 167.05 138.025
33.9254 213.818 1.38244
47.5874 142.307 59.7714
20.9866 128.997 127.294
35.1771 29.6451 168.565
45.4894 34.5955 10.5285
19.1049 122.907 108.546
65.0688 230.514 59.2868
3.4851 153.346 107.605
26.6073 25.4177 98.3706
53.9447 137.041 57.8365
47.7636 92.7019 44.696
47.4528 134.883 56.6473
20.5282 34.8127 33.3876
40.2591 199.025 1.05343
35.6365 205.631 86.3273
57.7985 228.173 47.3851
