ply
format ascii 1.0
comment Created by Open3D
element vertex 296
property double x
property double y
property double z
end_header
55.7874 69.5511 167.071
66.0664 74.562 169.249
35.1569 103.263 117.826
21.3454 127.314 132.751
45.5401 159.768 161.698
40.3 136.286 116.639
11.9308 92.8306 144.802
63.1694 81.5565 127.259
9.79875 115.712 155.388
80.4884 131.114 143.621
21.3118 141.094 167.042
44.091 151.698 139.455
13.3616 89.6453 153.565
18.9158 140.012 183.489
60.711 155.649 153.245
20.4483 109.701 191.727
51.6458 159.716 143.282
45.9139 153.643 176.222
24.2999 121.064 191.635
27.2026 98.8064 192.945
16.321 125.631 138.53
41.188 147.94 127.553
60.8849 82.9721 134.992
62.4658 145.509 122.945
83.4356 117.568 137.053
69.1866 151.321 139.596
11.778 105.059 136.254
30.8308 82.6478 196.753
29.2078 107.685 123.532
16.9732 140.264 158.015
52.7922 155.16 173.562
23.0817 120.11 124.638
74.419 113.964 186.564
86.1159 122.843 144.466
68.7408 139.774 176.198
12.9233 114.19 140.428
70.1616 147.569 132.536
54.8563 126.181 114.765
54.2141 149.467 145.961
54.4346 136.57 123.262
22.4224 110.303 123.809
47.2989 138.975 195.515
13.7404 137.704 147.287
68.7577 123.966 119.276
35.5512 121.563 114.302
35.4882 116.751 200.911
80.3403 144.953 155.865
10.2595 102.227 167.757
16.3954 126.047 180.161
30.3571 150.821 168.053
50.2803 153.608 156.476
45.6067 102.136 205.42
23.911 145.352 173.559
77.2701 147.348 148.439
19.5724 76.9776 145.12
78.155 145.746 162.902
36.7446 153.39 146.753
9.90539 116.983 146.255
9.03103 122.968 172.948
53.9416 70.0628 158.129
71.8046 142.402 124.547
38.4181 138.479 188.948
9.89045 112.27 174.653
62.058 78.4031 186.437
35.1793 104.435 200.059
83.8795 137.895 158.51
66.5791 113.34 208
48.0543 133.017 118.802
18.2915 130.069 188.69
50.7089 109.112 210.344
26.2666 129.939 122.873
44.2456 155.212 168.706
9.70021 131.403 158.237
19.3611 101.818 126.205
77.2427 90.0813 154.171
10.0361 127.09 152.329
12.3542 103.989 179.834
71.999 79.5511 138.291
72.7974 142.238 183.951
15.2499 136.108 137.912
75.4761 147.163 138.75
58.5419 148.813 179.711
53.7875 146.407 126.237
84.6729 104.768 170.251
51.1045 147.069 190.611
18.9169 94.3743 181.902
16.6106 113.147 129.788
90.3237 108.596 153.969
85.8242 129.284 150.933
51.489 152.071 135.663
46.3626 101.563 115.596
55.5414 96.9792 115.776
36.3296 82.1606 122.909
81.0128 134.232 173.498
28.3014 149.177 142.284
28.4675 145.949 129.762
27.2999 136.945 136.997
71.2262 122.992 187.595
40.9477 83.7638 192.219
75.8931 135.729 168.22
82.3297 95.8573 168.553
69.1236 152.8 153.766
79.0771 121.362 125.544
38.3484 146.864 183.049
39.3968 139.013 197.137
63.2287 135.871 195.235
71.9352 103.5 121.653
30.1041 117.879 120.731
76.5546 98.7502 130.85
38.828 132.137 196.995
78.6212 110.613 130.975
61.3277 90.9726 125.498
67.724 73.3836 160.12
57.7611 117.111 204.761
54.3383 123.854 204.327
79.0553 123.77 134.907
15.1605 93.9357 172.287
60.4782 157.436 145.239
68.0987 149.669 164.396
23.3766 75.8151 137.613
59.4699 150.705 134.891
10.6944 101.809 145.68
85.6217 114.167 147.169
10.9666 95.8162 159.77
91.1016 119.771 155.331
17.8402 83.1256 155.894
83.5317 115.107 188.127
8.29525 120.015 163.066
42.3903 113.572 202.86
44.3454 67.1406 161.932
71.7861 132.297 187.329
47.4506 70.1901 172.332
54.9406 116.17 113.927
47.5791 144.955 184.327
37.3893 125.343 200.025
69.6629 113.553 121.475
25.8967 150.809 157.652
76.0894 83.4675 146.451
83.154 105.776 136.256
46.4958 122.853 113.913
45.2929 74.3793 139.083
63.8556 143.915 185.975
62.5653 74.856 137.855
40.1626 94.5301 196.962
59.7927 68.5273 143.453
16.1901 98.3171 135.405
49.3224 88.4975 119.304
27.1632 133.469 187.575
36.6937 156.137 164.029
56.9735 75.1035 178.454
61.081 147.208 171.784
33.7597 127.463 119.735
8.4881 104.562 155.136
78.0457 88.4644 165.845
26.3387 74.2135 130.68
19.819 87.4025 138.247
28.3441 113.186 198.397
74.2682 150.598 158.222
36.8813 68.7264 157.765
54.6353 63.5939 154.082
73.2009 76.5971 146.608
37.1943 133.903 123.483
23.1457 86.5855 180.704
64.6893 72.3092 152.008
78.4556 91.5331 136.677
29.3077 136.342 198.848
49.2124 150.104 130.514
76.8041 145.939 172.311
41.1206 155.633 152.966
84.9669 122.285 176.389
82.6679 109.501 180.7
34.7194 148.809 136.955
88.0623 100.616 161.793
23.5747 152.122 151.788
53.9156 75.7158 190.755
37.3349 113.327 115.7
17.3825 85.3367 166.713
20.435 138.299 145.453
20.0862 149.638 140.343
87.898 109.533 160.298
80.1431 129.257 164.7
35.4085 140.972 131.48
32.6398 146.161 189.874
41.6004 127.371 116.237
45.8766 140.398 127.333
62.061 155.443 168.035
25.0637 76.5391 165.286
28.0046 89.4107 124.893
41.8613 68.2129 149.351
37.6654 76.8237 133.507
49.7467 114.745 201.612
26.2242 98.6342 122.27
72.2293 103.549 200.468
52.2155 67.4899 141.369
75.2236 138.349 144.463
33.591 70.5438 138.056
32.1847 149.574 182.366
45.8044 80.467 123.172
85.6694 112.851 174.425
34.1009 91.9076 122.17
74.9175 105.334 190.044
31.5274 83.1742 133.542
51.62 101.138 198.595
79.1532 87.5836 173.216
79.9592 98.1412 146.293
29.7623 69.653 146.189
56.8116 141.358 191.271
60.1479 105.697 121.07
15.5603 134.013 174.73
60.0949 107.318 211.58
74.4377 135.489 177.699
41.188 94.4952 118.182
80.2198 129.109 181.329
53.4543 83.4709 126.698
51.6194 75.283 131.378
14.0435 85.2374 143.271
25.9817 81.9585 130.143
70.0813 87.4148 137.724
32.5861 92.7355 192.695
56.4352 151.182 165.927
78.1774 90.9624 180.831
71.5467 92.3797 187.374
13.4801 126.342 168.051
32.1705 131.76 126.201
53.8169 86.7153 194.474
47.0397 110.8 114.068
38.3797 63.8159 145.182
73.8326 131.659 125.788
36.2262 72.6679 166.025
30.9408 150.59 152.927
79.1498 136.759 151.392
21.2731 139.599 174.412
12.3953 126.784 143.919
62.8207 121.571 200.894
9.00275 111.092 146.904
65.9605 87.0861 192.034
30.9296 69.8703 160.557
14.8701 135.623 192.986
69.8264 93.8653 125.965
36.0683 146.319 172.568
88.2213 125.203 164.878
75.1546 100.799 183.58
81.2337 142.543 142.07
85.3292 119.692 159.844
80.4809 100.165 177.477
75.1673 79.7591 166.145
78.2897 80.8361 158.167
63.9059 149.055 147.506
45.1671 108.55 158.383
67.2415 72.9041 145.997
59.6884 127.753 192.946
61.1111 108.364 195.277
24.4403 75.4385 153.909
51.8094 131.735 198.822
66.0716 150.926 179.933
69.3144 128.234 197.79
85.1571 92.6443 158.964
45.1683 125.059 201.066
39.1621 71.7288 172.487
77.0685 141.697 131.656
45.6057 69.1639 130.342
70.8941 153.547 146.016
17.3275 90.4265 129.335
60.0643 91.3077 196.296
76.2106 95.5027 194.805
60.2081 93.3538 204.784
85.4297 99.9555 147.122
37.9555 67.7036 129.315
22.406 93.6036 126.554
80.6397 135.561 133.617
65.4007 135.614 122.386
58.841 156.206 161.922
44.9485 75.5158 183.639
9.39469 127.042 138.645
46.4627 93.6719 196.138
26.2501 81.6133 173.984
81.2712 138.827 167.095
59.4992 128.565 121.045
26.3908 84.5093 137.098
34.525 67.7486 144.939
23.3299 88.2316 125.227
44.5672 95.4714 217.011
49.3222 112.493 166.73
68.3278 108.494 192.981
93.0131 132.782 149.159
73.376 137.32 134.915
40.6562 78.8771 185.228
34.4371 75.0958 172.938
63.2274 95.4176 200.08
19.3695 71.0861 163.83
69.7536 86.5315 178.414
27.6719 69.7297 154.418
11.0883 85.7796 187.844
31.1945 139.727 183.131
54.3375 108.063 204.334
16.6758 117.69 187.362
