ply
format ascii 1.0
comment Created by Open3D
element vertex 386
property double x
property double y
property double z
end_header
9.73117 8.4706 50.9607
29.287 18.18 240.979
19.1401 16.1285 236.575
49.1564 117.87 127.26
26.3619 50.9434 190.139
56.5334 97.351 254.174
38.9226 103.991 78.9468
32.6122 4.44937 13.8896
10.9726 46.9332 20.1403
11.8426 121.192 243.158
22.5417 114.19 220.823
83.3823 4.92298 186.836
30.4251 33.9176 44.9314
4.56463 113.29 246.604
12.8439 54.8471 254.361
39.1204 125.391 126.14
10.2346 14.3572 195.578
115.104 150.183 50.9591
6.07309 37.9811 14.8669
4.05192 140.027 165.983
72.1548 156.638 19.3916
37.6343 88.3838 222.144
8.97068 55.2727 9.24078
32.6948 100.602 218.146
24.2843 166.322 54.4556
11.4112 95.4718 264.744
3.96255 105.997 263.812
22.7609 61.6637 12.8741
5.32023 32.7477 163.981
81.1907 22.0811 158.629
6.46325 15.1416 218.794
4.47422 187.179 178.822
20.3923 49.5776 23.3137
23.3701 33.6872 222.068
41.9798 100.109 221.545
72.8037 124.953 92.5642
31.6335 123.255 134.84
8.42783 17.4516 46.3342
30.2939 152.375 51.0498
22.2952 26.2068 230.376
33.9927 43.1124 96.7998
49.4652 94.1427 265.629
31.3322 162.458 262.649
40.3869 71.3832 253.766
34.0183 126.266 232.504
5.47326 210.074 153.325
21.4278 125.087 235.83
41.1035 141.103 55.6574
36.7901 54.3343 94.2655
74.607 188.285 14.6444
42.1133 155.958 56.3986
55.6473 94.6198 244.209
19.0665 98.4962 220.986
21.9538 35.5169 207.497
12.1134 8.18667 20.4805
27.2018 28.7033 19.8962
6.47192 158.635 97.0559
4.7165 115.776 233.817
5.55805 161.213 119.48
31.8845 21.692 3.62654
8.28638 9.39522 231.704
25.4263 9.66382 177.068
29.1326 130.918 242.764
56.9825 110.55 231.725
19.9691 125.726 246.164
43.985 128.886 134.121
11.5339 115.821 255.317
32.5476 30.319 229.784
72.3985 136.878 88.7031
77.0418 32.3458 137.519
28.1836 78.2911 226.192
11.2739 182.204 260.461
4.2084 151.395 104.037
32.2289 39.3811 203.396
3.53578 67.1019 112.288
32.5077 131.529 257.481
12.6348 113.432 224.134
38.3466 143.015 139.999
61.1751 16.9959 231.419
17.4977 206.236 220.821
6.19957 164.048 104.378
11.3807 57.1136 191.621
50.1373 102.151 270.391
39.1851 113.392 70.4799
9.16122 84.1675 212.587
33.8891 177.958 102.731
37.9233 107.497 272.919
28.517 139.802 51.7272
71.4575 17.3578 169.743
36.4478 155.379 139.665
7.01915 4.37902 194.07
5.2388 5.90855 206.783
51.1136 108.26 120.959
31.7323 175.51 253.807
80.175 20.7741 141.537
23.3493 176.043 249.914
31.3182 112.445 220.706
42.0206 78.2603 230.617
74.0166 149.24 49.3404
9.883 74.7894 208.555
15.215 9.24072 184.542
69.1923 109.231 145.939
66.0151 127.142 78.4087
20.8017 130.218 59.1108
41.0106 5.44249 248.966
22.762 125.089 132.11
57.4685 112.474 78.0616
7.71425 172.234 215.263
12.3749 173.581 78.2718
16.5422 22.3899 13.1837
156.903 31.7135 264.495
4.62409 105.972 228.469
22.0733 114.547 116.016
64.234 115.4 150.382
3.12726 138.102 120.5
7.18606 7.54361 37.3054
12.2947 43.0997 174.905
19.652 110.932 266.772
32.9124 99.5564 86.1168
6.29542 222.602 209.925
12.4858 170.116 102.635
21.0495 5.26733 58.0563
6.7337 133.003 121.509
12.2699 137.031 112.447
9.24779 2.19641 255.924
8.79992 67.8703 97.4561
50.1448 103.226 234.924
51.0985 24.3583 232.282
4.5029 85.6112 189.468
3.8348 3.41405 225.485
20.0027 87.9729 212.305
81.0568 19.6621 182.335
30.6321 43.4403 24.1609
22.2015 177.027 65.6679
66.9207 9.38781 164.946
21.8627 175.552 101.142
19.9274 4.93673 9.70773
6.341 89.7748 194.823
48.1741 83.8022 234.943
130.3 51.7024 137.406
20.217 101.462 93.3259
3.19953 155.24 113.647
54.1127 87.3922 257.292
33.3794 120.063 269.977
28.3367 119.398 126.069
80.0978 38.0093 154.362
33.8086 18.6398 175.293
52.796 144.465 133.307
81.9697 41.1367 141.593
60.8457 168.195 102.79
54.3921 96.9252 236.839
90.2201 26.9967 144.103
33.3879 28.2119 183.41
27.3848 99.8651 98.8782
14.447 180.448 249.597
52.4601 134.256 130.166
25.3205 182.717 79.0796
4.33055 100.24 246.375
21.2027 118.21 259.865
27.4738 18.069 19.6495
16.0029 70.6161 267.816
29.9883 52.4341 81.3694
39.1559 34.8031 15.2134
22.2767 24.1887 187.081
18.0769 192.886 265.846
28.994 110.678 269.663
62.1503 106.891 246.3
15.3795 20.5864 28.4544
16.5121 172.132 116.748
13.3125 23.9513 207.367
10.4042 19.9597 39.704
136.288 53.4382 148.024
4.8071 95.6927 233.764
21.1205 39.6935 99.9038
40.0354 35.0551 190.812
45.7099 120.759 229.106
76.9575 2.51989 215.919
60.1791 115.774 237.732
84.1778 110.773 252.133
24.719 52.4011 89.262
50.0886 87.8174 269.303
25.4187 171.068 128.722
165.817 25.5135 263.851
50.6814 110.475 225.36
149.186 45.9229 143.163
25.0455 180.96 191.688
4.87759 127.938 77.2438
9.29917 79.9581 182.275
51.2025 83.2367 249.516
28.5322 17.7299 53.0634
19.7554 190.647 256.555
22.3287 9.08616 44.4278
82.6122 8.97629 203.358
7.23293 28.1025 7.68497
140.761 31.3593 138.153
31.9318 174.179 57.8367
42.1597 171.726 64.9052
3.55994 120.33 92.4963
54.8952 103.308 88.6925
21.7245 218.872 199.055
38.3748 36.2148 221.833
13.6769 62.91 92.6344
29.4673 215.669 185.488
19.1088 166.701 258.33
15.8682 85.4941 266.068
11.4432 169.49 264.385
11.9474 80.4419 252.577
6.35066 16.0858 267.066
58.8435 150.845 125.631
37.2101 104.575 114.602
35.4721 9.39502 53.3024
22.3844 37.3028 112.958
26.1019 122.057 226.677
9.55079 2.7817 28.8242
9.32649 161.878 110.093
73.1227 20.1489 208.093
66.4892 4.69032 235.671
3.53697 75.2582 188.218
66.9001 113.844 89.3382
7.92597 132.309 61.6958
7.6518 133.181 173.025
57.8797 160.607 123.239
52.0912 26.4567 179.679
19.3093 180.135 90.3892
142.71 45.2991 127.653
4.86914 198.384 173.132
2.98094 210.346 220.62
38.1578 113.967 125.665
42.0954 77.1419 264.922
2.941 209.709 184.197
15.7937 120.528 116.497
5.69716 136.505 68.3714
139.425 50.652 151.26
22.4139 173.956 108.787
35.6822 158.121 273.044
14.7409 186.142 254.323
50.5946 3.59618 248.576
6.17331 163.862 85.7166
24.9481 69.8242 241.282
41.1421 85.4869 271.747
16.9027 229.838 6.14996
22.3345 190.106 173.656
3.62456 82.4488 203.009
29.7462 202.321 172.834
9.33898 63.266 269.675
59.742 124.185 127.033
58.1366 102.057 110.959
61.7547 107.815 262.153
38.9303 200.413 191.81
74.8879 26.2924 184.315
4.39339 53.9395 106.49
21.6472 76.1832 263.002
38.9968 196.146 202.942
41.0962 54.9191 10.1536
84.4262 12.0372 194.814
15.0102 130.175 125.618
16.8194 2.14395 179.373
43.2799 106.7 232.763
8.44407 146.974 129.919
80.8652 23.4213 173.719
16.8533 151.243 54.7306
41.5766 124.942 271.397
24.5238 155.197 272.47
35.3231 39.6192 111.432
57.0597 37.6091 218.048
110.193 185.142 201.116
15.6929 83.2999 229.302
8.89922 184.854 271.129
32.1967 53.5673 59.9976
68.5177 153.986 100.714
69.1786 13.3167 225.364
52.0598 90.3914 251.844
51.6436 132.575 241.373
13.3397 119.916 71.6845
21.5783 223.062 2.68162
19.9988 106.82 109.037
60.9015 129.84 124.687
26.9815 112.705 252.898
43.2257 172.869 271.964
3.14996 191.881 200.915
14.1674 178.332 197.575
11.5105 110.503 104.299
55.3395 153.807 70.1011
6.04383 173.184 272.492
30.8455 68.7602 242.997
12.4513 160.188 273.329
44.8754 95.4892 273.723
89.1322 13.0926 186.643
31.5067 131.081 139.67
30.0372 120.619 263.749
63.404 153.41 78.5977
4.91754 188.466 229.087
125.836 47.6392 128.047
11.287 109.562 91.7067
28.8327 7.33617 38.4526
4.24316 141.158 111.872
7.43485 73.8808 105.789
45.5659 7.07742 169.986
38.3247 114.401 227.548
43.311 133.958 239.99
61.574 31.5338 192.74
37.4489 2.7084 169.955
57.3514 171.397 111.059
73.7135 125.45 100.315
33.4388 215.752 191.661
74.0642 135.957 103.395
51.8156 172.786 101.247
10.7645 61.3806 241.622
63.0192 157.466 110.391
24.9091 184.867 215.684
67.8843 33.4739 208.469
77.429 23.9626 197.494
59.4695 4.71789 242.831
31.5981 13.604 39.4115
20.7408 64.5493 247.546
51.3007 140.432 65.5012
48.5817 111.98 273.638
6.61228 167.427 273.874
31.5179 189.793 262.243
69.8262 126.326 117.377
10.6368 136.753 173.092
68.9455 5.35889 171.848
27.391 158.033 136.653
7.50819 181.08 194.221
23.9337 199.69 223.619
42.0915 39.8689 211.848
14.5318 64.1769 246.922
20.8653 218.373 189.39
33.5675 1.43342 54.6046
35.5407 208.684 212.201
30.9505 5.25243 45.2312
24.3176 94.0336 131.825
40.5244 182.383 96.0735
15.5461 30.0036 59.5287
40.7631 184.756 270.546
49.2314 177.423 90.4871
28.7883 69.3118 94.7071
69.9926 152.267 87.2241
23.9524 161.165 139.306
30.369 90.284 274.259
53.4392 15.8067 172.659
55.9798 14.1867 238.685
29.2152 195.304 273.902
17.863 63.1814 127.91
6.96634 163.104 233.084
42.2467 37.4452 1.25968
8.57551 86.0809 251.526
134.339 32.7575 140.609
63.3595 118.929 247.859
31.3304 192.313 187.025
9.21981 135.436 169.104
42.6572 164.056 274.547
71.6953 32.7929 212.576
59.0194 143.909 119.893
27.7898 61.626 126.467
38.2011 73.5353 115.789
58.1396 128.5 254.056
27.7466 182.959 250.875
136.361 41.301 148.25
20.4833 201.184 168.865
33.4444 24.6449 36.1778
20.137 158.787 135.384
23.1521 71.0667 93.5957
42.8834 3.32415 48.2786
26.5268 126.985 252.044
9.2126 146.629 82.1942
60.5206 15.7248 173.008
43.4758 4.37719 23.9128
7.25299 13.0865 60.5529
23.073 58.3079 128.813
23.5398 9.52883 37.9507
13.001 144.037 80.2664
9.91711 22.8319 1.12598
70.3705 113.392 134.86
7.7262 84.7392 245.201
47.7186 37.662 211.781
45.3866 177.163 101.793
34.909 76.5732 274.81
74.0529 9.72209 218.561
18.7933 12.1661 44.1184
15.3436 190.741 171.717
25.2722 13.007 43.4883
23.4565 195.411 231.428
12.7249 194.909 231.567
36.632 92.4737 274.509
20.8723 68.4824 125.646
