ply
format ascii 1.0
comment Created by Open3D
element vertex 1283
property double x
property double y
property double z
end_header
114.153 4.70002 106.513
20.7513 112.794 61.5156
29.0407 51.2838 117.876
37.1115 49.3988 134.886
36.1821 155.81 128.759
44.452 126.527 43.0269
7.74305 108.077 150.495
15.8057 202.547 78.2626
38.584 88.793 156.385
23.499 53.9395 105.111
43.2147 30.1546 111.743
53.158 88.0088 169.533
26.2934 142.501 133.552
16.0931 124.023 81.8086
52.2266 35.1517 67.5061
13.0375 78.7413 269.193
23.7973 78.9036 54.0837
34.4689 37.4188 112.618
41.6687 157.35 135.085
53.8957 26.1272 117.129
56.2042 31.2214 135.296
42.2813 156.174 90.873
32.3519 199.007 74.638
56.8277 52.5626 157.16
37.4044 148.052 150.811
12.9178 109.291 129.28
53.2281 43.2647 147.139
28.5863 146.129 140.837
13.6876 73.1723 263.165
65.0058 32.1683 143.552
90.8596 153.003 2.73118
33.1204 113.797 42.2284
16.7438 73.2361 105.456
40.4698 45.9188 55.7871
39.9046 120.562 166.8
32.5344 51.5131 259.016
29.2048 221.904 27.9766
43.8804 220.21 212.513
23.0472 52.5622 88.2786
45.6077 94.0074 22.3583
63.852 143.742 169.311
44.0727 161.255 265.99
37.6477 38.1584 122.453
39.5129 32.8521 118.801
44.8885 89.2143 165.422
42.6948 106.571 166.574
19.8939 62.1684 102.099
66.4302 24.2153 123.135
18.0469 142.673 103.308
30.3262 89.5984 38.8715
64.6244 47.6724 160.426
49.0634 50.4736 41.6484
34.3312 127.932 160.931
22.2477 62.9846 64.8786
26.8963 54.831 61.2234
22.3294 203.411 71.9492
23.8869 141.936 75.7651
16.1224 111.276 70.8089
26.727 102.265 46.8823
40.4602 107.628 31.4772
23.5203 191.585 204.054
8.44875 218.568 82.2694
45.9797 33.4875 124.813
46.4202 30.1995 95.2264
17.5395 124.041 145.993
21.4267 88.1225 57.3036
14.6534 82.9392 88.2716
52.1929 163.083 134.699
27.9183 65.55 130.655
46.4878 225.018 57.8149
35.9366 62.4262 138.783
90.7581 80.2352 16.3088
61.2719 27.4847 129.994
17.561 105.825 64.9723
45.9714 161.198 127.942
51.6209 29.0029 90.9539
21.3352 204.05 222.63
43.5201 101.221 23.9249
17.6906 104.671 75.845
41.0135 37.652 129.365
58.2101 120.223 171.788
45.8854 117.588 169.552
20.5747 73.7502 62.9847
51.5037 26.7949 101.167
47.6206 149.836 76.4418
50.5588 126.126 36.9476
19.7465 124.044 140.114
36.0964 141.006 155.538
14.3857 82.3556 106.889
40.8727 162.874 270.597
49.2395 152.039 156.663
58.8997 101.803 174.521
38.2679 133.828 55.1589
37.0572 207.601 264.215
104.913 64.1495 171.066
16.9854 193.404 218.385
51.1842 43.5274 50.5743
25.9875 200.649 205.573
66.3684 115.784 17.7615
17.6891 67.526 91.1419
14.6764 100.819 132.193
56.9266 164.465 261.523
49.5373 59.0425 34.4998
24.8117 87.1989 49.8326
64.3376 76.947 171.588
35.9208 135.552 159.736
29.7569 74.2882 40.175
52.853 31.0752 82.4022
25.5966 207.042 211.114
20.3353 47.5557 260.595
22.6938 69.6182 125.429
45.964 133.58 51.9519
13.4669 89.6555 128.612
21.5512 205.751 91.8512
42.5674 132.642 163.747
84.1593 47.9331 165.903
123.38 136.852 24.4171
27.028 199.843 84.9795
61.25 87.3553 17.2801
28.7198 210.198 216.601
12.9696 124.839 133.646
32.6603 38.3031 101.931
111.399 96.7068 172.276
60.0403 26.1372 94.7509
29.3251 136.48 152.397
26.6247 129.731 154.705
22.2831 86.1352 138.176
58.8698 68.6182 22.4584
67.8175 164.987 145.251
76.883 42.7936 162.445
25.1332 110.456 52.9497
62.1026 41.0407 49.9744
38.4243 221.223 239.764
23.2477 56.1136 80.4281
10.856 100.29 122.197
16.9566 169.439 209.91
8.85381 188.633 249.628
96.1656 20.7026 117.947
18.8024 145.177 219.016
38.9464 93.3713 28.1291
48.0528 225.413 241.303
41.4176 219.11 51.0852
24.0946 146.455 89.1987
21.5387 83.7258 131.001
54.0979 201.603 192.529
38.6843 158.124 106.342
48.8507 126.848 168.619
38.2756 201.366 200.727
48.4191 47.1036 144.062
45.1184 116.66 38.4361
57.9897 46.1069 151.623
84.2127 31.1315 67.8738
21.0526 201.78 214.333
49.5466 157.227 147.346
41.5386 139.123 230.304
45.1698 36.0915 70.4318
100.382 100.192 174.54
75.8776 36.763 56.1831
29.152 153.178 117.027
35.2395 201.539 82.8527
53.2742 143.231 240.029
44.4624 116.041 30.8178
37.6765 147.941 207.724
83.5407 23.5573 89.3089
7.1729 225.931 78.7715
30.3792 154.929 264.117
57.8259 210.116 199.665
38.179 109.209 39.6342
76.7115 60.7821 170.516
15.7373 83.8737 123.96
12.1594 128.62 97.783
16.2447 89.5051 139.694
15.6789 78.8253 83.3219
112.766 23.5247 131.882
23.9464 150.158 107.27
38.1956 223.821 231.078
9.43306 107.248 99.2425
20.1129 58.8999 92.4027
132.899 60.7648 150.919
57.0026 76.2678 19.7763
82.987 26.7002 145.66
37.2301 215.724 246.328
28.9245 138.543 69.6157
91.3508 47.535 165.54
75.0369 29.5522 70.8595
66.5541 169.64 138.654
45.746 157.564 141.636
14.9097 83.3648 96.3772
35.9614 137.74 66.8707
15.202 208.91 89.4136
52.4057 91.3177 20.3237
36.8467 98.4828 160.985
40.5582 81.4008 157.155
33.2495 126.788 55.7587
52.2568 84.4531 20.491
24.5569 118.774 56.2389
54.6542 157.595 152.932
136.067 98.4853 156.55
21.9418 195.907 211.323
47.2867 77.2378 247.652
31.1097 91.1672 151.099
72.6912 23.3439 131.216
123.669 32.4074 139.997
59.8712 162.583 139.843
105.005 44.149 161.275
23.3117 188.295 271.492
33.0259 219.495 47.0154
31.5695 55.5932 130.663
100.567 39.7721 55.5565
22.8737 66.6603 57.4139
36.5659 66.2934 35.6764
64.8355 179.587 191.783
10.2744 109.694 109.749
85.4979 39.3766 161.782
50.9914 38.1205 140.119
36.638 203.467 66.518
35.517 40.4575 75.5729
19.1682 142.366 131.713
70.904 106.425 12.9365
32.6837 112.332 163.179
73.0717 34.2488 151.923
81.1692 173.75 137.559
49.2486 135.177 167.106
43.8257 86.6908 23.5928
33.4926 208.594 94.7197
16.3382 204.421 63.516
12.3243 134.417 109.641
58.8451 24.5472 103.054
69.968 92.2044 178.917
11.0468 88.5955 106.1
72.5052 40.3384 156.204
61.5507 161.577 149.998
45.8903 140.965 58.2845
52.3706 160.671 106.091
73.6925 205.567 228.453
35.4487 151.419 141.494
22.0255 147.48 126.53
20.4087 60.2814 74.2446
31.4089 152.092 104.734
38.2706 34.2813 101.444
8.95295 190.61 240.935
56.6372 141.614 166.672
11.1738 115.88 118.236
43.7067 214.646 58.4457
44.983 38.4212 135.167
29.2858 209.859 257.962
21.9512 135.605 141.299
35.0605 22.5446 91.8106
41.1789 140.427 218.78
30.2759 44.3593 111.803
17.4055 113.839 220.569
62.2878 95.1141 173.474
29.4664 151.292 91.9376
12.2489 207.908 75.0731
64.958 108.364 176.391
40.4199 43.8343 64.4568
34.7506 156.524 114.352
38.5724 60.5868 39.6373
44.4627 211.453 74.2613
30.8581 200.086 198.165
92.2429 19.7629 124.488
120.567 36.3466 147.444
41.4881 55.0544 41.565
112.702 46.7484 161.53
40.9713 159.887 114.243
71.8524 83.9851 174.885
80.149 97.8008 10.709
62.4491 166.899 124.577
12.1706 210.769 62.0196
13.4837 196.16 244.48
80.9041 32.1377 151.403
38.0917 100.705 30.5672
35.3966 150.499 257.175
34.0152 104.773 162.892
57.0095 131.135 41.568
119.916 189.075 34.4604
16.6137 137.277 126.419
22.8958 103.001 55.288
85.4912 85.986 175.102
20.3403 116.501 209.34
87.9877 35.0098 155.621
46.0064 220.061 235.775
50.1974 132.302 47.3672
54.0061 23.7036 107.606
37.3011 45.075 128.884
131.297 91.2433 160.191
33.1757 141.034 244.268
73.1073 200.184 248.473
32.2655 80.9618 36.1875
30.95 49.5406 61.5802
13.6255 159.114 220.356
62.3647 128.393 27.2802
42.8865 70.4465 152.512
63.0734 221.992 229.621
86.2233 22.7404 140.484
49.1821 28.6302 121.835
36.18 147.333 81.3835
67.1421 170.422 130.176
52.5142 145.128 222.52
21.4315 97.1999 60.0371
66.9445 82.7728 13.0672
66.7346 151.959 164.385
12.4296 110.921 78.7193
25.524 94.9793 51.4851
92.2995 175.699 132.944
12.7797 182.241 255.391
15.6547 125.564 103.699
31.4207 56.6281 55.9169
13.4735 122.728 208.948
32.4772 121.087 163.69
65.6715 22.386 97.1603
51.6494 5.45361 42.4788
11.295 117.384 132.588
68.6936 91.7329 11.856
19.7811 141.223 119.62
13.4509 123.158 91.9528
35.3083 215.789 210.643
50.7692 103.119 167.684
12.7735 109.241 136.042
73.0916 22.3043 91.9951
38.9149 158.337 200.959
74.1299 112.984 177.592
44.4085 30.0445 104.027
57.2064 35.2338 142.903
37.9093 209.642 53.2606
64.3804 87.4083 175.573
21.0358 112.447 214.246
100.203 19.0312 123.133
60.0783 94.7981 14.5126
9.50157 97.9443 104.111
22.592 148.633 119.238
116.679 48.9651 156.372
33.4427 154.647 122.699
21.2795 161.209 265.287
46.5619 216.596 205.282
10.1182 219.569 58.5899
132.778 139.43 48.6133
19.4443 69.4128 78.8677
120.888 166.39 187.577
21.902 168.353 204.955
11.9954 213.621 86.7203
96.7454 43.6195 165.182
57.446 146.984 230.596
73.2325 22.3472 107.538
11.4894 92.6623 98.9344
79.9919 181.977 224.167
107.115 24.1186 136.766
12.9983 98.5184 115.413
12.709 101.64 107.93
86.1407 54.0929 172.03
44.4077 214.228 253.85
43.3045 49.1476 140.599
20.0603 146.667 112.857
27.5633 213.024 96.8199
96.5867 137.129 8.85822
119.497 180.028 35.3835
13.6698 133.537 92.3833
45.6854 160.712 104.946
19.5985 174.662 268.183
17.3251 141.519 89.2282
30.0412 132.953 61.7823
102.237 21.0886 130.176
16.1779 76.9605 256.414
71.9118 27.2738 141.161
8.10643 177.663 198.913
10.9149 111.384 89.2986
14.6417 88.903 112.402
23.616 146.809 97.3206
43.3562 154.818 148.856
22.1627 75.2771 70.4026
11.8092 124.365 114.172
18.1813 133.541 133.347
122.148 31.1623 130.496
12.9677 130.003 129.264
96.4689 19.6005 108.826
65.4351 25.1479 87.0043
82.1262 173.197 123.646
9.50845 177.152 223.823
111.514 23.9967 101.581
13.133 103.721 94.5197
52.4643 121.384 33.7714
35.2049 52.9874 51.5863
7.73242 168.741 227.941
29.6703 96.9262 40.5161
18.3118 70.147 85.047
90.902 21.8613 136.891
61.4833 119.747 22.1384
59.6261 60.9346 26.4557
12.1677 225.899 92.1877
17.6548 106.108 145.123
52.4088 64.2053 155.158
50.7305 214.662 259.106
70.6879 168.832 201.625
76.6187 168.322 145.594
62.631 139.448 52.5532
15.7251 90.814 118.776
41.5284 216.598 89.5488
63.4538 28.9886 72.2611
49.3704 96.2521 169.133
63.488 164.022 200.983
49.6005 139.826 232.922
46.8212 144.738 247.549
78.1076 85.7531 174.943
19.4581 201.014 84.9078
69.8087 78.0534 18.5546
64.2506 33.8311 61.6899
51.4462 209.441 197.848
47.3265 59.5454 151.303
113.249 37.3781 153.948
65.8057 160.348 158.257
45.9263 212.032 65.4804
34.0488 45.3193 120.379
81.0356 78.261 12.3895
16.6704 78.6855 115.966
24.5704 58.7438 112.936
29.5676 43.9459 99.958
25.0621 203.333 54.5053
73.8982 140.46 173.663
36.7672 169.395 196.762
32.8929 139.67 212.157
18.8816 83.8541 63.9047
51.7203 148.272 212.636
8.80608 112.664 124.897
16.7561 119.116 72.1279
53.8157 97.2225 18.65
69.6113 61.9792 24.8651
24.7625 182.902 273.694
11.8338 49.5698 265.701
55.7348 184.982 186.241
45.5437 144.301 213.764
42.841 72.156 27.9659
68.6069 50.8088 33.6371
50.1234 77.2604 22.9902
80.4592 145.253 174.64
20.4212 139.412 82.291
9.01478 73.8564 273.389
21.3 183.705 204.744
57.627 30.98 68.8573
112.997 30.9984 147.091
25.2297 69.8542 50.5441
29.3347 205.395 90.7314
29.4209 140.64 79.3441
77.4686 19.4337 122.037
57.9375 45.6244 44.413
95.5843 169.824 205.008
25.6854 47.4714 95.8051
123.105 152.474 20.2373
36.5729 73.8666 271.457
129.678 36.8889 136.649
6.87512 217.875 68.401
72.0191 32.0439 63.8742
43.5304 208.834 259.696
30.7388 169.7 197.23
40.0863 206.303 61.1129
84.4938 67.8257 18.2845
14.29 134.178 103.367
11.2659 107.177 117.23
14.0546 219.365 51.3894
23.6498 196.674 71.4834
20.8046 69.9582 116.81
130.675 43.4839 148.016
48.7163 171.919 271.487
48.5587 212.859 200.998
40.1229 31.8915 93.6495
56.974 152.898 158.288
57.7639 38.5608 55.9165
53.1938 122.549 173.128
13.4718 61.9243 255.799
51.5549 54.4442 151.041
82.7525 19.8344 108.217
134.385 84.6562 154.917
99.7505 26.4964 146.103
67.5563 118.519 174.989
33.2205 215.876 221.443
60.7488 150.847 164.214
84.8494 90.7613 9.59133
67.6971 36.8806 53.3904
26.8826 58.6601 123.067
46.3321 180.25 188.883
30.1348 219.348 98.8518
59.3122 15.9432 37.642
58.1584 27.4593 85.6396
50.2226 71.0464 25.1139
46.284 108.636 26.6588
94.2566 149.562 174.483
89.6161 21.1472 102.748
23.4484 131.07 147.605
101.535 75.2451 14.1
27.1343 50.511 252.487
51.1464 226.006 226.173
103 164.451 196.527
74.4005 119.228 21.6564
137.434 51.9896 143.918
9.08839 211.836 71.8285
51.3205 167.442 269.264
13.4169 153.952 231.274
60.2646 63.938 162.731
66.5651 161.873 243.52
120.408 26.1453 125.532
74.0726 169.881 135.831
32.6874 221.379 225.426
47.65 141.351 161.056
116.112 181.119 131.211
30.2201 83.6843 146.548
12.7491 165.98 257.545
43.1591 68.4969 250.692
101.789 22.9536 137.853
29.5685 229.964 44.6792
49.0126 73.8351 157.324
17.4471 213.853 95.2616
79.9726 54.8715 170.767
53.3345 163.597 123.313
39.8679 177.129 192.025
90.8475 66.5117 173.887
61.4927 144.595 57.6039
78.3775 40.2034 49.4036
20.2869 141.841 211.599
69.7379 45.6397 39.9297
96.1009 34.7205 152.904
14.5648 228.872 27.567
89.3374 142.933 5.17191
30.8348 148.66 83.764
77.9944 93.4791 179.013
98.9227 73.0303 170.668
129.169 179.135 34.2895
94.9486 70.2065 19.773
44.629 147.03 158.18
20.0783 101.103 149.865
37.1353 140.687 61.7716
32.3547 59.0358 45.9246
19.8617 143.423 231.818
60.742 107.98 15.7565
83.7616 34.8714 57.1212
79.9778 105.544 179.046
104.649 177.661 115.903
48.6582 158.565 95.8336
23.3931 53.9663 70.2544
6.26742 179.445 239.969
52.1225 114.914 26.5502
60.8542 23.2239 114.062
13.511 134.892 116.322
89.462 92.599 176.036
13.2232 156.234 237.862
47.148 80.8844 160.614
91.2021 37.1398 56.9983
95.6662 23.0655 141.319
8.16295 226.625 67.1867
43.8929 199.636 191.086
21.7448 228.956 47.7952
52.1189 108.326 171.455
25.936 117.868 152.431
37.8611 120.816 43.4512
20.3397 120.219 150.529
68.5048 165.451 103.444
17.5728 125.821 72.2508
31.4592 191.052 196.126
92.8322 170.186 157.678
95.244 88.7804 177.862
92.05 161.502 168.025
22.1702 222.244 47.356
113.481 87.6483 170.425
50.8728 163.344 196.393
37.1148 73.0259 33.0154
105.096 174.336 152.724
12.6647 116.242 96.8392
84.4301 97.6977 178.675
57.6841 154.415 249.623
78.0771 107.246 13.0846
38.5551 59.6317 266.581
76.706 197.332 221.955
73.5455 76.3271 13.9119
105.633 20.8207 117.389
97.2392 86.6135 8.78839
49.6915 182.437 273.389
132.534 78.846 38.6664
49.2713 38.9099 59.9582
94.5677 38.0415 160.318
38.6691 70.4353 146.134
106.446 38.3214 155.139
7.24496 167.62 235.934
55.9037 80.9196 167.652
21.4644 172.47 260.937
34.3032 39.7036 86.4587
39.4085 219.665 220.355
16.1364 80.5989 74.2798
105.793 69.043 21.782
68.7281 199.44 198.804
14.0703 192.855 227.79
133.285 62.3066 50.3378
76.2912 121.997 177.129
26.4912 215.702 229.922
82.9655 172.659 147.528
82.0445 21.0339 99.0753
13.1325 117.229 141.295
7.9051 186.152 231.097
17.1253 94.2826 145.691
19.4737 185.392 215.472
116.874 165.978 86.7077
84.9061 49.2738 35.0837
50.8908 64.3603 28.464
74.1204 133.235 37.7973
96.9293 151.546 59.0401
55.1211 8.97023 44.9872
99.6485 183.757 183.097
31.2622 205.15 56.3991
93.2279 19.2371 131.681
124.587 73.3816 37.862
16.9676 117.728 135.882
54.9591 190.838 191.505
131.102 73.7674 154.116
37.1938 207.457 79.9827
29.0206 197.387 269.395
83.5512 112.264 178.358
106.258 103.245 15.551
115.559 27.0342 140.98
108.553 72.0798 167.902
79.7166 22.323 133.83
30.9246 133.857 227.727
37.9899 80.7292 29.8464
23.2886 90.0977 146.818
70.925 67.2723 172.693
61.3101 166.638 109.844
26.604 46.4173 72.415
58.2909 222.203 220.162
9.79308 124.52 120.017
130.123 48.6739 67.3526
34.9133 210.309 203.637
102.998 110.47 12.7094
76.6573 72.105 173.53
72.2017 55.4336 168.59
92.4573 58.4578 172.635
131.224 32.8369 127.518
15.9524 99.1887 141.662
123.235 177.88 136.409
68.7813 167.335 120.13
120.685 115.419 166.664
73.365 208.565 238.617
42.2068 173.052 273.775
24.2397 128.103 64.8188
21.2005 224.352 31.6984
112.164 78.5653 21.0683
58.4265 163.383 101.806
33.7778 181.546 194.839
82.9004 64.0438 175.003
53.5302 219.08 211.393
37.3568 214.721 253.784
44.8269 225.794 220.931
57.1538 174.878 263.6
84.6382 72.1019 175.723
56.3588 160.793 95.281
76.8184 173.452 130.16
87.4202 152.697 172.826
132.927 68.5342 155.178
106.148 89.2132 10.2551
84.783 120.31 176.06
103.553 178.667 143.093
9.63257 97.4712 91.7288
36.961 230.376 46.7944
102.347 31.8202 153.354
78.8489 72.1036 15.276
66.7409 100.785 176.892
72.9549 189.934 200.023
119.106 68.8714 30.3777
62.709 133.789 171.384
112.314 170.981 92.8175
26.5762 228.859 99.6619
34.9066 49.2454 34.19
13.6837 180.285 265.836
104.373 34.0728 70.5622
18.4508 210.094 52.7513
97.6918 61.6366 24.469
9.35014 123.721 103.018
61.977 55.0663 29.9681
74.7309 198.71 231.929
112.221 129.731 32.4333
21.8726 80.1383 266.395
7.33515 177.664 232.441
53.3514 107.173 18.4487
88.4914 60.1555 23.829
113.139 173.73 155.054
33.4099 139.729 116.625
50.4188 154.989 259.641
39.3272 144.005 71.5149
24.3699 215.745 47.357
23.2478 199.054 62.6124
11.0259 226.242 57.2935
20.9346 109.098 153.114
36.3332 122.74 50.536
72.135 103.708 177.654
27.7813 212.577 223.612
120.705 41.1944 153.181
12.505 107.93 142.01
28.2246 209.071 49.8219
84.3721 134.85 176.884
18.0267 154.921 213.467
14.039 127.729 122.758
46.4235 160.864 118.61
77.7819 90.0514 10.5016
49.6493 205.097 264.126
63.2146 196.222 192.403
22.6748 75.8466 131.052
128.214 78.851 159.285
98.596 96.0649 10.1748
109.541 175.961 108.354
115.906 178.226 138.177
17.5145 205.035 57.0451
108.055 154.152 65.8878
55.8226 198.825 271.192
38.1408 92.2701 34.1376
28.1659 173.135 231.628
101.899 51.0694 166.336
43.3292 143.891 65.1801
91.9572 122.253 177.954
29.9133 150.352 132.63
45.0669 32.554 83.9796
58.4771 224.759 238.351
57.0209 189.413 272.542
64.7993 25.8908 79.3441
26.0669 45.8481 85.2087
70.528 168.67 242.104
88.5392 109.956 13.0578
125.369 9.47246 67.7498
56.1595 44.2666 125.894
67.9376 21.6669 114.327
99.8339 162.403 168.291
67.8723 185.486 263.88
93.3998 47.7967 41.4505
93.376 176.043 122.447
20.6257 201.171 252.5
18.7435 69.9959 98.0321
61.0538 215.827 210.154
42.0074 229.346 89.7921
68.9708 99.3922 15.694
120.712 105.775 19.1653
77.9603 134.25 176.249
32.59 54.4396 273.337
57.1979 16.5571 115.377
100.864 118.094 18.489
53.3971 142.429 58.4944
19.9338 218.376 98.9523
135.895 175.276 31.9653
69.6352 208.217 208.376
92.4861 114.434 178.345
94.5616 123.117 21.8002
88.9912 20.8753 117.05
29.4018 141.276 148.183
100.873 169.813 200.155
18.724 230.127 18.0709
133.403 168.893 146.313
18.5847 95.1476 136.009
35.5682 147.478 247.25
113.923 24.6762 109.072
94.5141 140.801 177.161
82.6142 135.261 35.9601
55.3679 205.455 266.354
7.46646 179.021 253.924
8.25717 54.1402 272.368
106.156 57.3259 32.6796
15.4476 113.93 85.3996
30.3231 66.2222 45.4951
54.3279 165.466 115.429
114.734 2.56139 73.2543
41.3774 209.66 198.287
10.596 168.927 218.059
98.3393 61.6283 172.275
30.3892 227.284 15.921
19.0756 131.903 82.6114
63.4014 166.257 253.65
24.5619 160.98 205.401
31.1487 46.0336 78.1348
65.9283 38.6642 153.924
103.949 115.546 176.273
18.3308 97.6693 65.3479
130.153 50.668 152.757
65.3975 73.7802 167.299
43.2685 50.0109 47.7685
74.4241 98.1097 10.6731
45.2848 230.476 52.1567
58.1161 136.229 46.271
131.953 168.426 98.1336
16.7009 69.8431 250.313
76.1528 169.895 221.262
74.0053 168.975 151.006
79.4034 191.96 230.433
125.109 56.9945 53.4449
79.1803 67.4606 241.431
114.962 133.904 37.1633
29.6026 211.974 243.657
25.3336 105.393 155.99
30.3283 78.8942 263.695
17.1507 229.549 97.269
108.623 56.3936 163.25
63.2303 161.687 91.8021
73.2753 28.0158 78.7372
19.9929 155.882 260.185
71.2424 200.119 258.038
135.65 58.2315 145.136
120.463 74.0394 165.768
78.4669 185.623 215.262
91.1158 167.912 151.423
108.078 79.8708 168.773
30.9068 73.9145 144.442
76.5624 146.401 54.2141
126.955 193.187 36.4573
8.39567 60.9408 264.25
125.237 96.3901 19.8743
5.61954 185.729 239.658
65.6194 213.591 218.345
25.3192 140.301 141.396
76.062 200.758 241.123
75.668 49.3316 33.0121
56.1664 112.64 174.719
72.5689 150.734 164.377
30.2458 206.648 204.382
32.1689 216.698 238.255
112.252 27.7022 113.587
92.4965 25.6024 84.9283
99.0754 128.332 26.7637
35.4408 153.871 91.3951
63.7232 77.2202 16.2868
31.6572 110.343 198.261
20.8672 111.839 146.724
12.8049 114.918 207.676
41.2328 149.707 78.5529
51.9525 158.201 203.601
23.1724 209.697 230.401
94.1395 29.7199 70.9305
76.2948 177.304 207.415
117.726 10.9273 72.662
137.782 166.839 101.502
69.2528 127.628 173.077
86.5617 156.904 166.463
54.0583 74.2453 164.62
54.6039 148.831 67.8897
123.164 163.875 161.772
79.4196 53.7618 27.8108
58.4647 102.904 18.1682
117.169 15.8304 103.559
101.394 23.1722 94.4293
61.784 128.668 34.71
18.6694 134.806 89.3618
63.2668 167.596 115.456
66.8808 180.19 257.326
33.1998 106.384 44.1455
91.6126 29.0549 149.626
109.614 173.856 144.874
65.3282 69.3667 18.1923
80.9482 26.3021 82.7674
72.9516 163.084 158.464
122.332 30.6434 104.555
21.242 47.0493 268.275
15.0898 179.192 215.427
25.0671 144.27 240.261
128.837 114.438 164.609
28.7019 78.9772 137.696
86.1278 175.318 131.799
44.286 197.905 272.152
64.651 218.657 245.381
137.386 51.8505 136.998
31.068 102.949 158.411
77.4591 127.009 26.6194
74.174 42.3095 43.9803
103.768 51.0921 38.795
53.6309 52.785 35.1398
76.066 171.798 120.271
25.5342 175.543 202.729
38.1907 146.87 253.175
132.269 44.6799 141.025
127.806 159.939 81.4906
137.531 58.8515 59.8717
116.589 107.162 171.522
133.679 127.295 161.746
49.1796 230.912 64.057
95.0559 110.631 14.1447
127.98 78.8943 29.3123
112.64 62.9457 164.746
28.1045 81.0371 44.7156
136.436 171.213 119.364
38.5804 36.9148 89.3193
124.613 46.0491 153.98
14.9838 192.852 256.027
104.154 63.612 26.6722
16.2547 53.9895 253.985
72.3922 179.811 200.532
69.3172 128.727 32.4292
44.669 188.582 187.293
129.346 33.2058 118.417
61.833 48.1815 37.1857
32.7202 181.542 274.054
109.197 180.542 138.113
126.327 158.914 74.735
90.6432 96.3304 11.1873
27.2019 217.311 16.5955
100.846 81.6648 175.158
57.9969 130.395 172.414
98.6094 34.8014 63.8584
97.7754 177.743 143.615
89.54 78.5938 175.436
119.852 65.1955 163.195
123.655 171.193 95.3683
44.4645 221.718 4.33591
109.455 148.185 55.1521
58.1749 164.92 128.769
125.673 3.20525 111.397
84.1501 103.057 12.3879
100.808 162.89 187.408
114.632 177.259 115.299
121.917 56.2269 162.151
27.1057 117.998 157.703
105.812 180.928 198.882
56.2035 223.075 231.022
62.2239 205.28 202.753
123.854 43.9735 75.1973
110.147 110.407 18.3449
27.3099 177.535 233.521
74.4104 150.461 169.74
48.8689 226.105 75.5969
42.0846 209.904 83.61
79.0241 157.532 168.023
17.6312 86.423 73.0441
134.1 144.717 53.9265
35.5809 225.907 96.241
102.386 155.53 9.70509
84.9493 129.307 26.5428
135.793 116.677 159.548
137.553 68.5982 149.363
115.237 22.8276 121.311
17.7619 71.59 72.3716
97.7915 54.8766 34.2401
78.0748 162.836 153.954
99.8851 153.841 172.196
71.249 167.848 112.744
103.404 137.491 41.73
55.1752 159.605 86.3081
47.7072 219.552 70.7967
120.435 28.08 117.056
72.2816 51.7267 163.56
115.535 152.098 68.9369
50.7791 228.077 232.594
90.8569 181.533 182.231
58.0169 217.449 251.229
112.022 140.428 45.4623
136.932 160.001 80.2273
22.4091 53.8526 250.72
138.024 89.3377 152.872
129.088 102.281 162.97
56.1067 162.069 146.448
61.1845 37.6487 149.422
126.887 149.454 66.1144
12.7622 119.572 108.849
41.1398 75.2633 240.379
48.6399 103.156 19.4741
104.322 146.963 51.5532
110.606 183.913 8.76366
34.6452 224.461 123.899
7.41084 230.932 72.9887
136.027 79.0743 154.598
32.2456 135.783 217.52
138.491 64.1206 55.7646
21.3201 224.481 99.8116
45.0037 83.6683 28.6886
135.568 110.731 33.2186
35.3202 137.921 238.81
15.8635 93.6043 69.0625
115.411 52.334 44.8413
45.6363 65.332 31.4209
59.8951 189.61 266.895
114.684 138.029 21.3903
122.352 132.189 36.8623
113.826 86.3245 16.8195
76.9314 83.2974 11.7241
125.537 175.261 144.567
30.2136 165.088 268.635
10.4557 162.248 244.682
138.104 142.26 154.194
126.985 61.8701 156.981
119.436 173.259 147.685
48.6163 191.341 273.585
122.566 98.706 167.105
47.5474 67.7935 153.937
114.001 169.679 162.181
74.7385 154.53 70.9355
113.889 180.942 123.045
135.707 40.1468 127.792
104.394 169.699 90.6193
31.3393 95.9981 154.195
92.276 130.485 32.3162
97.0727 174.303 151.931
68.2179 135.66 173.154
80.6621 116.699 18.7147
96.1883 187.188 190.032
137.994 47.5679 80.3517
66.9249 150.599 67.1498
89.0365 174.899 143.929
14.7981 100.761 84.4343
47.9156 147.861 70.3366
10.9133 231.015 87.0854
61.8822 155.847 78.7961
107.816 46.6731 48.07
60.6433 212.33 258.668
98.8988 167.636 162.937
74.9432 194.524 206.363
34.4412 43.4132 65.9298
131.334 128.889 36.429
64.0419 136.698 42.2173
86.983 80.9279 9.89865
49.5225 171.344 189.329
113.018 71.4004 24.5303
138.433 70.4689 48.7998
95.121 191.179 179.61
104.086 21.3529 104.216
122.762 86.8759 23.867
137.704 21.5607 102.339
120.384 178.514 123.973
92.4214 123.085 5.02537
138.76 78.0045 42.5739
28.2324 183.33 200.266
12.6559 112.548 104.826
92.9195 173.856 109.16
97.0536 101.994 11.361
12.9825 185.075 225.658
66.1162 63.2169 165.202
105.971 31.9936 146.86
53.4621 17.9196 102.159
82.6272 203.524 2.25614
120.768 65.0935 38.4118
132.096 133.808 43.3204
57.6066 180.045 270.365
80.0655 167.173 102.099
81.1838 44.7998 40.1395
113.442 157.017 76.2116
118.986 138.459 48.5951
116.482 97.4849 17.675
16.0933 165.578 263.021
61.4836 200.106 265.378
76.6713 139.682 43.6682
103.623 176.444 105.718
128.96 39.005 84.9122
133.59 176.674 22.8622
103.663 185.583 192.441
19.9697 196.725 262.678
136.167 168.463 110.084
120.629 183.186 42.5526
67.6509 206.762 254.339
74.2622 141.737 49.9111
133.88 169.113 134.124
87.7639 121.007 18.8417
86.4562 166.837 98.8634
12.2021 54.1852 261.043
135.568 100.307 29.8802
104.964 171.376 98.8849
138.354 153.243 148.802
50.6498 156.078 81.8711
122.27 22.8055 80.4008
116.235 34.6928 80.3432
106.104 180.364 129.664
81.1834 162.248 161.39
106.293 170.6 160.976
21.9748 136.308 224.899
16.4542 196.765 238.591
81.7214 23.8321 116.038
89.2782 128.458 175.689
35.6328 169.813 273.895
137.893 43.8597 85.5147
114.507 158.428 13.7917
115.328 150.03 60.9123
121.53 77.0904 25.4944
74.8977 61.5348 20.283
60.5788 150.533 68.5313
42.4311 175.426 231.395
125.276 50.515 59.6362
50.1152 154.075 252.137
21.7468 130.5 72.1427
132.644 38.3724 91.0777
118.092 53.2677 52.4402
87.4656 152.918 64.3269
70.0621 213.082 229.581
75.0413 202.784 215.572
76.6709 163.391 92.8204
68.1586 159.684 83.8677
93.9224 165.308 186.554
129.074 163.342 87.5381
101.407 155.141 66.2376
121.284 60.4019 42.4769
51.4709 220.693 217.168
90.6254 135.75 38.1377
54.9233 113.666 21.1106
19.5901 202.495 230.42
85.6627 183.483 188.372
91.9485 53.5019 31.4581
78.5005 62.7671 24.7582
130.538 176.626 120.566
119.229 88.8092 17.0763
137.414 42.2691 113.439
35.8479 196.948 271.574
136.217 138.96 160.946
25.7087 231.294 17.2466
125.427 127.772 169.447
136.147 4.65803 66.1072
127.286 167.662 90.7069
119.06 176.284 104.674
135.759 118.779 32.1939
84.5879 170.555 110.367
89.0936 174.323 117.156
138.201 161.259 89.4178
54.8367 119.425 27.7615
131.503 160.994 17.0919
42.2562 186.97 274.197
129.303 68.3016 43.6218
132.563 54.0575 58.5818
73.6199 150.143 61.1987
127.252 13.1354 109.136
138.26 48.2158 74.6811
120.837 44.1088 67.3472
136.425 25.2977 90.1213
136.311 167.304 8.3261
136.336 89.1722 32.4778
76.7149 171.217 109.345
127.995 92.4599 26.0961
75.7865 159.129 80.6396
131.244 154.453 70.266
10.2344 231.118 60.0664
19.3618 222.982 14.3377
120.9 173.122 154.638
109.541 118.887 20.2843
58.1877 220.875 245.978
11.5886 153.364 223.742
101.722 174.968 177.835
71.1159 166.169 215.851
68.8675 135.027 35.4844
106.481 30.0548 84.6393
52.5144 14.7681 37.4876
105.415 121.821 23.9971
117.843 21.9406 84.7408
116.495 113.644 22.1576
95.069 174.477 140.352
135.135 152.23 24.6096
126.93 54.3901 156.974
115.736 47.4991 59.1805
126.447 1.57529 65.6769
120.039 84.8162 165.887
137.983 53.2819 66.0834
45.2752 152.626 82.7248
82.7041 139.692 1.46236
121.677 38.9522 78.479
64.0831 155.912 212.737
109.667 166.011 86.2954
64.2301 193.708 259.527
94.939 20.4579 98.4207
11.1486 1.48696 246.119
93.3016 101.161 177.264
110.245 15.2197 90.1491
131.034 33.9661 99.5173
129.288 103.812 26.8621
128.781 170.039 3.68483
23.7079 133.011 215.657
37.4848 58.2764 274.247
67.0504 206.769 246.942
108.796 135.405 35.8854
76.5895 187.197 240.823
29.3572 74.7684 252.942
117.55 160.774 74.2463
52.1189 224.996 274.358
129.539 174.299 111.344
37.3206 61.8169 258.508
95.9554 159.86 80.5295
134.862 44.0078 73.119
138.969 163.004 126.855
112.557 28.713 91.6501
101.199 118.544 6.5199
138.331 120.537 38.4399
138.125 165.379 137.813
84.387 149.258 55.8098
129.414 121.77 31.7582
138.073 9.85419 109.893
112.984 62.1634 33.0539
25.5243 182.851 51.1186
102.164 133.727 32.0936
90.2854 180.485 203.328
88.2403 139.619 177.013
62.1916 208.249 250.323
114.595 181.943 1.68668
69.4168 161.253 224.618
15.0544 129.059 255.64
138.424 82.7851 5.80404
106.908 155.79 171.418
17.736 93.7625 87.3561
15.5081 133.203 260.831
98.6775 162.368 1.29949
70.741 202.827 210.949
85.8244 147.198 59.9265
54.282 148.739 243.463
85.6402 143.467 45.3842
114.501 40.1677 69.48
137.965 38.5939 103.274
85.3513 166.342 161.867
98.9479 176.515 111.074
12.152 47.191 274.618
111.042 96.9623 10.8862
139.14 133.447 152.04
134.878 158.667 156.745
138.735 127.78 158.855
132.728 89.6049 28.439
128.506 175.497 128.721
138.764 42.2864 121.265
124.91 148.263 56.9814
64.8186 157.605 228.337
130.309 136.445 162.812
38.6229 226.744 4.06946
126.859 33.1165 91.5781
127.855 110.187 24.3839
79.9527 148.544 80.9004
100.327 178.302 125.109
137.042 141.941 58.7428
111.344 12.43 94.4689
125.513 68.1001 159.445
16.5295 94.2736 76.9225
137.891 163.872 94.7295
50.2765 231.547 72.9068
98.8556 141.297 46.2275
119.054 28.5134 96.3557
93.4141 157.048 71.9477
106.245 80.4631 12.9089
94.3452 113.586 1.8383
91.997 145.53 50.9324
125.247 32.7639 99.3342
138.928 153.163 80.7816
112.595 187.446 175.279
98.1707 42.9186 45.8815
72.6049 208.55 248.576
137.779 149.573 62.7037
13.9822 88.9613 81.7323
139.205 59.5639 66.3141
139.156 101.415 35.5015
113.012 158.255 170.939
84.6171 156.33 76.1968
121.387 154.449 63.8808
139.071 85.0999 38.5838
83.9141 163.409 154.818
108.897 32.5813 77.4206
114.849 160.732 139.466
110.817 41.4515 60.9878
10.2082 138.259 274.367
89.0232 41.9165 43.6361
138.992 20.1231 77.8375
138.906 153.22 73.8554
138.038 158.962 20.8963
107.745 137.681 174.861
73.6495 187.25 248.062
109.68 55.7043 42.9075
138.74 42.406 92.7903
133.967 151.025 157.046
138.15 161.347 145.279
71.2662 207.405 216.054
15.24 193.024 264.017
30.2252 231.43 20.7293
24.8745 157.06 253.104
98.2166 112.45 175.198
21.3217 155.106 247.555
123.994 141.373 46.8208
96.5657 184.952 199.728
34.4117 134.151 122.222
126.149 174.55 104.665
17.1903 231.602 51.3459
17.4244 80.4447 274.729
135.758 77.8636 1.29394
138.379 129.59 42.1976
124.365 91.9487 204.454
121 163.454 83.0161
112.662 175.742 102.854
25.5112 154.106 246.689
138.83 112.446 156.428
110.751 116.177 174.432
129.189 164.586 154.921
63.3774 154.788 234.509
110.161 165.02 166.631
99.0045 134.006 177.049
44.3637 154.221 256.484
6.70865 186.452 169.389
17.1664 186.121 261.842
12.0314 124.982 254.834
60.9493 170.267 196.081
115.132 115.82 11.1084
