ply
format ascii 1.0
comment Created by Open3D
element vertex 433
property double x
property double y
property double z
end_header
12.2685 117.63 116.589
5.30086 180.946 107.229
8.66894 13.0408 43.9045
58.366 84.8249 82.0139
16.8659 85.2977 101.361
13.6548 186.668 135.799
23.7574 16.4416 39.5599
23.3944 86.9454 116.316
18.621 94.6424 120.135
9.91209 143.62 164.115
5.77968 15.7339 124.871
30.377 163.312 79.9286
40.1653 3.69113 93.2389
62.0007 82.476 102.682
22.5397 22.9674 93.101
17.9448 181.402 96.6585
21.1874 168.603 83.8622
50.4225 114.465 107.39
15.5433 13.0904 37.3679
34.6346 7.13077 15.0917
24.289 166.327 119.409
42.0438 6.11632 26.5793
34.3938 15.207 45.0061
21.7244 165.22 109.819
21.0805 19.4697 47.1722
45.9737 155.71 146.527
15.3985 175.325 145.723
3.01287 109.849 157.062
11.6353 24.661 108.194
44.3808 69.8347 68.1579
47.963 93.5758 58.8128
10.9772 11.0193 73.8261
23.0638 140.005 154.412
53.7195 99.3534 66.1803
38.9009 93.6096 113.078
51.9235 117.499 141.76
43.1062 105.564 155.046
46.3426 161.675 165.263
29.9572 35.4259 91.4797
28.4833 41.3356 112.895
33.951 28.7586 102.82
39.435 149.3 129.467
32.7045 158.383 118.608
10.625 18.9363 114.537
3.30157 138.507 159.345
4.75378 116.665 82.2573
25.2176 131.472 107.859
9.66001 113.73 126.687
4.27124 147.183 122.153
14.7648 44.0815 91.0803
28.9975 12.1783 54.9978
3.87208 7.18949 26.0254
39.0392 168.1 125.322
46.44 146.205 79.3914
14.6357 166.787 103.439
4.10488 130.79 138.281
13.9684 139.06 157.984
10.0097 28.6193 123.719
41.3841 83.4237 117.897
58.5327 117.486 155.777
21.8164 2.76774 116.075
25.4554 4.29369 15.4305
7.62767 185.215 121.128
18.3682 82.5983 49.7606
12.6853 166.098 176.834
32.6302 80.0974 43.5588
14.5681 155.02 141.562
9.68726 136.232 116.426
66.5699 85.6436 77.8107
27.9386 175.286 122.446
25.6228 3.86255 2.28631
31.5203 83.0326 59.4873
14.2693 175.947 108.758
62.6108 99.5471 114.156
33.0214 15.9739 93.1064
14.8997 14.4516 28.4079
3.98142 104.677 70.3585
32.468 5.27438 122.42
8.0814 171.933 93.8505
20.2641 167.015 152.124
26.0245 128.121 157.907
7.59444 123.363 192.975
27.7932 9.69115 82.9924
18.2952 108.104 138.945
62.2752 131.462 156.963
12.8214 129.708 106.552
33.729 132.447 67.4017
40.9374 127.888 118.594
41.5451 102.9 116.487
61.722 13.8898 129.694
69.6528 114.417 116.09
49.6813 173.947 147.76
23.7942 82.746 110.912
49.5719 42.9604 103.34
41.8012 156.757 81.5599
2.7584 167.728 150.311
17.6221 25.9473 69.6338
64.8477 134.927 128.659
19.2806 165.69 129.086
41.245 84.7822 45.3676
58.7177 109.298 142.538
5.12429 97.6005 60.1973
38.2945 174.925 136.992
13.237 86.402 114.987
18.9381 78.5908 79.1017
7.81439 116.083 109.7
17.2103 79.8331 92.5119
46.855 117.405 162.029
62.9025 96.4354 104.757
67.2505 153.82 114.649
29.7206 82.8692 114.681
19.7381 122.088 113.715
11.3077 141.213 100.709
43.8252 110.843 129.021
49.2669 132.896 71.2177
38.6717 21.7017 81.0455
20.9375 184.033 119.422
43.8886 83.3774 77.8524
40.2094 101.873 128.18
57.6671 103.644 122.065
26.3653 37.9394 104.503
48.2385 111.986 150.314
26.2174 160.496 139.79
17.6216 116.191 140.567
5.41067 92.2425 72.1434
27.0095 24.6005 65.3957
43.5582 11.2783 51.6885
14.7032 180.952 114.791
10.8347 111.805 60.22
21.9617 95.0496 102.959
73.4891 3.56586 82.0493
18.6462 93.7439 80.5554
28.6284 10.8977 64.0464
5.81575 12.4135 99.9612
27.2417 109.718 142.518
34.1791 115.092 159.149
14.3111 128.089 119.109
3.74531 142.787 148.843
5.41755 12.4306 65.9726
42.2228 75.1271 105.398
3.45576 170.712 135.704
59.4411 133.99 112.721
58.9426 146.816 81.8048
44.0122 67.2227 77.789
56.9149 23.719 89.8779
45.6599 102.196 77.095
55.9469 106.441 154.322
57.4053 21.0616 82.9168
16.9464 89.2412 90.7231
65.0373 167.177 145.601
29.1207 110.78 54.5061
36.9358 73.6029 85.6679
47.8195 5.09259 38.8225
12.9389 140.238 81.668
42.997 138.271 155.545
48.9591 150.197 164.362
71.4403 140.662 120.047
8.24153 3.53098 135.184
3.67922 115.186 70.5392
56.3829 166.09 158.414
3.91219 140.385 136.725
50.9177 155.248 156.222
5.12967 103.856 84.5305
15.5981 20.419 78.7903
37.6564 13.6258 118.232
29.3033 182.314 109.282
9.03639 123.825 92.8421
7.94065 5.60084 124.423
34.4172 114.859 119.722
5.36642 2.76042 94.7882
29.0788 27.7111 128.946
3.01286 161.587 146.106
46.5071 161.352 87.5981
25.3068 21.797 109.582
3.39431 154.613 134.692
16.5734 2.21136 15.8088
11.4043 20.035 133.333
41.5616 137.05 69.722
20.0479 18.4731 18.843
60.1828 93.7143 73.8845
31.6648 74.0463 63.7177
5.02142 10.3165 85.3971
28.7339 12.9906 28.7414
24.656 108.891 84.8633
57.1172 165.793 148.537
53.5046 82.2102 103.926
24.9843 175.337 144.744
73.334 164.266 143.672
39.772 77.5073 69.6018
41.0768 90.7478 50.5214
23.7165 7.74906 33.3404
5.16114 4.92025 55.9201
24.2979 184.11 132.331
49.3792 173.862 125.482
39.179 9.70739 123.044
32.2961 90.6385 99.9312
34.1124 127.737 155.196
54.871 145.513 160.052
65.415 79.5103 85.3449
31.5867 93.9796 123.026
37.6523 175.999 97.8152
58.9681 126.167 74.0431
5.21806 119.959 133.311
50.3198 143.133 72.7117
4.72158 22.1461 97.0717
16.7562 16.2221 3.88102
11.797 121.349 74.3131
24.2063 122.349 64.2578
36.1046 171.91 150.24
10.6108 19.1198 73.238
34.8535 173.233 114.686
13.7378 99.6525 51.4149
37.4942 7.03146 73.1452
26.1979 156.41 155.231
44.6597 16.7249 94.3341
22.3768 2.93294 69.1191
57.7159 88.8255 109.062
62.6204 152.514 157.99
10.2258 147.793 93.484
15.8322 36.7385 116.568
8.03601 157.23 89.0567
8.10021 9.19575 33.6807
29.5259 103.925 134.999
3.62379 151.586 149.861
38.2696 12.9124 36.602
34.8913 8.39504 24.9235
11.2741 9.81519 82.8745
36.6389 128.831 164.335
33.7923 79.5291 102.216
16.532 2.12638 122.502
37.797 155.833 141.775
44.7938 105.788 61.0748
15.3935 122.277 84.246
67.6722 113.171 83.5152
33.2589 2.51101 62.9452
32.5422 149.525 148.245
10.9135 161.163 135.501
29.2411 114.811 62.1495
10.1579 167.204 151.018
20.7866 4.11469 59.0301
38.3034 146.751 163.105
35.3704 117.561 71.3878
45.5871 171.646 118.488
28.1499 113.17 148.316
60.5586 122.992 147.856
41.699 115.36 63.0098
53.7341 98.512 95.8139
51.2285 98.7022 115.329
48.17 137.054 142.157
33.1629 94.5094 67.1526
35.451 166.309 149.325
54.1219 175.492 136.719
40.8248 33.486 109.679
22.2434 103.6 74.8209
30.1331 180.882 133.542
6.29789 165.388 105.159
22.9665 128.769 91.6917
56.917 113.733 121.97
23.2259 172.381 96.3247
19.6456 114.501 61.6432
45.5978 2.45475 14.3943
12.507 139.479 141.2
63.3658 150.748 123.841
9.92646 38.4811 106.881
19.5706 142.956 91.6216
20.9395 150.777 161.683
11.5079 99.7889 112.126
16.1665 39.9221 100.588
29.7883 106.57 47.7123
30.9047 7.765 7.51939
48.053 90.0837 112.649
50.589 135.405 128.982
44.0448 7.9811 46.2067
4.16201 153.806 99.5594
57.5599 156.439 87.681
3.45402 4.69903 8.3204
52.763 121.538 117.006
61.6503 115.861 131.665
21.2348 101.616 131.919
11.9527 79.6153 68.4681
35.5508 159.411 84.7674
8.10804 105.507 97.9623
11.0879 133.576 146.488
46.8603 121.917 149.878
20.1312 114.373 72.309
47.7443 81.8345 107.227
2.91436 160.545 125.138
56.5713 126.041 126.425
69.9579 128.263 116.478
22.4978 100.263 106.949
23.4485 116.697 146.319
38.6576 34.0882 93.0154
30.8395 71.2896 95.2446
31.3458 21.3172 109.275
12.5293 131.669 152.516
6.34348 125.266 116.298
17.5337 33.0333 98.3706
46.9373 113.939 139.184
53.7714 145.711 131.347
46.8071 139.441 166.702
41.9888 144.447 153.746
12.9292 107.713 68.8391
13.2352 151.741 155.758
30.4114 152.649 82.7369
6.76138 19.9867 82.8928
8.1034 177.391 144.466
52.178 124.72 107.849
55.6356 157.925 138.39
37.6666 105.808 50.088
87.5032 154.628 106.902
25.9527 15.8722 18.9241
9.03491 130.279 95.101
26.1274 170.858 111.581
68.1705 106.129 108.609
72.3654 93.7443 89.3022
13.6176 29.6436 87.3618
35.0426 1.78166 132.984
29.9591 106.376 81.9299
58.8929 91.4496 94.9858
32.5508 171.07 127.537
43.3113 1.49989 87.0646
36.7218 104.013 83.0791
18.1197 154.347 97.4544
23.8306 73.5372 65.3694
56.9845 100.562 109.124
23.7173 6.94969 9.1377
69.6931 113.779 102.1
45.6404 7.55194 111.769
39.1781 66.399 81.0068
21.6541 105.498 110.665
14.7191 88.9781 83.7626
17.0427 129.828 72.0888
15.0977 3.22294 67.1813
24.1498 153.499 81.1194
51.9944 6.50441 106.961
29.3028 107.521 123.551
65.0741 125.147 151.642
15.1737 128.882 97.9119
17.2604 135.799 145.724
80.2044 153.611 152.792
12.3655 146.331 148.679
14.9948 12.5003 146.436
8.1812 161.387 122.352
28.9276 11.2459 1.66271
17.1764 20.2069 141.097
5.26031 7.88359 112.336
65.0164 175.058 136.083
28.1265 157.328 113.326
47.1376 174.314 135.298
13.5997 113.224 110.83
43.3928 166.854 134.755
25.4194 113.238 120.54
37.2193 149.82 150.817
30.0573 166.544 131.051
62.339 127.032 139.552
37.7271 105.092 106.464
32.4134 107.77 111.365
44.1301 114.105 85.7477
8.82368 145.842 154.3
68.1773 163.624 125.119
56.6109 113.326 89.987
29.0553 145.385 84.2926
65.6521 138.764 135.493
29.7677 132.348 96.5356
2.34229 170.88 109.693
51.4525 170.3 116.839
41.2513 9.60788 62.7272
22.2434 138.655 95.3002
12.1182 35.5462 94.3348
42.2334 131.522 159.086
60.4297 124.179 133.586
17.906 109.293 80.6858
25.5557 129.497 70.0793
71.5996 149.333 154.097
29.8136 1.52024 78.3627
35.9045 142.741 150.243
30.9177 147.453 161.17
12.0821 92.9038 51.2174
42.0062 175.622 101.792
67.2178 139.189 155.472
41.3136 115.886 154.8
66.3108 95.5775 83.3233
36.942 105.843 117.573
27.9814 102.715 112.489
68.4083 81.3399 95.137
31.6291 140.918 158.793
68.7293 133.965 97.4245
2.19334 160.759 100.502
36.9518 143.875 155.367
60.3731 93.4542 83.888
22.4107 125.04 72.6591
41.3897 11.8175 109.904
56.1788 129.338 148.346
69.4874 107.702 92.8515
10.7002 82.833 62.5041
19.7711 4.32178 30.4431
48.1647 20.2751 120.516
28.2498 99.9628 107.395
38.6466 28.913 83.5709
17.2255 128.763 147.096
13.1202 21.5181 126.61
30.0923 87.727 119.128
61.9866 154.886 130.231
48.2267 3.19747 50.699
53.5529 3.12538 90.1443
61.8164 139.175 87.6704
34.589 151.376 79.1127
48.1144 115.315 77.8334
27.7939 98.1673 100.874
14.6272 34.5627 109.673
20.4845 134.153 71.2461
36.0964 25.0125 128.435
46.1729 125.611 89.4273
51.6483 120.101 74.5387
26.0853 111.468 67.7492
47.9523 127.78 120.409
69.3577 129.555 86.1082
42.936 134.599 162.685
41.1225 119.445 87.0217
33.3528 38.1854 115.065
10.3765 153.905 148.387
65.7993 138.924 82.489
2.85203 158.834 153.99
4.30019 148.412 131.672
6.28575 160.315 117.213
36.7699 86.1951 57.2074
13.8433 81.6648 82.2752
35.7317 114.047 149.551
49.3119 74.0507 104.544
24.491 138.226 107.059
22.0504 1.81944 125.081
66.2887 123.105 134.646
70.1754 173.351 132.583
