ply
format ascii 1.0
comment Created by Open3D
element vertex 253
property double x
property double y
property double z
end_header
41.1212 177.668 114.118
16.1295 37.4125 134.228
23.8342 130.128 56.5376
84.4503 133.842 103.555
16.9072 85.1257 265.315
52.2883 184.937 111.649
10.153 38.968 162.982
61.4462 127.8 4.55846
12.0489 168.799 74.4773
156.551 70.387 11.0232
36.0556 148.15 23.1745
35.0392 120.771 143.561
58.9334 99.3842 133.511
19.8709 32.2828 150.119
57.9836 117.951 20.2748
49.2722 129.004 84.8675
90.074 26.2095 25.4813
18.1878 163.492 88.6297
60.4341 124.459 29.1289
21.2718 26.6619 124.067
64.3074 125.767 14.1856
10.2934 136.493 81.8321
9.18754 160.11 85.4451
9.04524 69.3372 146.999
52.4977 107.185 139.958
11.5549 108.77 252.979
41.8451 12.4555 103.228
34.7151 147.255 8.98136
146.136 118.441 6.68043
152.698 223.618 19.3489
9.49439 75.4178 271.075
18.8445 141.193 54.8888
15.2587 187.584 62.2929
33.3968 12.8506 117.021
32.3929 152.341 85.8421
25.2628 11.4981 104.34
40.4747 141.107 68.2951
67.041 135.588 16.7646
36.7992 194.388 19.0259
28.2042 157.491 82.5401
28.9692 157.178 62.7932
10.3182 7.55921 270.095
23.0607 44.34 254.347
23.2599 166.807 62.5939
70.4251 110.983 128.962
9.63032 134.264 72.381
34.0087 198.828 11.094
56.5411 140.069 32.3323
48.6274 153.573 158.322
11.3113 31.5791 157.815
42.1099 18.31 262.797
164.865 42.9075 125.051
48.2625 154.147 26.6237
12.1514 161.867 66.4598
90.2598 30.2679 13.653
51.0339 145.298 61.0018
26.2008 33.3924 112.074
11.1708 224.523 112.144
31.4644 118.975 74.8558
80.0624 180.579 21.5217
32.9939 23.279 95.8952
64.9562 130.081 157.966
22.8957 151.569 55.2727
33.6874 133.523 97.7978
61.0161 121.453 150.196
35.017 181.395 18.7491
37.9123 131.496 62.7692
32.82 103.513 136.247
44.9884 136.218 108.743
37.8392 209.369 9.78283
58.2003 181.825 116.948
35.5626 11.018 195.088
10.3784 35.1922 143.896
10.3001 154.346 147.307
161.413 19.2718 230.782
12.3445 143.115 102.416
37.0068 111.416 141.075
50.899 122.081 4.2092
18.5362 31.3702 110.236
30.6728 120.975 64.5799
9.32153 155.425 76.4666
30.7157 155.891 131.475
61.6844 154.491 162.496
17.547 122.429 69.2761
11.9871 87.5427 271.136
60.3827 171.773 149.451
29.296 134.372 134.277
40.3387 165.592 15.18
38.3542 43.6706 262.524
53.3389 101.295 89.7323
8.93819 177.146 144.911
34.0305 6.88058 185.624
11.4366 54.8481 136.886
67.0684 96.6173 123.102
39.6656 142.938 161.399
9.91997 40.5153 152.563
19.3785 145.355 79.5042
63.8738 136.716 28.6009
9.60194 44.8463 130.845
9.74383 204.921 38.8569
68.2896 166.994 2.14607
38.68 162.321 65.416
40.1279 121.737 86.5047
65.0838 58.5526 111.078
11.8641 132.332 60.2854
10.1755 179.694 191.484
61.3977 179.147 106.174
21.8262 157.744 62.6886
84.9847 40.0691 119.279
49.9136 163.76 151.906
8.78677 136.617 97.4441
60.3951 166.18 156.579
33.649 35.2132 107.476
27.2032 117.88 137.177
81.2204 116.942 106.923
30.021 167.065 84.0891
29.4824 109.509 135.163
12.8601 145.74 86.5148
19.8734 151.704 89.1371
47.0024 144.576 34.0897
22.8023 36.49 118.899
48.0887 172.703 23.0597
38.6827 152.135 73.0278
72.8976 116.165 144.086
51.7427 180.405 127.808
78.3463 203.711 25.4589
42.997 97.5693 134.23
40.7528 173.083 21.9009
69.7003 224.126 5.25174
46.9623 180.972 25.4575
26.4351 83.4538 262.846
20.5972 44.7054 133.915
49.268 92.2457 102.381
47.0648 98.4117 93.3068
61.6722 122.665 127.302
31.8714 141.658 52.2178
11.4289 75.316 259.392
65.1037 141.425 7.04226
24.864 126.518 141.423
46.0857 48.3289 268.262
36.1733 161.8 75.6925
90.143 215.738 250.722
31.542 179.241 7.62432
9.81835 53.54 114.332
15.4774 158.185 152.975
55.2393 117.452 141.361
9.3163 48.7495 269.682
49.4333 164.228 18.8606
58.6663 94.1488 99.3676
39.2261 172.206 128.655
11.6683 10.0383 172.796
32.6675 189.748 2.24859
23.996 51.6736 247.036
23.8305 120.323 117.105
20.379 14.8723 193.451
44.4272 121.054 29.3563
87.5308 135.142 150.579
39.8606 162.18 112.711
46.3831 111.569 146.528
43.8912 210.508 15.7017
24.3919 132.255 127.496
56.1491 131.259 159.272
25.6389 107.555 123.345
9.20413 56.1907 271.955
73.1694 156.613 160.095
37.6951 142.181 57.2147
72.7064 132.887 101.62
28.7577 36.426 262.757
77.2355 109.257 123.074
17.5084 28.0329 114.51
60.6506 180.531 134.487
80.6736 110.251 116.047
58.7628 16.988 194.379
41.9227 27.3226 113.787
37.3538 112.972 89.0149
40.4013 137.334 94.909
27.3985 129.534 111.406
20.8073 129.021 89.4536
8.96471 145.726 59.8274
38.8848 173.31 120.657
31.7923 169.039 71.4543
57.7631 137.417 91.9292
58.9083 175.848 97.9557
92.5202 182.792 6.23338
42.3606 68.1555 258.675
27.045 90.785 270.985
60.1588 147.351 22.3476
7.97548 61.5306 258.16
42.7341 91.2971 115.899
77.3428 105.894 117.59
40.75 129.073 35.0338
15.4859 124.836 79.9369
13.7992 125.669 65.8511
69.8438 180.441 118.432
36.0513 123.633 25.8726
59.8318 12.2916 192.097
7.73219 67.2755 273.376
80.6526 165.569 148.191
11.8271 51.2472 257.248
38.0798 120.855 72.2575
40.7054 165.007 1.61729
20.9724 38.6779 264.095
88.0627 152.993 144.003
22.6129 132.298 136.658
24.6635 18.5791 192.241
33.9124 129.154 92.3916
64.6025 173.36 97.8451
21.3831 173.745 74.2197
90.2187 164.915 133.686
15.1589 149.518 143.965
35.7117 142.358 116.221
45.6437 62.7963 269.216
75.4361 122.839 95.431
36.1492 88.8397 274.364
56.7887 19.6261 198.929
33.1101 128.698 27.3011
55.2566 144.43 96.4374
73.0136 211.28 25.2457
25.7172 45.6649 140.455
54.2961 121.103 124.884
66.4791 116.199 140.798
54.1967 90.4238 105.862
39.7389 79.0997 273.346
14.1573 133.846 27.9657
57.0189 161.882 12.0906
31.9469 1.79319 152.509
31.318 148.736 119.064
50.4934 117.897 147.773
8.63135 139.319 70.0857
62.0156 120.196 122.544
37.2223 137.903 1.4603
9.34032 49.6833 261.251
82.0198 118.446 135.747
31.6629 174.54 1.23002
56.428 123.773 127.679
21.7338 205.118 214.953
73.5273 139.941 94.7971
23.1343 1.2014 153.548
19.032 21.3934 197.517
48.1681 68.9773 271.359
55.8113 97.2916 94.3249
86.1015 212.647 1.22351
8.68544 50.3849 153.058
89.0361 170.014 127.78
95.1497 199.09 1.46096
30.3069 143.363 114.374
60.3995 164.094 7.1463
74.5833 104.415 121.291
14.5065 1.10323 159.384
45.4432 54.9471 267.715
90.6773 135.748 139.809
37.6876 131.481 90.0526
136.936 118.993 88.2129
