ply
format ascii 1.0
comment Created by Open3D
element vertex 302
property double x
property double y
property double z
end_header
30.5497 136.177 196.42
17.7741 77.3837 130.972
9.82888 46.0228 86.6696
21.6955 128.386 136.348
22.513 101.439 124.785
28.5041 82.7451 113.48
37.2381 177.559 177.496
34.7107 169.646 188.612
24.2138 136.799 175.836
50.0665 156.963 169.411
14.2665 146.87 197.091
8.54729 75.0929 177.54
21.291 91.6106 141.11
41.4377 153.61 203.423
24.0973 176.042 192.731
21.4518 106.288 88.1161
7.83227 99.9422 98.2633
30.645 159.225 201.26
32.8681 86.5491 97.5259
9.22187 88.0626 191.172
17.2728 74.0271 120.764
22.7787 145.279 176.4
18.3722 123.337 148.138
26.6207 129.481 183.122
19.2063 116.18 150.147
30.1355 139.774 204.853
13.7177 150.156 189.355
12.3074 66.3646 122.115
18.4964 138.345 136.651
33.786 96.6956 109.755
20.6503 77.8318 110.756
15.2829 137.465 102.026
12.7358 68.9866 130.764
23.2236 141.911 182.627
30.0367 139.72 182.997
15.5339 110.738 80.3985
25.921 165.56 196.179
50.0579 174.268 189.752
22.8371 110.378 132.448
21.7019 74.5859 140.711
7.84947 143.404 166.527
26.9767 166.064 206.435
35.988 120.016 97.6341
24.6978 161.095 177.202
44.9374 173.851 173.387
26.0643 92.7031 103.12
16.4363 84.1342 103.964
15.6161 69.7492 113.059
16.531 134.406 178.399
9.99352 125.349 76.6764
22.6917 188.004 56.8559
8.80149 78.0374 188.267
24.9984 97.5853 86.4527
16.5093 140.881 200.571
21.8128 54.5184 110.75
19.309 128.462 107.993
7.81635 87.1047 100.609
17.3531 167.835 181.705
10.0436 78.6528 118.145
32.4892 187.421 70.0421
22.9563 121.272 100.446
7.73519 149.778 161.184
22.8836 117.893 140.424
31.8528 128.572 102.622
27.5626 166.35 188.933
27.4031 104.34 111.684
34.4263 172.783 198.344
23.705 171.268 180.035
32.2969 152.544 204.274
7.74776 66.3037 103.592
17.413 183.34 62.1143
10.2365 144.45 136.637
12.8013 127.369 152.142
7.81832 53.6164 143.594
25.8839 64.9384 16.1009
14.4194 90.5063 163.361
37.958 148.545 200.523
13.2232 151.973 123.152
17.769 143.846 109.319
21.9233 178.49 62.305
7.06482 115.511 106.17
17.6424 149.067 183.059
7.65355 120.18 160.682
47.5622 149.696 198.359
9.1449 153.502 93.2765
10.7514 193.172 258.592
32.8743 137.272 179.239
15.3506 227.304 248.398
21.5305 118.069 122.917
27.8419 154.999 171.186
6.9413 103.305 158.756
19.3851 161.9 202.948
7.93373 85.4365 171.901
38.5632 95.7452 100.275
30.3319 140.005 190.4
15.8939 155.78 194.169
15.1368 161.288 186.392
10.9185 122.66 83.2774
20.5763 128.505 118.985
16.6371 136.827 145.832
24.1418 100.892 104.977
7.99908 93.5105 94.4816
10.146 101.024 86.567
7.60267 116.945 168.836
14.3888 85.1646 175.305
7.0441 84.492 143.767
24.6311 186.035 75.0078
51.3713 154.341 192.718
23.5836 216.278 8.07931
45.1405 149.036 173.606
16.3149 142.409 179.531
22.5269 131.126 101.372
35.5898 155.067 181.002
12.8559 73.9197 103.217
24.1184 85.6262 122.056
54.8315 165.204 177.698
12.4621 182.589 67.4637
8.89265 18.4438 101.558
29.6343 224.184 6.11623
38.9121 155.944 167.466
16.2532 62.1099 162.683
12.7978 29.4297 2.10178
34.656 108.297 111.702
21.9845 90.7044 94.2063
28.6647 110.515 103.114
21.4988 20.8018 90.7053
7.87049 130.622 89.3744
7.72979 55.8624 152.301
17.4715 145.549 123.751
33.8878 134.074 187.301
37.22 147.335 186.017
25.8225 135.753 105.92
9.56051 69.6528 185.266
7.99962 149.037 109.861
52.9133 151.338 185.589
14.1356 188.949 64.5171
27.1149 45.1913 145.283
10.3349 86.3112 181.793
8.84715 63.2903 84.0652
57.8146 83.5028 105.014
18.1274 183.684 73.2259
29.5887 121.22 98.1405
34.7547 70.4477 25.1367
24.6501 24.6751 108.428
23.3161 105.097 137.019
25.5534 92.6978 121.279
11.5185 150.346 178.291
34.4744 140.087 172.963
45.2884 144.312 182.491
39.1136 148.955 172.759
20.1452 153.463 200.183
21.4057 60.8931 128.391
32.8262 107.577 101.6
12.5259 113.168 87.6039
13.6236 26.3445 35.1762
14.0926 121.165 164.598
18.0092 228.87 267.486
17.2521 127.651 161.176
31.1009 146.302 170.527
11.9168 146.927 101.812
7.95655 122.535 153.084
33.4504 119.912 107.145
7.01324 119.399 147.133
34.3319 105.331 91.9771
50.3843 146.883 190.732
8.73192 145.263 96.0081
17.1639 136.133 185.656
7.43075 137.3 120.227
17.1789 179.903 68.0889
28.3968 124.232 122.949
9.84198 146.527 130.069
26.1465 51.4222 116.102
9.10247 52.9102 175.522
6.84329 117.619 127.794
9.77579 68.1514 109.974
48.563 166.055 186.631
28.2379 54.6142 106.075
18.0139 163.906 193.804
12.6083 75.2322 111.589
8.35995 136.909 169.868
13.7302 123.933 156.602
6.97003 41.6005 137.794
23.9002 94.9839 109.751
21.8988 163.157 189.75
15.7866 81.1089 144.228
6.96528 113.67 120.58
7.60137 111.423 92.909
36.189 162.348 170.909
11.0354 75.4236 134.031
19.2225 180.638 215.835
14.9746 76.804 99.5088
17.2068 154.691 177.956
26.5266 189.556 63.8798
16.2947 3.5097 170.527
35.4006 153.976 175.652
7.56983 127.509 103.803
25.7812 153.193 200.642
31.0543 228.447 59.3888
9.39785 120.979 180.719
24.952 142.42 100.841
9.13807 2.24551 20.3186
8.25777 56.1244 7.42651
15.0432 148.857 141.094
17.1407 92.3188 98.3266
17.9682 132.614 96.0889
45.1157 169.631 200.305
42.079 175.193 190.876
20.1862 134.003 128.747
31.8413 149.759 182.722
7.62204 152.538 120.86
23.7879 84.1956 145.076
33.6679 177.18 190.497
13.0163 95.3484 92.8969
21.6248 194.04 67.6134
12.7019 220.802 67.6605
23.2987 59.6099 109.723
6.85387 66.3037 173.577
8.14106 158.668 106.668
29.0128 126.104 112.627
62.9338 90.6898 89.3223
44.0609 167.173 167.509
35.8211 225.989 51.4492
11.3243 152.066 252.227
41.0601 166.266 192.616
34.3538 43.7091 100.321
21.9371 82.8822 157.568
32.2641 60.9978 115.026
8.95746 129.985 187.625
36.5139 164.763 178.348
30.2086 146.126 202.486
14.2546 142.633 89.4828
23.5638 52.0629 123.027
6.39223 98.6256 113.303
32.7612 186.558 56.3033
27.2191 88.9737 94.0376
35.8865 229.253 62.5293
10.2493 135.186 95.5722
48.304 160.147 200.178
11.8154 111.247 176.965
49.3757 172.701 179.24
6.8449 89.5437 112.251
49.8866 159.542 182.786
8.49898 76.7936 106.102
8.76989 45.3687 152.572
32.2893 112.201 88.6843
14.0359 111.189 67.5707
21.3438 188.112 70.0322
27.9058 101.274 84.9521
38.2819 162.993 183.702
26.7823 227.963 265.141
12.8615 40.6671 273.991
8.82455 94.4555 173.23
17.614 99.6218 92.5063
33.85 114.772 94.6318
24.5102 214.189 72.7082
13.8349 100.21 176.96
51.7019 159.096 196.384
10.2061 105.467 168.247
28.9234 193.965 70.9871
10.2854 230.526 261.012
7.05117 59.6014 162.172
42.2577 149.085 179.087
14.1637 125.672 189.283
40.2744 216.926 1.85636
11.7265 65.4893 169.989
9.31451 54.4912 164.653
8.63719 99.82 166.334
6.37281 105.67 138.199
11.3245 138.82 164.526
7.00985 65.0884 131.284
21.0922 139.046 99.1208
38.723 141.149 188.336
10.9794 138.8 186.198
22.3904 21.4657 82.959
17.361 190.026 60.3705
10.9422 10.8219 108.873
26.5135 126.398 129.152
42.4931 162.286 173.243
19.9977 93.5237 104.128
34.301 56.7747 27.0769
29.295 221.763 69.2726
54.2061 82.2241 99.7332
24.0226 30.6145 89.4028
27.3338 140.649 108.287
10.3161 133.669 166.634
29.7666 163.806 181.512
7.97017 212.084 222.26
9.57754 159.562 241.229
17.5382 46.3602 36.7589
33.0367 191.119 66.2752
8.23445 103.894 184.039
29.3655 180.836 56.8069
32.5994 146.069 82.7857
34.3412 215.063 2.53926
8.35566 161.616 231.133
12.3989 58.2625 175.647
16.2643 228.946 2.42257
33.9162 141.681 84.4517
8.15559 112.227 181.513
38.1946 57.5445 24.4482
24.4408 182.549 57.5217
35.9883 54.9547 115.24
