ply
format ascii 1.0
comment Created by Open3D
element vertex 338
property double x
property double y
property double z
end_header
31.0342 120.894 138.877
16.3007 167.11 113.202
10.7323 131.445 96.7382
27.204 113.346 143.201
12.5252 133.274 106.247
20.7353 147.114 114.549
60.1314 136.667 138.628
42.8478 107.287 126.358
18.8957 145.104 96.8062
50.6245 132.614 145.27
42.7142 116.859 100.42
34.2691 171.314 113.324
45.23 137.736 165.349
39.8083 119.868 122.67
6.70208 163.01 180.64
131.473 44.1676 89.5211
51.8421 133.971 88.521
30.3945 139.567 148.383
17.8857 132.748 126.713
21.5783 149.129 107.897
53.9346 155.063 144.865
18.6909 126.76 115.254
137.433 121.407 9.04214
21.1158 122.965 143.348
42.5111 130.658 122.178
50.6981 130.951 154.887
16.9365 165.863 122.722
32.3771 131.768 120.237
39.1063 128.33 106.629
35.5442 117.905 153.873
21.293 119.461 115.877
21.7638 165.437 134.587
37.1347 142.732 84.4162
39.5935 115.176 115.363
37.5504 139.1 104.468
37.5753 104.574 81.8134
15.3765 123.838 137.998
32.7144 159.022 94.9586
30.852 137.854 159.237
22.0173 163.334 175.91
33.0245 104.626 104.75
27.2156 159.966 120.901
7.13626 138.988 150.062
31.8201 154.399 87.4272
38.0536 158.805 78.4301
17.7005 124.317 131.005
87.0302 128.527 19.8789
40.9598 111.164 92.2318
41.3906 135.978 91.2378
39.4385 137.976 153.867
53.2409 150.075 159.836
44.7044 117.225 131.541
22.7174 151.26 91.6926
44.6725 172.477 129.543
32.3698 121.402 100.284
38.6162 165.172 91.5425
30.5404 114.263 109.653
43.2183 151.812 132.434
32.3842 118.625 89.7774
16.5168 149.185 161.847
59.5656 119.311 145.175
45.8803 113.759 122.904
61.9059 111.259 109.606
5.73887 150.585 132.183
33.4957 139.864 168.055
25.8595 155.103 132.269
68.2734 150.355 126.669
55.0498 144.707 135.635
34.9248 123.424 82.3974
44.6491 154.021 71.7502
15.3398 161.324 177.422
45.9273 127.799 81.8402
50.3386 177.038 123.138
48.8217 114.843 106
65.9839 159.677 110.532
37.5888 122.419 145.238
37.819 157.557 118.897
30.4942 101.491 143.806
42.0093 133.051 110.508
6.24757 141.315 117.863
46.6175 108.398 110.649
56.6928 163.508 123.649
19.1077 123.674 70.3894
35.9056 168.439 85.8453
50.321 135.933 122.315
49.0386 150.503 93.5693
48.1231 137.855 96.7448
61.8411 191.923 66.5585
53.1053 122.911 112.457
36.8359 173.563 145.163
22.9721 122.211 107.8
17.2225 119.449 124.647
25.2785 103.375 85.6229
41.7439 154.207 175.512
61.6381 120.229 108.883
30.9562 167.782 145.589
56.5412 151.96 119.036
25.5903 129.498 76.0952
50.0964 129.675 108.463
35.281 114.396 133.744
48.7653 132.133 129.866
58.2381 130.006 93.1103
24.1296 122.722 81.8672
61.2101 132.331 150.851
56.1905 119.356 119.592
36.9896 154.278 100.313
20.2687 145.93 125.268
30.4316 147.799 103.604
51.4651 168.466 119.724
28.4662 160.726 175.884
62.3422 139.88 132.066
51.6115 161.617 138.549
41.5008 168.762 120.63
26.596 178.914 106.466
33.836 170.105 124.588
41.2628 147.236 107.373
19.8135 155.809 172.451
14.1771 138.349 120.094
44.6098 157.104 92.0543
41.034 118.577 138.715
27.4569 129.589 86.183
59.5647 128.31 104.705
39.7415 130.526 156.844
54.8214 134.824 104.24
14.6478 164.986 78.8541
39.8031 165.651 109.205
50.0015 119.482 92.4863
63.5743 145.304 120.228
40.0772 153.103 159.761
29.4519 140.36 99.7869
47.4731 139.255 83.8687
36.4237 133.687 164.584
58.8965 146.671 107.009
31.7001 157.376 106.348
26.0311 167.611 106.13
26.0618 161.813 98.9994
32.3893 150.07 76.4212
37.8843 107.768 99.8907
19.2594 136.755 77.7369
48.393 167.995 111.675
27.2033 125.172 131.536
13.5526 158.556 107.914
65.0918 135.546 118.243
9.0662 149.86 173.372
23.0653 151.784 157.272
26.7791 138.146 133.453
29.3953 132.737 101.119
58.7233 142.588 145.085
31.6002 105.357 129.163
28.7073 146.369 131.173
7.74701 122.001 107.818
40.962 124.214 160.243
49.9096 142.102 106.24
28.6516 136.501 111.499
38.1528 128.208 97.0355
28.8047 162.863 89.6945
25.1147 156.019 113.032
28.1582 160.848 143.569
68.0143 153.336 134.219
12.249 125.114 78.3057
55.4887 129.851 78.4474
49.7572 122.16 145.628
68.2163 133.4 149.905
48.841 121.215 119.521
48.7207 163.456 128.744
15.2069 118.717 100.704
70.101 26.5072 106.667
21.8297 180.371 112.564
20.4111 154.483 120.951
33.4462 160.705 82.6901
27.4237 124.166 148.239
22.3314 158.347 166.343
32.2549 135.355 92.6911
52.2072 156.042 99.509
8.0549 153.458 90.5271
59.4032 151.531 149.216
35.3122 175.548 132.648
38.6958 116.216 107.909
53.1514 124.999 87.5964
42.2712 156.117 109.198
21.4305 110.372 118.369
30.6248 113.566 118.901
41.9474 174.08 97.9676
46.6319 152.556 101.752
37.2387 152.663 141.073
19.1767 129.755 95.212
38.4466 135.2 80.2571
61.3268 126.023 84.4055
50.8046 125.447 99.3691
29.4421 125.398 112.345
25.4107 141.257 160.324
37.7669 162.671 102.82
25.2141 139.589 121.453
53.6515 155.337 129.045
26.5932 168.241 119.026
10.6412 149.472 149.375
26.9622 116.17 128.348
17.6975 153.532 131.969
51.3758 108.756 117.102
41.5759 171.224 137.711
49.4873 163.91 147.59
43.7411 117.547 88.0285
28.9631 131.829 135.942
19.7629 136.879 114.609
26.2424 151.932 172.635
30.8535 146.894 163.435
34.279 153.995 130.412
11.7425 136.784 143.344
40.2104 145.276 162.428
42.6256 161.77 139.716
12.8045 135.724 151.469
20.8834 111.939 103.313
43.4317 157.706 130.191
12.2753 112.267 108.283
10.6649 116.911 118.2
48.8642 154.23 152.901
9.69486 154.892 179.181
6.91332 148.092 86.7175
8.77624 120.725 97.5368
16.842 139.547 101.296
73.7699 28.8025 107.717
11.4364 162.253 77.9998
42.8169 143.381 94.2338
47.8738 136.643 114.343
24.8753 138.015 82.9519
36.5405 126.756 129.082
59.8749 149.948 127.571
23.8524 129.398 156.654
53.5837 138.382 161.732
11.8061 150.815 116.345
27.1206 114.403 99.8515
69.2407 125.697 108.361
38.1229 146.62 99.8685
57.5661 117.001 101.918
40.7849 107.549 145.386
28.3368 106.019 82.3143
121.966 186.052 99.3088
35.4218 165.487 133.23
30.7598 150.741 151.231
23.0044 134.985 90.797
49.2207 161.92 105.706
126.984 190.372 102.541
54.5032 155.749 109.179
48.6361 230.728 49.8428
23.6902 148.996 82.351
31.7483 126.513 161.417
25.6784 152.845 147.308
14.4329 153.276 171.871
43.621 230.376 38.6119
68.9107 140.768 145.414
28.8411 154.513 161.917
50.9194 170.469 134.705
33.8566 158.387 163.236
24.8427 126.133 123.126
25.7597 141.655 71.7166
30.2073 143.762 74.9192
56.614 135.916 115.768
37.022 155.531 65.9367
28.0965 167.938 130.769
43.2093 126.424 150.231
52.7795 147.659 98.6229
26.5326 143.306 90.8166
18.262 117.338 89.6435
36.9755 160.191 148.223
35.2725 162.503 66.6155
33.3005 158.439 155.377
62.3925 147.12 158.546
104.543 195.007 113.172
31.2404 123.487 120.74
33.8346 153.706 63.8582
65.9549 149.918 143.666
38.4467 138.404 135.988
34.9376 133.037 140.744
43.1481 122.854 95.0496
22.3277 158.76 103.893
21.4896 169.372 72.2482
45.2875 124.167 139.247
18.2426 152.879 100.061
30.2197 134.442 69.1469
119.828 195.703 102.793
56.8763 170.358 105.467
63.228 164.931 120.617
24.2736 120.717 92.8653
30.9435 135.28 78.7002
91.1078 129.66 18.1618
55.8817 138.21 126.823
44.7803 151.861 143.005
65.4071 135.543 107.974
6.9889 153.03 149.962
34.4423 169.186 97.3335
36.4038 147.366 114.251
57.5479 169.648 128.757
47.5092 132.306 138.552
117.311 191.65 96.7724
58.417 146.123 88.9935
46.9233 141.301 135.186
26.6243 118.225 154.561
23.8278 165.394 75.4502
24.4633 133.254 70.4044
23.6861 148.55 140.646
51.9466 143.581 150.734
31.0351 129.826 152.31
63.3156 134.943 159.171
79.2193 228.937 13.5372
51.5055 123.651 77.2684
45.3497 114.954 150.239
57.6124 145.706 115.814
74.5907 229.371 13.8951
72.1999 146.275 112.449
64.8725 124.114 155.529
34.5169 160.075 70.4643
58.3861 141.942 99.0922
61.3659 155.199 138.51
38.1397 231.174 35.1629
16.2029 150.2 151.109
18.4793 137.877 89.3959
33.7638 131.453 74.7335
36.5656 148.709 119.007
55.6835 138.023 93.5752
5.20584 146.093 103.209
14.4114 155.054 150.613
44.332 118.896 80.2504
48.2231 125.309 73.0882
7.21451 146.203 148.986
22.8077 162.281 79.6844
71.4031 155.698 118.167
79.1724 223.023 14.4395
70.8169 159.154 121.01
67.3414 120.482 131.201
40.9591 166.611 148.375
18.4499 169.907 75.473
35.5169 150.191 156.777
87.4633 231.181 18.5644
74.7933 151.611 113.645
49.549 127.239 114.834
82.1761 227.52 9.26426
84.9353 231.136 13.9776
55.5203 167.009 102.112
