ply
format ascii 1.0
comment Created by Open3D
element vertex 1560
property double x
property double y
property double z
end_header
39.2514 52.7871 175.795
35.6254 49.4988 64.0067
14.244 32.231 66.9175
48.3642 73.019 172.251
25.9729 94.1502 249.571
23.1658 67.0592 16.5825
24.0557 90.0748 229.819
66.5478 144.781 135.102
30.7264 61.5377 166.637
47.4551 147.726 34.138
20.8715 20.1482 161.319
26.0221 73.0702 214.649
12.6057 119.939 217.747
60.2925 194.916 259.318
32.2344 51.6953 207.42
58.5665 222.871 3.94158
14.4663 97.87 164.959
25.3747 60.7916 216.087
22.0193 58.0985 163.372
15.3561 67.9778 204.082
32.8612 113.035 85.588
27.2473 34.6432 174.376
67.2654 37.155 173.633
76.0822 8.97236 144.437
14.591 127.835 172.823
24.1275 100.436 238.972
25.7474 95.2726 122.036
20.0596 178.3 181.877
33.0112 217.987 40.5943
26.8278 93.7495 269.597
25.6015 174.199 146.663
12.1291 61.056 180.032
20.4546 70.8752 35.3632
59.125 70.1986 180.272
48.4411 32.6625 169.309
16.9028 142.88 59.0717
18.4117 61.6282 260.465
30.1231 140.855 136.519
39.044 155.937 237.351
29.3863 52.7464 172.526
24.1377 124.293 158.613
46.0441 61.6682 44.3906
51.7139 76.4091 153.505
38.6595 68.0703 227.76
48.5687 56.4077 177.985
44.6695 76.759 213.029
31.5089 214.505 12.2798
29.4675 18.2134 255.673
72.5772 133.656 142.287
25.1319 82.4209 210.472
73.0642 54.0487 230.487
48.0312 119.696 138.92
28.5217 58.1528 38.2631
32.8705 154.087 32.5332
52.763 47.0967 58.1422
21.999 36.1528 268.946
48.7814 130.142 57.8647
63.013 210.548 3.12988
59.3011 56.826 182.374
41.4704 128.408 263.692
39.173 82.2705 69.3955
54.8765 18.5172 230.492
43.5654 98.8198 105.554
37.5948 164.7 8.58352
14.8151 96.2991 245.624
24.5734 188.15 23.841
29.9417 229.966 22.6878
34.8905 153.302 22.3534
12.5169 178.569 146.009
23.1813 44.9281 204.191
14.9939 85.8516 164.392
65.46 184.302 19.2884
28.521 20.7024 104.862
55.5864 174.895 264.195
21.4918 156.721 48.6278
67.1053 162.329 32.7496
54.2387 123.276 135.363
36.4059 158.524 257.636
31.9035 71.9181 130.614
22.4807 213.874 222.127
23.1255 134.946 196.623
65.0987 72.1712 73.4553
33.9887 114.767 157.511
43.9545 84.8142 258.381
34.3746 185.839 148.499
121.445 3.96184 5.70917
38.6704 60.9579 45.3174
19.3307 186.159 128.219
34.4726 131.413 257.201
32.9229 167.184 168.14
53.5456 54.0037 196.921
32.8812 158.749 43.1274
38.3569 81.0761 156.3
36.095 81.7954 17.132
39.8975 90.6823 150.569
21.4257 17.1825 220.334
48.7772 129.974 268.426
77.749 15.3999 206.609
19.2563 38.9221 193.955
59.5204 73.6709 162.134
56.7463 5.5311 174.626
29.5639 155.674 139.642
46.6306 60.314 29.9815
35.3348 28.9152 170.161
32.585 200.587 95.1179
47.87 69.1391 137.309
60.0646 47.4343 184.063
44.4637 71.0456 81.097
74.8021 223.762 46.0576
35.2351 141.933 43.5956
37.7624 151.373 254.66
33.8874 37.713 193.611
36.362 61.0721 15.9799
76.7587 15.0737 222.584
17.2754 223.81 185.79
26.9828 210.311 25.4362
28.7631 159.157 236.705
12.6363 95.457 272.635
24.5971 76.2549 21.1342
18.5606 165.747 89.947
26.5343 31.8586 158.511
39.8431 149.756 65.7938
19.8318 179.19 116.558
33.4097 75.418 229.814
57.6839 97.3427 171.67
27.3202 75.1325 149.515
48.7047 161.469 153.545
94.5739 224.604 32.5515
45.1805 9.55426 206.155
28.4781 111.483 77.2776
34.6967 171.008 41.567
30.9831 198.018 72.8527
23.4504 173.263 132.488
18.7831 135.979 252.86
49.3804 83.41 228.429
16.3188 131.576 183.551
33.1863 146.096 267.352
12.4729 113.257 202.063
42.7903 219.772 5.55294
15.5385 202.19 38.2343
68.8064 180.16 60.138
24.4306 83.0531 117.64
44.4077 155.519 212.111
81.9566 88.2568 14.2637
29.1781 216.614 215.567
50.1177 136.865 213.927
31.751 144.597 5.61942
29.0179 146.184 224.16
35.9924 155.2 246.689
15.4752 92.0325 232.894
62.4013 228.758 12.1755
50.8913 226.225 66.5528
54.5095 218.651 61.0887
35.2623 79.3903 79.9888
30.9635 178.379 46.0603
34.7747 32.0205 182.226
28.2253 75.6258 73.6975
83.4681 220.296 50.5998
16.4929 72.8237 215.773
24.9552 143.039 159.406
63.0338 46.7073 173.488
37.3671 131.397 68.6437
21.7181 152.842 240.737
27.4273 121.762 5.46386
59.8845 166.406 18.0833
22.3527 68.5446 144.204
17.0667 47.1057 266.489
54.3993 84.7603 175.952
60.3165 52.2334 152.248
13.8554 75.5562 269.998
75.0525 146.577 232.238
55.8308 74.6397 211.819
33.6623 33.3774 271.685
42.9952 116.853 107.034
39.5676 189.615 96.5571
29.5899 152.121 159.947
20.1271 201.385 27.0226
68.4728 59.2185 162.252
42.9118 94.5769 89.8095
35.7354 112.76 178.416
25.8495 204.084 17.5755
83.7845 33.0369 172.013
11.1696 107.9 209.028
20.0977 28.515 186.438
75.0011 63.2385 22.6112
35.9302 70.567 263.222
36.324 129.252 59.1152
21.1889 23.6158 199.247
14.5605 218.23 216.043
36.0524 137.869 257.559
27.1593 29.8537 115.352
26.4179 151.342 229.336
28.6385 61.1057 266.582
17.7017 152.887 195.566
74.2765 159.697 142.091
14.1736 24.37 207.997
49.6642 48.4704 169.113
75.5817 205.778 52.0199
28.3273 164.823 51.0852
72.8843 20.6525 244.046
81.9384 167.299 19.4356
25.5144 183.395 7.24689
43.7141 87.8586 241.767
13.7713 39.9276 258.533
17.5797 100.405 16.327
51.4689 183.879 265.48
18.5287 230.066 128.053
29.8057 64.5473 5.09743
35.8598 91.3536 254.346
73.4076 30.2182 196.052
13.8989 120.208 188.93
41.347 163.625 244.951
68.0908 47.471 166.507
42.6213 3.14903 233.803
27.0609 104.442 87.4452
37.8923 68.5893 239.426
44.783 217.066 181.692
20.4465 87.4696 252.655
14.2018 227.783 121.246
54.0583 80.77 233.791
33.2884 146.317 88.0914
37.0708 66.4051 156.349
36.0715 137.106 185.376
42.4631 14.0397 221.669
25.443 32.6773 194.298
63.7234 196.993 7.46091
23.3888 56.4334 241.071
39.1125 94.7976 168.448
18.9562 24.8317 255.04
33.2952 192.853 44.9722
44.2088 172.522 156.657
52.5849 49.9912 180.194
55.4371 67.5424 203.204
41.9695 48.818 204.793
69.7913 6.83995 154.728
70.9127 134.804 266.335
67.5322 61.3722 49.8129
33.5469 228.226 218.718
42.7073 227.754 44.6274
19.6499 147.599 24.5136
11.3412 76.7996 255.285
85.2965 206.809 58.6809
33.7211 16.6223 162.055
73.5245 145.572 222.718
53.6881 114.753 178.556
81.2491 8.27309 206.261
54.3629 78.0486 222.078
25.5311 151.728 94.2874
16.9178 218.068 145.481
48.2588 103.808 170.572
65.7135 58.8686 247.487
68.9903 49.9142 191.398
31.0562 116.573 68.7817
46.375 44.0735 180.042
96.4118 119.453 95.3584
57.1883 140.016 220.834
37.0702 124.506 85.4962
12.7072 95.6093 254.679
41.9715 150.44 147.865
54.4816 209.862 49.5795
51.9788 174.794 272.121
26.1372 29.0092 262.252
69.7146 62.4938 170.593
20.4482 143.733 235.022
53.1562 48.6233 151.608
39.9795 78.1566 28.6157
42.4485 128.642 108.834
21.5441 124.241 57.0729
62.8418 69.7262 155.248
28.5986 124.8 75.8163
25.0677 165.177 88.9072
24.308 110.053 82.6297
61.0358 73.4462 171.388
16.9822 169.546 144.419
55.1115 133.25 51.0073
34.1831 94.9694 99.5795
40.5433 103.958 171.049
63.1241 193.581 196.839
32.6529 104.261 80.9418
72.8039 136.411 21.2474
55.7482 151.105 190.03
27.8541 207.867 42.8118
65.3162 53.6728 177.335
12.6723 147.106 215.78
27.727 184.756 136.901
18.6581 94.1062 72.7693
68.3447 14.1887 225.848
54.7331 209.761 2.45053
35.7922 181.796 101.506
25.1803 49.2804 214.856
16.5208 130.68 100.371
21.5137 213.919 49.7005
20.9459 27.0206 215.766
27.3456 39.6281 207.287
21.0587 182.197 28.5866
43.6384 152.193 199.462
57.6033 209.908 67.8431
71.1484 211.46 104.689
24.984 130.426 34.8211
81.8669 38.1945 26.5351
88.3102 224.456 41.3196
64.0312 145.288 227.522
64.6161 5.10162 239.937
52.5893 132.565 85.9304
46.5272 157.158 84.1728
85.3209 4.94986 193.047
37.6235 124.899 139.323
33.3955 80.5514 218.679
52.0907 43.3582 186.645
45.2349 14.9614 270.597
33.1391 15.8632 169.506
27.5117 230.093 39.8779
52.3522 60.6306 10.28
11.4933 112.202 230.374
30.9084 109.95 169.644
37.7792 12.7962 252.152
64.4783 74.8486 209.414
23.0046 87.3794 22.1998
69.3627 54.097 222.446
50.7706 197.296 203.672
21.4491 167.012 54.3782
14.0525 64.574 106.882
34.4215 9.10988 187.104
41.2607 75.9478 55.6544
44.5223 21.4413 54.5863
28.8874 128.444 151.407
26.2993 114.449 179.559
52.2376 154.705 32.4315
42.3449 8.92096 235.53
25.9648 208.291 140.785
43.0455 214.838 66.6585
30.4857 225.392 138.75
30.9275 45.2412 133.139
28.8531 157.589 58.0897
36.4594 228.539 36.4937
53.6847 131.289 204.04
78.6576 147.422 252.801
14.3236 65.4948 237.145
61.4068 149.044 255.39
13.1108 54.6439 270.568
32.5292 185.892 3.0389
55.006 137.943 137.042
29.2094 136.632 51.0914
63.1422 59.6723 172.253
35.1819 172.66 210.107
13.4426 198.5 143.056
80.2583 186.716 2.62533
32.4947 81.5424 139.66
22.2382 211.655 13.4093
27.7434 88.9204 131.585
22.3759 159.463 101.536
71.7826 228.682 13.3297
55.2501 10.2975 225.124
10.6398 43.1692 236.533
68.0585 7.76352 228.087
78.1917 41.9646 193.027
22.1907 142.125 179.012
52.5496 186.553 6.15179
44.737 121.14 69.6989
17.1677 95.4042 91.8813
44.4972 151.437 73.4544
52.6491 155.247 257.451
61.088 67.7049 222.234
50.6371 34.3901 175.628
74.1221 10.7882 243.118
39.5405 123.258 189.061
37.1725 166.979 149.763
74.0291 184.587 55.1608
44.774 78.0491 59.6758
47.7058 112.127 211.809
58.2779 29.3921 187.88
48.8184 223.096 53.4463
12.9014 209.845 154.44
63.2257 133.312 101.829
60.9789 17.3422 272.391
49.0147 61.8569 172.135
16.9178 103.462 191.89
63.9903 64.3059 160.215
23.1379 184.206 99.4987
21.046 96.6085 147.616
13.5984 81.3946 219.233
20.9685 85.871 215.476
75.1027 158.303 34.562
53.5795 113.219 6.41753
15.3182 82.8804 231.597
60.5833 139.134 128.673
34.8371 24.4576 271.337
35.1332 130.609 168.574
25.2947 182.44 76.6729
12.9374 127.368 209.522
35.3419 102.945 174.202
30.4396 93.6156 36.1732
22.9944 114.207 71.7015
21.7545 130.091 162.864
32.2536 42.1441 271.088
63.6286 135.557 188.892
36.1662 146.395 32.6325
52.8799 144.049 81.5604
22.9599 108.383 71.738
29.9995 126.506 193.52
35.8808 43.6877 172.737
46.1798 67.6688 72.4329
43.9474 135.88 259.495
15.3911 97.7936 207.392
52.7336 44.9152 197.408
68.0466 38.0969 186.983
56.4019 158.852 62.5264
48.5846 213.498 101.75
46.2224 175.408 56.3501
62.078 210.816 102.955
35.8381 85.3296 242.607
62.5048 43.6437 229.581
15.0295 74.6085 158.436
71.4237 16.2094 235.401
29.6892 105.255 100.456
46.3072 192.976 215.712
20.821 115.486 14.0877
20.269 86.2963 238.069
38.2434 141.061 145.07
37.9729 212.624 142.081
22.0169 141.466 227.712
49.004 60.7884 209.648
75.0875 48.2095 252.751
12.4743 89.3824 179.76
47.6883 142.708 222.241
30.5446 101.145 148.747
50.0923 98.626 10.0009
71.5571 46.0182 172.111
24.116 83.4634 32.3105
40.3075 163.897 158.722
12.3792 146.879 227.172
78.9028 35.2484 179.227
35.5356 107.226 73.0545
60.4807 130.581 268.961
27.6785 49.8058 138.086
50.7497 135.78 261.139
42.7415 63.0324 221.473
16.9948 150.518 174.365
89.6818 202.473 41.5678
64.1457 56.8637 216.742
36.7207 161.791 144.59
32.2309 147.696 147.391
25.9736 66.5614 53.5559
15.0258 29.4442 263.72
58.4732 51.041 190.567
32.4353 88.7039 18.2042
64.3728 187.081 203.489
54.1774 226.751 49.0842
53.8767 116.703 63.6484
23.383 105.5 138.903
62.1755 183.491 263.773
54.0114 155.837 74.2038
24.6133 162.514 116.725
52.4804 216.878 231.236
59.9207 46.6002 37.857
68.6398 51.2641 156.649
66.4929 229.248 177.314
55.7979 81.9425 248.677
23.8715 56.4691 253.348
73.1217 39.5126 234.826
23.7466 221.068 135.688
65.3526 145.663 262.082
91.8524 10.3437 174.922
56.0983 143.389 258.093
52.2917 12.7054 219.719
27.004 196.422 9.53275
56.5926 188.966 256.253
37.566 176.313 165.109
30.979 157.849 88.8981
30.3527 58.9406 51.7709
49.6955 46.6223 50.8589
58.2052 191.749 3.4422
14.9321 223.745 136.262
41.8697 14.7305 179.802
16.1704 76.2102 110.146
72.0328 14.6093 190.554
23.8082 69.93 109.829
29.4294 220.283 182.777
20.1826 185.279 49.9381
42.9325 149.679 229.089
92.9796 36.051 27.8515
24.3513 122.738 130.256
51.9158 58.6465 64.0666
47.6264 66.8143 160.185
36.9866 89.5944 83.6965
38.8622 149.694 16.5868
33.6182 6.23733 204.738
56.3576 59.4544 247.388
44.0193 93.6167 79.7301
61.7516 18.5618 219.61
27.6554 189.261 15.6758
17.7675 68.5614 262.935
50.0941 68.7236 269.374
36.8336 71.5315 9.86831
32.7149 175.305 57.3905
12.9092 177.282 162.685
37.7689 229.14 11.4729
25.2134 168.202 125.742
24.4199 154.648 64.8249
36.2695 182.992 81.5015
58.1858 58.7333 206.407
50.767 8.8443 241.594
35.5972 123.985 183.579
83.3501 146.922 36.0756
76.262 149.856 146.119
36.4312 145.77 221.146
54.371 33.2568 196.535
26.8752 209.031 64.1251
71.4539 20.3797 259.025
49.065 163.097 239.767
46.1089 183.909 9.93372
39.4718 87.3945 166.33
22.6083 45.3262 168.539
62.4474 229.213 214.673
16.4935 87.6622 91.2918
23.1157 87.7479 74.1816
45.8227 146.291 260.341
20.6768 178.684 39.3776
48.3142 16.6177 174.428
58.9732 166.154 141.926
60.1624 41.6653 162.856
20.6477 126.379 18.3906
30.5786 170.24 143.047
12.6769 124.384 249.569
49.9318 189.177 257.873
23.7286 203.847 99.8176
49.1435 96.1562 271.7
11.2618 114.282 256.999
46.554 194.738 131.901
37.0455 7.16389 220.56
56.4904 61.1304 158.418
16.8678 77.6211 44.2704
23.9181 127.534 85.753
36.5879 230.472 159.828
28.4283 113.412 12.1838
17.3602 191.816 216.405
50.9378 152.699 230.013
37.3132 109.239 62.1524
89.644 177.005 264.147
29.8556 59.7183 256.337
29.3341 175.1 166.082
29.6391 135.829 79.5657
53.8901 193.276 195.13
18.4152 125.15 86.9113
17.2377 145.456 207.092
46.8275 142.564 17.5199
23.6394 13.565 234.409
46.3595 36.2936 183.489
17.1838 83.5363 114.059
17.6667 17.8037 134.311
45.63 136.198 75.9826
32.3618 176.536 19.4307
78.0602 38.3671 252.892
11.9578 143.457 250.998
39.4408 146.495 76.8364
37.2476 220.822 184.948
23.9883 154.965 16.9209
54.6702 132.445 187.318
59.69 47.2237 24.1852
106.249 228.424 31.5676
14.5589 204.363 99.2772
19.5794 99.4781 181.146
28.6276 188.55 37.9813
51.6794 80.5135 76.7678
16.3519 48.4425 188.048
41.8761 80.474 224.655
37.7706 155.619 153.251
54.2927 154.372 141.486
32.7425 133.586 2.16308
25.1917 155.003 114.867
41.1112 92.5644 262.528
11.3141 101.78 189.575
21.3504 78.077 92.7129
28.8653 199.329 217.359
52.4975 150.237 222.44
13.8356 149.763 125.167
24.0048 142.804 13.7988
64.5881 64.6741 208.224
18.7185 73.1951 61.0728
57.7789 58.3113 236.972
31.5306 189.859 62.4894
87.6208 22.0666 176.935
50.3766 8.92625 177.305
62.0039 173.299 145.946
70.9121 51.4479 179.342
83.4683 154.553 196.385
11.5564 51.6537 245.269
16.4429 202.975 177.857
25.4412 194.991 42.4071
39.1646 138.838 75.849
10.5834 69.5137 215.575
32.0434 200.513 137.441
64.6441 140.758 217.905
76.535 197.291 206.861
24.0168 55.9201 257.591
30.2267 172.929 265.505
29.9188 103.064 18.271
32.6665 110.432 16.3985
10.5178 28.1885 218.856
46.2205 79.9877 167.932
17.7335 52.5718 203.734
16.6729 189.778 185.578
43.2881 196.902 155.584
63.6846 46.7644 53.5347
57.5945 113.815 96.7306
37.9958 158.626 198.517
74.8614 20.0952 176.42
73.9193 6.89769 217.949
17.4334 112.993 68.2507
12.75 67.0619 271.834
45.385 126.916 182.306
50.8997 91.6098 159.457
17.7603 68.8699 166.235
47.1694 169.366 84.5453
74.2463 74.0403 5.58995
52.3289 214.57 7.44974
59.8561 155.042 33.5077
14.7834 73.2301 49.4618
40.7342 201.826 214.968
54.229 169.753 25.2621
15.3009 178.524 191.08
30.9784 191.037 119.535
47.5994 109.971 70.6633
13.3404 110.282 266.371
58.2825 96.6466 273.52
85.6671 229.335 17.6101
29.644 67.3106 62.3641
91.1486 227.883 3.9196
80.7019 172.894 8.67336
13.8044 122.116 273.449
63.2906 146.637 73.4705
30.3548 65.4807 21.4955
28.6176 130.534 69.9549
14.192 219.243 45.7727
43.4634 129.486 193.255
33.3431 138.766 63.7186
62.8112 170.714 62.3875
19.1516 176.376 20.9872
14.3911 83.9825 250.206
43.2696 84.6746 218.925
43.9107 52.534 52.0654
12.2141 136.198 224.94
30.5391 151.614 202.536
74.8491 184.757 21.8463
38.8813 2.13294 265.768
30.361 131.376 86.2422
41.0612 28.6444 178.774
36.8653 117.465 91.3935
51.0787 155.33 195.671
65.2585 216.446 135.988
29.2154 176.523 5.98446
62.5312 5.2956 159.373
23.7426 98.3219 167.05
64.8853 116.675 58.3122
39.4181 170.435 135.177
27.5246 67.3017 154.541
16.5836 81.1398 83.9457
52.8604 75.6394 52.1614
38.7027 178.351 264.089
20.4958 150.525 220.167
19.5079 105.438 121.696
28.393 84.5488 153.631
71.4828 36.6131 228.712
11.0939 152.263 198.844
16.6868 229.461 165.054
30.6187 146.867 75.2127
63.5083 26.3637 184.075
53.1998 48.3138 41.8563
77.4297 219.823 254.522
17.1897 182.868 173.42
19.9892 37.0103 175.499
17.1792 169.882 119.977
59.7217 91.4631 264.68
67.8904 39.3895 180.016
42.9209 169.953 198.475
45.432 84.4227 147.622
44.4357 94.7228 23.4802
39.2995 65.0178 167.696
14.6715 13.909 116.703
22.3303 227.991 177.803
41.9558 39.9961 199.74
75.6615 188.362 202.875
13.4449 46.9794 200.108
55.1771 181.955 78.2069
59.2259 21.3469 200.069
99.8044 6.34825 177.628
54.1783 157.192 146.895
35.0656 215.546 168.169
64.3649 20.7709 153.144
51.0562 87.8311 30.3132
23.9076 110.282 111.992
17.8095 103.486 51.5679
68.1635 220.379 40.4448
47.3644 83.5016 37.4181
59.4754 75.474 60.4976
54.8586 225.43 40.8675
50.5833 70.0748 38.8318
55.614 50.7142 213.493
38.0505 2.48548 273.089
101.081 143.126 35.2523
52.5581 80.2249 165.334
35.0646 123.364 75.3615
10.4836 81.5835 185.473
32.0181 135.429 41.3299
44.4094 43.7487 164.26
76.6007 44.1376 206.369
44.3392 8.53536 273.631
33.1417 199.285 3.83827
44.9436 135.927 201.416
32.4068 117.054 140.798
83.7424 212.403 40.7257
41.6145 117.687 2.53114
60.3414 100.062 18.5024
40.6082 195.249 168.095
30.1585 215.415 146.019
10.8027 142.52 239.195
37.2831 219.095 215.34
51.9362 76.2482 67.9121
71.3362 20.9121 155.258
67.7267 187.843 261.714
57.6099 141.388 146.085
72.0492 23.8764 249.268
13.3728 95.6431 213.233
85.4068 122.02 96.5365
36.4563 187.08 128.756
38.9884 162.059 21.6056
76.9657 227.525 36.9807
53.511 205.457 237.284
40.9885 74.9494 160.049
77.8532 38.7348 185.309
78.3259 163.325 247.082
91.97 156.24 260.539
17.0106 209.931 211.821
60.5249 39.216 205.131
11.6793 160.411 262.956
85.5884 224.795 34.7569
19.7692 82.7989 223.51
62.1509 135.107 148.95
72.9853 186.927 4.16461
20.2755 130.88 27.2204
54.9734 66.1756 50.3561
68.1517 142.58 204.055
11.5566 61.8209 249.36
38.3944 188.695 155.408
42.5675 72.2944 240.998
11.2115 114.064 85.5809
17.6831 204.604 106.637
40.3703 223.299 191.439
25.7769 142.973 217.557
41.2759 115.288 95.732
24.6869 222.319 146.42
33.3856 212.445 180.307
81.8925 28.2231 164.943
94.4644 208.726 263.842
70.2629 160.815 208.959
24.2559 185.695 113.122
64.179 208.933 162.382
67.7437 44.0505 237.73
113.541 15.72 11.7767
62.2462 184.52 140.044
34.7459 174.255 122.362
35.5716 105.248 89.3609
22.7579 148.318 49.6548
63.8351 91.1934 57.6671
67.9862 89.8546 69.5536
52.0174 228.998 8.32914
39.3419 54.969 160.943
26.4454 129.968 141.823
41.2922 41.7295 176.399
23.6599 107.069 181.077
31.4258 98.3661 92.4606
22.6237 135.051 177.029
33.2181 118.487 58.8732
67.3809 217.456 49.779
15.5764 69.6266 75.3937
36.9077 228.233 106.234
19.4343 77.1289 71.558
48.32 166.13 206.387
46.6528 62.64 5.96891
69.7259 125.985 270.456
64.2559 135.193 51.6507
18.5964 155.947 95.2896
53.5555 85.2012 265.299
26.1874 96.1044 98.9611
73.8451 152.177 203.01
48.449 178.226 222.552
80.2186 92.1498 65.2129
25.9033 137.363 62.6515
52.6275 201.481 58.5831
27.6416 186.715 214.693
17.3354 166.731 64.8198
53.6117 85.4001 244.364
53.039 122.815 92.427
22.3266 86.7435 81.505
41.0961 201.373 101.349
11.4833 204.321 171.422
20.7692 126.583 107.68
48.3882 97.7477 70.9084
32.6802 171.216 152.741
85.239 188.797 244.608
40.5991 221.24 139.017
40.6558 170.941 141.671
58.8652 8.28608 265.649
19.3071 163.81 80.3057
27.272 190.996 101.323
36.3826 158.48 14.6009
11.0691 135.363 191.509
57.5979 40.4306 179.584
34.2509 204.423 146.482
68.2912 49.9688 40.0788
74.1742 136.787 119.265
24.811 120.736 38.3679
55.813 132.556 264.325
51.3606 53.9425 203.902
71.9518 210.119 64.4597
53.2787 18.6419 214.43
28.6846 57.5839 23.1834
32.3314 183.106 132.506
57.2659 22.5992 224.434
26.54 175.739 210.018
81.0257 30.2108 191.151
29.7092 216.198 162.458
69.3263 219.707 60.7407
83.9237 146.295 142.091
76.5338 13.6821 254.146
36.964 129.383 78.8034
24.7194 227.849 170.895
32.773 55.0876 217.201
15.8883 24.6656 217.953
59.8844 202.939 176.487
79.0417 122.837 86.0646
16.9447 177.573 33.5722
56.966 178.402 211.099
89.7678 86.9815 5.63975
45.9425 105.693 13.2691
56.1652 60.162 30.2746
59.5372 201.571 9.65089
47.9354 140.775 41.9994
73.1413 118.516 20.5044
51.9278 126.68 191.086
19.8249 111.716 86.0185
71.9397 157.022 6.41916
71.5955 30.9071 148.456
32.5048 87.215 76.2155
25.2607 132.836 184.104
63.979 13.5891 173.259
56.6256 184.903 201.467
75.0354 46.1158 43.5707
121.762 2.41567 14.3978
60.354 31.0016 229.795
10.9866 97.6434 198.623
13.0855 215.963 206.168
60.9046 63.2893 197.896
19.2049 141.385 100.171
19.7771 229.524 43.8046
65.7963 55.8192 237.996
19.74 160.649 204.936
60.2125 139.597 266.044
31.0072 96.444 169.523
64.0965 170.951 270.903
22.0001 170.149 13.0912
73.5355 193.601 170.9
47.2297 227.798 167.794
33.3836 230.934 131.137
95.1649 199.602 264.632
33.2251 103.082 109.061
26.6676 13.9785 190.008
15.8899 227.197 194.953
53.777 115.717 113.06
71.8555 127.363 130.093
27.979 218.941 223.889
65.848 177.735 212.31
31.184 152.854 273.025
37.2518 83.9385 36.2196
68.7924 227.806 201.495
16.227 190.394 98.3261
59.0427 212.346 187.221
43.755 140.353 253.716
71.0057 150.006 40.1911
79.5282 203.316 256.706
42.8758 198.722 2.87377
64.6538 203.921 55.6182
36.0283 157.549 59.7042
20.283 144.423 217.691
12.6896 216.93 192.756
47.7949 21.0961 105.023
56.6145 218.707 54.2742
67.4488 153.553 125.216
81.1547 192.705 238.82
62.0072 66.079 187.754
39.5919 92.9282 274.058
59.943 9.34275 244.149
103.941 3.62015 190.498
25.7123 78.605 131.187
70.3199 7.37995 208.799
62.6876 196.987 243.79
43.2659 63.6875 24.4435
60.0122 206.914 235.244
57.9157 139.698 212.914
59.4614 202.353 119.341
15.5053 167.28 57.7931
27.168 212.373 100.08
67.1614 40.0067 218.141
14.2891 36.3785 270.825
46.263 76.0949 158.207
46.6105 89.5305 164.412
54.805 210.746 85.1853
41.7285 222.252 161.455
99.7329 218.506 43.3602
57.5229 197.451 67.7597
39.2884 142.217 272.477
22.5811 168.565 208.371
73.9381 142.117 27.2497
65.1826 156.262 141.697
17.6012 145.681 270.667
57.9915 155.04 24.2763
62.1821 217.644 57.7373
59.556 214.686 196.337
18.7923 57.1508 263.97
61.5594 2.68989 167.208
79.8612 163.327 24.6292
77.9474 175.544 63.5101
66.2732 140.125 28.1867
66.0395 215.108 112.615
26.63 144.637 190.959
78.0042 183.312 273.166
51.6477 199.185 6.2504
66.5447 174.001 26.4177
58.0134 182.227 58.5242
41.7194 130.655 87.4719
41.7998 122.915 273.658
16.5915 110.162 196.307
84.0285 197.403 222.792
35.8549 191.039 212.999
57.7298 52.3279 170.339
69.2785 227.885 53.3847
60.8984 216.737 47.4955
39.0469 178.94 135.2
50.5727 74.3562 160.787
18.8435 178.789 57.9399
15.977 113.261 83.0072
13.2599 151.913 167.02
12.2685 132.878 248.618
16.2989 210.604 192.605
25.9289 82.1786 85.4972
35.9713 68.001 68.4841
46.5157 154.225 104.66
71.0559 181.467 239.243
16.6229 185.517 139.639
21.4443 24.325 23.1618
36.516 133.095 47.6582
25.2991 135.879 7.38418
81.917 45.7616 36.2868
38.0237 215.771 150.548
12.4339 52.9255 256.899
12.6918 142.158 271.542
55.0144 24.9311 105.871
72.5989 59.164 45.5176
67.7702 13.2499 141.786
49.0756 181.73 144.326
46.5528 206.534 118.358
73.6622 135.824 133.851
45.3423 115.728 176.249
124.425 226.017 244.174
111.377 14.3491 20.7272
65.976 29.1156 87.1469
55.3938 229.114 219.614
38.7957 171.93 15.1984
83.9035 79.5963 12.1976
71.9622 229.444 29.7126
40.4178 173.118 126.419
26.8519 153.089 149.277
26.4924 92.703 85.1929
20.1778 44.3824 273.106
18.8334 218.631 107.43
69.8987 45.284 21.1408
23.0366 225.789 139.775
66.2617 148.645 81.1904
47.7214 4.42385 272.059
70.9746 194.9 195.533
28.0664 133.861 262.22
59.2967 67.0192 215.951
15.1929 157.774 189.07
87.3026 148.585 200.754
73.114 44.0204 241.986
57.2055 195.325 241.929
40.5939 202.886 147.405
72.6028 44.917 197.841
38.2684 138.883 81.8386
46.5767 167.029 139.111
25.1082 70.026 102.74
59.9449 92.8333 28.564
41.6603 205.432 51.89
25.1964 156.741 199.743
27.915 185.066 69.4691
46.5764 86.2852 75.5462
52.3442 225.291 89.8767
11.6701 124.516 265.395
14.3198 83.7481 69.8273
48.0119 112.326 94.0253
65.2483 57.26 194.662
48.9443 157.811 17.7222
38.9651 116.598 176.061
15.876 117.632 18.271
77.2752 147.466 12.3034
43.0899 214.879 206.392
60.219 63.8515 268.243
76.9659 41.7625 246.718
56.0838 161.875 134.48
21.5751 191.523 37.1323
26.3336 149.011 143.571
42.4765 78.704 250.593
60.3817 153.536 199.721
77.2185 170.832 70.4799
54.1949 149.786 214.339
70.1043 225.297 68.3029
10.6629 206.796 209.001
77.6129 106.671 255.71
53.1281 152.827 106.238
44.9017 138.038 189.819
41.3587 181.236 157.551
48.677 75.5995 265.622
35.1835 97.5562 86.7428
51.7976 129.576 111.09
29.0285 135.131 274.402
23.5639 148.025 152.555
23.8107 64.2454 60.8153
34.6976 133.949 89.9738
46.3423 142.676 200.725
89.3251 215.122 39.6294
29.9989 148.242 46.1641
35.0975 198.673 213.968
40.166 171.684 106.95
122.604 223.555 271.779
45.9998 4.8389 263.864
10.5487 109.827 81.1653
62.5447 126.847 273.854
77.709 148.9 42.476
50.3626 146.886 204.445
37.4776 206.428 62.1139
19.9891 143.465 168.761
40.18 225.766 151.556
24.2377 189.65 61.7936
34.0182 221.067 150.947
55.7719 125.614 108.27
38.9164 192.908 145.06
92.0808 191.5 50.1636
11.8051 124.792 228.113
14.6485 186.051 210.399
10.6717 185.32 158.193
52.1989 122.033 104.783
55.6579 2.12296 272.109
64.8966 155.525 202.492
67.2622 162.936 216.691
68.0999 135.707 221.984
35.7785 148.337 197.613
69.568 203.564 181.459
59.3088 39.2758 210.202
107.187 223.305 42.369
49.8928 77.0727 34.5707
98.2749 204.595 225.518
41.5739 147.009 27.9734
76.8473 56.6834 57.3818
48.4354 154.992 25.6591
29.5205 139.944 179.727
37.4317 97.6563 76.466
71.3233 57.2554 208.476
66.4785 61.4894 227.228
79.2808 147.045 206.329
32.5137 199.194 66.1677
26.5543 193.109 114.215
66.5523 142.262 143.338
65.1653 71.7178 230.49
11.1142 195.409 213.012
51.6746 219.666 115.438
10.6081 86.535 260.781
84.5483 200.062 240.605
23.9213 115.155 20.9232
48.8004 182.873 208.321
84.4777 106.944 11.4583
36.9897 226.856 174.296
32.902 223.611 110.126
83.2624 36.4146 209.908
21.9472 222.246 49.3218
31.1019 88.7895 151.741
41.025 182.094 213.299
50.6553 194.128 241.518
74.0273 38.4154 216.182
40.1381 216.971 176.38
45.9679 152.713 143.454
59.4487 195.39 12.9293
85.7646 37.3796 46.7569
65.9984 191.535 232.857
26.7625 174.973 119.529
52.2355 217.234 109.676
46.0275 126.028 93.0712
63.6383 169.852 215.818
59.181 62.3158 253.519
42.2718 192.157 204.179
20.6427 190.568 28.9264
70.0857 127.555 53.6467
25.2994 106.71 16.1422
86.7361 38.7332 34.6579
77.0178 52.0763 32.9017
24.3736 208.71 214.824
29.4477 134.832 165.533
43.5529 120.45 90.4672
78.8973 140.445 258.284
14.8842 202.29 214.982
39.7972 159.142 140.191
53.7621 224.953 172.7
52.0463 165.204 61.069
20.7344 102.927 128.267
28.1967 108.679 34.7938
122.846 216.345 2.5173
33.8511 173.262 137.975
93.6393 199.258 220.597
50.366 182.502 136.777
67.755 182.498 10.7171
73.0548 82.4751 7.36
55.2049 37.6751 202.671
39.3053 167.813 114.035
70.9297 67.0902 60.7451
22.8432 133.732 274.468
22.9376 197.757 109.769
60.5369 124.907 13.1003
22.4089 152.625 56.2775
13.406 221.294 111.257
57.3855 70.3464 69.6848
22.2918 86.1918 96.1721
46.0629 185.963 197.489
33.8754 165.397 15.3532
68.2498 80.9312 255.41
72.2351 72.5419 67.8045
42.0261 203.343 160.185
15.035 229.892 111.246
27.004 113.047 136.896
76.9208 187.517 232.497
42.9289 217.829 105.008
65.8656 190.079 240.003
69.7984 202.211 240.216
33.0024 165.392 157.3
62.5722 228.208 37.4354
37.2001 200.547 173.686
38.2337 72.947 154.322
62.5695 77.5368 245.111
48.1936 210.62 5.83001
55.6062 187.839 138.908
88.5515 197.958 232.882
85.0384 174.98 137.329
86.5238 199.381 263.914
102.412 230.336 7.13905
60.0172 188.062 237.024
57.3459 53.114 41.2665
61.6826 136.883 83.2935
24.0054 99.2482 136.126
40.1658 71.7256 270.313
58.9262 120.863 121.961
67.7862 44.1551 205.276
32.5787 132.967 199.245
67.6747 172.106 222.084
20.6919 113.333 27.9842
82.5546 1.94652 221.752
54.2842 168.573 200.765
41.8686 207.349 222.98
71.4265 173.012 11.7873
90.3123 101.031 164.926
74.1596 193.84 224.743
34.3516 161.867 204.865
70.448 179.32 266.343
34.7415 147.765 67.9787
10.4371 194.548 102.17
72.146 184.923 225.036
52.6969 162.421 199.354
46.4496 195.423 76.3322
74.2094 184.573 175.646
66.9357 126.348 102.975
60.4873 146.146 113.621
75.9258 58.0506 238.809
69.1448 74.8632 9.32839
74.0485 198.382 233.74
26.0013 145.808 56.8673
44.0379 77.7668 234.685
61.0001 226.225 50.8729
52.3425 169.368 139.14
25.234 197.606 134.228
30.7674 95.2302 28.101
68.5698 199.067 250.143
84.8735 31.0089 182.645
67.6871 200.278 190.067
12.3264 141.912 184.596
59.5041 165.5 196.145
94.5083 220.844 38.9713
27.6612 135.545 143.99
38.7875 102.456 83.0914
23.5322 177.872 12.3768
75.9181 56.5975 138.697
97.1872 150.671 206.2
41.2145 218.021 169.769
47.9599 185.982 80.3097
56.1978 2.43056 181.679
51.2901 192.611 71.7259
11.9681 201.012 29.2615
35.713 115.061 108.382
74.4359 178.396 12.5108
44.4262 138.123 5.52506
18.1175 65.0048 78.6456
90.1327 81.0028 37.149
47.5533 148.855 193.895
80.115 194.087 217.013
15.0726 170.73 196.467
26.5809 159.725 7.92663
33.9616 210.705 160.014
110.364 215.861 6.38566
61.9048 158.984 228.152
30.4808 142.716 154.038
16.2963 130.092 52.4121
42.7853 87.2436 191.084
69.2163 136.863 84.4149
28.9929 109.334 67.4466
21.951 224.619 162.864
54.2215 197.553 89.7441
66.5948 150.992 71.7004
28.2556 199.667 101.753
78.0308 210.377 42.9196
25.2022 155.07 99.8249
47.707 194.172 125.042
120.426 11.2972 10.0636
69.6935 225.96 3.92606
26.1385 145.039 69.6178
67.9386 205.864 117.202
64.9603 154.576 216.153
39.7785 109.78 7.35227
79.561 34.832 237.293
70.5768 113.415 51.4912
61.8027 187.247 70.4911
84.1495 130.335 264.47
72.7316 86.9144 134.963
46.3012 226.851 149.667
33.9996 169.911 107.529
100.129 225.871 220.712
84.3207 155.845 254.332
55.3532 156.657 230.214
52.2745 182.938 218.74
51.5459 202.854 100.89
89.1896 45.0576 223.852
75.1401 46.1923 20.7307
32.4087 207.492 102.577
54.6835 156.898 204.553
83.1088 147.728 46.3276
16.938 140.555 237.323
23.9157 157.452 81.5862
77.9313 83.6246 64.8527
65.1875 148.521 120.238
18.8469 97.4473 122.825
72.5124 111.909 41.9448
86.3466 29.1628 243.275
53.6453 61.1357 255.421
68.4207 186.548 245.717
102.202 213.057 33.6041
84.4447 34.9454 203.155
89.4249 56.0856 3.23382
50.8191 208.839 163.313
33.6966 229.696 169.546
74.7971 208.055 202.182
84.0329 34.213 256.511
71.8557 147.016 108.959
28.2798 156.527 40.3022
90.7377 206.176 235.255
57.2228 178.918 138.478
54.7285 160.052 238.394
93.0207 144.676 24.2928
91.0502 182.624 189.474
59.3284 206.116 160.546
83.9146 203.81 50.5165
45.7439 215.017 158.091
76.3964 62.3756 4.21139
35.3604 209.068 49.7728
74.5138 37.4356 156.228
97.6668 229.973 9.66943
51.5163 132.347 98.2388
62.2682 92.6191 14.1968
95.0008 204.321 271.565
73.7526 208.363 194.293
12.5925 193.465 97.041
57.3238 203.371 169.237
49.2141 214.523 57.2334
83.0169 163.084 143.669
44.3973 226.519 141.593
54.2441 134.861 11.6785
107.556 9.54075 184.943
93.9279 36.4982 16.9724
125.938 223.201 233.323
64.1667 13.1703 260.826
80.4679 114.395 13.7081
18.2892 152.15 67.9461
81.1717 1.34329 153.558
63.7029 70.9892 239.253
11.6594 108.979 274.328
11.2771 205.471 195.346
83.2384 201.748 210.691
35.0471 65.511 162.678
68.0919 42.9402 57.4507
12.0056 196.77 186.726
37.0187 121.602 66.0561
17.8422 193.413 107.972
63.7649 163.937 274.301
38.2071 170.546 257.449
55.9582 202.339 197.449
88.6542 138.703 44.4405
24.0401 153.505 77.2133
70.6247 50.7155 60.0105
45.7003 217.826 148.769
13.8484 22.011 222.428
69.2565 200.183 229.132
53.2232 158.449 109.929
50.319 138.521 196.927
79.5056 219.601 42.087
58.4674 62.891 7.6178
80.5447 213.34 134.703
71.6877 164.93 22.7977
28.4343 143.312 20.7799
58.4771 139.954 198.588
18.411 144.682 154.993
74.9285 150.014 72.8323
45.2577 177.724 203.703
48.4775 168.673 19.8132
66.2318 51.5042 18.4296
51.2546 140.978 24.1944
68.058 65.6557 257.359
83.686 38.1578 15.4925
21.4858 194.129 13.7941
25.5069 41.648 274.639
72.7193 43.8761 29.6127
14.8172 200.237 191.414
21.685 148.189 191.661
57.1288 223.11 70.755
61.6677 131.632 16.0551
80.3199 5.39472 250.509
59.1306 153.471 150.728
76.8541 129.815 19.4515
48.4581 68.0717 28.1627
53.4498 192.072 133.621
45.1359 126.554 137.499
73.6842 46.9988 63.206
46.3186 120.118 223.834
96.5019 228.914 17.5394
42.1959 231.448 135.588
72.4623 32.0827 160.602
27.4878 166.334 15.1286
113.89 223.297 267.133
101.55 220.961 26.9281
69.2642 1.69558 215.866
16.5537 169.045 202.028
66.7678 231.16 19.6173
56.8359 137.774 204.099
44.6693 162.987 136.406
40.2852 210.649 128.151
54.8094 139.932 38.1204
82.3666 68.6564 2.08792
9.67735 11.8856 116.63
64.2576 191.008 4.39095
45.786 148.683 22.6395
42.7261 221.844 153.435
93.3692 144.17 142.477
64.3435 178.037 232.298
53.6816 58.8826 229.689
65.05 11.3193 246.268
90.6121 226.852 23.2938
93.1543 62.1487 40.6676
88.8127 204.553 143.013
73.8476 217.293 206.878
48.2184 204.542 71.0932
52.9107 160.406 218.482
29.3007 153.233 145.476
45.1278 225.587 107.427
29.9998 137.093 204.659
77.5517 156.852 26.7578
47.0191 168.973 145.229
30.3883 71.391 55.2559
42.5969 154.986 21.2957
84.9658 76.7171 21.9349
79.8729 22.0608 228.771
49.0448 83.9729 274.619
76.9357 196.313 244.313
12.5996 143.886 129.571
78.1773 45.2717 123.323
40.2166 230.185 145.051
77.2825 131.714 82.5205
39.1824 98.8739 95.1469
110.935 212.387 242.123
59.6646 213.702 169.439
72.1437 164.596 68.6923
105.468 205.595 255.601
45.0287 200.824 96.9821
26.5409 168.442 266.306
48.3058 225.497 114.753
63.6668 51.775 31.6282
23.6971 154.048 36.9343
49.9259 22.5775 206.97
59.2116 223.41 182.411
58.2852 69.7743 266.353
60.2437 145.803 198.641
57.5125 195.444 56.0124
84.8957 96.4053 13.7763
14.5802 145.915 160.225
40.5395 188.248 3.52823
54.0073 132.761 106.699
21.4724 80.0079 108.437
76.9133 205.796 221.729
42.4676 91.1112 160.548
59.5233 152.418 119.863
27.7999 82.2005 134.704
77.2011 45.9061 32.7142
43.5352 204.95 2.14988
61.3224 85.9044 254.796
52.7315 224.902 197.782
114.507 210.589 251.278
42.1036 19.9882 274.596
72.918 133.692 43.816
35.532 223.352 163.887
21.3936 196.989 100.003
42.582 165.208 259.327
88.9075 174.229 1.93987
68.2321 228.509 41.3788
96.9123 203.562 168.76
68.9876 192.615 129.618
45.3065 229.642 73.1264
21.8202 205.292 63.3319
15.885 231.484 136.369
68.4693 214.589 224.77
71.1265 146.878 21.7474
30.7258 88.5473 90.2345
84.9171 216.879 33.2845
80.2519 155.558 205.642
75.0179 187.766 192.382
31.7586 144.15 35.6085
61.8165 198.05 233.496
83.5706 136.131 140.241
41.0515 224.553 179.238
16.3237 225.086 152.125
31.2734 95.3428 79.7115
71.9431 182.194 77.758
78.1161 224.903 205.77
59.8227 158.168 101.636
51.8932 189.938 129.328
11.8587 207.397 188.411
59.2659 182.735 11.4021
38.5016 95.6636 27.0724
40.2127 179.895 146.047
69.1309 12.5454 274.486
30.6269 104.191 24.9401
75.2965 90.3515 10.2649
78.476 175.798 236.204
90.0813 160.86 17.1747
15.6018 105.474 88.4272
60.2722 4.04605 256.377
26.7285 180.548 107.275
28.043 149.511 37.0037
42.731 135.398 274.685
77.3052 141.517 203.425
49.4771 220.515 4.45946
32.3343 211.143 220.797
52.8419 8.65724 268.209
57.5617 88.3371 18.195
32.1349 181.907 11.3448
81.8807 25.0498 214.324
81.2969 154.576 31.644
75.2206 189.334 130.537
97.7494 227.218 23.3656
46.7727 122.9 133.614
65.6335 151.319 35.5823
110.529 220.573 260.035
55.3153 189.418 245.479
70.0873 137.725 274.169
60.4092 159.056 137.977
49.3196 229.354 45.5611
63.2474 53.2039 65.359
49.0478 60.4478 20.7088
106.942 36.4197 13.4468
74.7843 208.114 164.554
40.1442 185.635 140.046
50.8737 5.01086 184.99
55.5689 212.998 152.305
135.308 206.091 250.779
72.2228 133.329 209.701
54.1109 172.86 216.533
44.9786 204.141 111.274
74.7596 164.759 219.161
38.7602 173.962 151.194
32.0418 123.216 62.0782
66.4855 131.36 108.827
74.2487 195.747 97.8169
66.2867 180.779 272.69
65.2419 178.17 2.24708
53.1874 156.021 20.645
53.5537 125.462 274.773
95.4204 211.551 36.5347
12.6034 224.189 209.813
57.1845 221.213 230.734
92.3729 142.981 202.289
38.7772 159.106 32.8514
61.6635 199.036 75.4609
13.7086 78.6576 50.2534
63.7269 125.693 20.8449
76.2999 49.6848 56.4062
95.8451 145.798 254.134
93.7642 65.4988 29.4474
76.7638 165.623 141.774
82.873 151.155 4.80121
76.954 25.3944 183.146
46.0344 10.6014 171.86
73.2673 63.8846 200.796
76.0623 133.546 28.1024
91.0783 6.4328 159.404
65.4867 225.853 61.5519
29.9813 215.494 185.948
85.4299 19.3396 170.056
34.5116 180.443 140.796
58.8526 157.494 115.041
76.3546 91.8069 57.1315
46.0092 231.532 143.735
71 155.141 210.485
93.5154 215.71 235.289
101.917 198.178 271.288
104.099 221.908 266.861
65.004 148.832 128.158
64.9729 218.525 176.458
48.7473 219.462 153.919
101.797 213.116 152.471
52.664 209.308 231.038
94.9445 150.803 74.136
60.8304 163.632 209.966
49.1907 131.844 104.663
41.845 172.974 205.069
106.325 76.5946 5.54745
89.3035 194.411 164.872
65.6394 143.035 116.232
39.8466 114.253 68.6819
62.807 146.189 210.176
67.8473 199.311 53.3162
28.7265 223.64 209.034
58.0179 165.957 217.067
48.3056 158.87 139.716
81.2277 147.362 24.0349
63.8097 212.985 179.935
82.799 204.3 143.178
60.8278 210.502 149.261
29.8038 164.038 141.179
24.5447 223.892 186.358
72.0853 231.137 170.803
19.7707 160.95 12.992
91.9656 198.017 272.779
26.9995 161.697 170.718
73.4181 22.2107 274.322
79.6958 18.2636 213.13
60.2843 196.588 167.09
61.0946 158.161 208.599
21.3469 96.5561 82.3989
82.1271 101.282 23.8412
