ply
format ascii 1.0
comment Created by Open3D
element vertex 418
property double x
property double y
property double z
end_header
57.6315 63.5324 171.19
48.4104 83.6382 201.583
28.2071 108.8 206.801
24.5456 109.35 183.53
36.3881 104.77 109.504
39.44 155.127 182.246
54.2704 150.058 74.5749
24.4694 136.444 109.825
42.9524 157.144 77.8179
47.0947 88.176 118.104
58.0433 138.94 229.655
50.4417 92.5365 205.482
27.5207 127.835 151.632
26.3427 159.073 118.501
58.6984 180.845 178.93
42.7299 147.916 194.66
40.5983 145.479 186.03
21.2192 225.11 173.879
9.57374 105.507 164.576
59.7725 175.281 216.452
57.9222 133.294 97.6717
45.1902 164.783 192.477
64.9525 81.3842 96.6604
51.679 160.651 198.759
40.5167 156.661 256.442
31.5214 156.693 233.059
57.1508 136.058 203.186
27.6157 96.2912 178.114
29.8517 129.292 99.465
17.9912 136.023 145.739
17.2206 73.3735 168.084
24.3958 151.422 100.705
40.9731 121.406 90.8088
53.4193 137.025 114.197
69.7497 127.947 79.566
29.02 84.3143 180.551
20.6171 128.013 142.117
56.6335 82.3281 113.589
41.209 125.761 98.3517
58.4626 119.429 93.482
37.2251 164.097 219.802
28.9047 148.462 113.664
44.1749 81.3622 139.55
36.2124 163.077 179.789
12.0618 137.508 159.684
36.4409 136.334 131.51
12.198 112.59 157.885
39.0632 111.722 199.622
29.82 148.448 104.42
70.2785 82.2694 86.4444
16.1455 86.7368 148.999
36.75 147.591 117.414
45.9059 145.095 76.5755
35.5379 133.79 122.774
63.4736 72.1901 163.845
53.9897 119.178 83.7006
74.0068 163.31 213.7
54.8772 91.9337 99.7861
32.2666 112.299 106.835
29.463 130.35 91.1876
33.6512 142.42 146.273
11.3634 87.333 155.568
66.2765 99.4331 216.945
54.2889 141.277 251.718
45.0175 142.834 229.466
55.5829 87.6666 85.5102
54.7307 138.212 154.248
50.923 149.346 114.413
52.6445 90.7908 138.346
15.192 94.0623 145.03
25.9754 100.602 110.225
34.698 126.399 86.0295
32.6562 90.3361 188.495
15.424 85.075 169.539
21.6955 142.156 118.626
22.3016 127.967 162.226
48.5082 156.868 174.662
39.5855 149.895 86.1293
63.1301 153.94 201.356
67.7406 91.2803 87.2273
61.7097 165.111 199.314
63.2602 167.066 231.69
23.9716 90.4169 153.709
31.4228 223.361 205.246
24.7162 227.797 189.346
33.6663 76.8845 173.727
33.4107 96.6838 113.992
51.1054 77.8743 119.558
34.5525 216.136 209.509
72.5895 143.538 192.725
53.7843 160.239 259.356
12.7685 209.622 172.919
64.32 173.284 225.398
59.1623 73.7126 189.43
58.0307 92.7594 74.626
57.4624 150.805 253.989
65.204 57.8698 173.628
51.7057 97.481 74.8328
69.533 157.402 193.564
51.0285 101.354 190.264
39.0788 135.153 164.188
42.0963 75.5569 168.175
55.3712 59.862 179.044
46.2633 92.9236 189.251
19.2015 99.5111 119.74
56.5223 135.116 237.384
45.8653 97.4926 113.99
80.467 94.3955 98.0868
43.017 147.362 258.222
47.1838 98.5707 197.327
35.8088 142.33 171.496
16.0063 150.863 115.768
72.7031 96.8246 209.029
21.2689 101.708 132.302
65.1389 102.295 208.411
9.18952 129.835 158.581
51.5123 180.254 188.361
35.2202 155.096 223.006
33.8854 84.2704 195.484
37.5587 79.3772 191.518
83.6145 216.898 203.72
16.6758 108.886 178.86
60.0126 72.3032 182.678
11.9207 135.869 150.052
80.2269 98.5387 130.276
49.5242 131.011 107.317
19.0773 116.378 212.78
59.559 127.33 235.615
62.8368 64.6014 183.51
66.752 87.7541 105.829
45.1159 122.641 127.602
50.3135 150.908 241.628
14.9703 94.0361 158.834
59.5459 147.959 226.608
30.3914 117.547 172.472
35.9575 112.215 123.361
26.9848 101.818 166.802
54.2429 139.488 180.867
47.3758 150.849 264.155
36.1618 96.0086 171.011
59.1032 161.303 243.413
44.9703 134.2 86.0875
14.6942 150.824 108.028
36.7629 129.606 78.9401
35.0913 134.036 113.133
84.9491 77.1383 148.098
34.8871 135.683 97.2363
9.96298 120.185 156.872
13.535 107.286 143.225
25.473 93.9207 136.834
48.5519 85.5354 187.072
38.3907 104.833 119.325
67.4307 130.656 71.6787
61.5458 96.6155 86.8306
50.9098 69.0001 170.617
22.6095 116.023 165.002
48.8973 120.432 89.9449
12.1908 167.251 121.986
35.2994 131.34 107.366
49.8892 140.997 101.474
50.3502 138.045 196.847
47.1069 105.24 97.1656
54.3639 80.1097 105.798
70.749 90.2817 192.894
15.4906 76.7042 161.454
46.2117 77.9188 188.496
58.5145 92.6222 113.423
30.4508 143.146 96.0473
74.1505 102.957 201.817
20.0604 99.0757 183.449
50.9648 164.217 250.895
69.246 168.555 185.434
80.992 75.1454 163.341
22.0154 120.114 141.516
39.1252 86.2123 181.612
72.0344 107.651 82.0995
55.4679 171.587 182.058
53.2828 100.49 139.168
66.4057 108.364 87.4723
22.6521 114.829 156.413
24.0178 103.261 141.783
78.7296 88.2585 104.233
81.57 223.655 199.388
47.935 133.298 125.428
42.6672 127.015 167.637
70.6832 64.1412 161.709
28.7294 230.589 201.669
62.5368 84.7714 144.349
35.7659 134.2 175.776
62.8401 102.872 152.223
57.9015 95.34 107.131
65.8038 138.375 149.627
75.0591 143.52 79.0409
29.185 131.686 133.832
49.5128 59.0125 93.319
37.6671 95.4051 123.076
64.1147 79.0807 159.652
44.7716 88.3424 169.159
78.4308 119.631 81.0504
11.372 222.409 182.665
40.5444 156.335 199.369
10.5663 105.071 185.478
69.6037 104.62 74.1401
47.9585 151.78 167.482
45.7101 156.38 248.86
47.1718 154.777 92.139
49.9415 116.148 103.913
44.5606 64.4136 95.5627
41.4011 79.6715 113.289
26.9048 148.484 128.399
57.3693 154.652 84.6106
20.6362 135.071 166.235
59.2227 126.101 152.604
8.0529 92.1895 147.187
60.622 75.176 132.114
26.7969 169.022 122.178
54.7383 176.441 196.675
60.7172 79.5334 172.567
16.0339 159.25 107.136
61.6636 133.398 77.1405
63.3682 154.403 239.006
74.0443 169.471 224.771
63.9093 59.0173 163.026
80.9108 219.721 190.184
33.317 119.421 180.1
63.2959 140.833 97.1916
24.0252 110.84 110.009
18.0799 152.266 127.953
25.1854 107.076 128.224
31.3042 109.372 163.07
19.5845 164.459 120.78
13.7486 126.518 152.739
53.944 79.0143 194.73
66.4377 161.356 220.875
41.6917 80.1354 177.011
54.0504 129.315 192.271
26.1409 83.9752 160.945
28.5414 220.245 181.038
32.8045 140.724 109.983
44.4441 142.89 246.577
72.5929 137.522 86.3616
58.2246 138.879 135.708
75.9779 99.4878 91.945
19.4696 127.786 151.196
67.7804 171.54 212.507
72.7117 71.0317 166.682
41.9184 137.972 92.6823
81.6943 210.645 193.685
64.374 118.414 177.274
14.0009 230.816 175.432
66.4771 83.5888 187.749
44.9939 87.8117 131.738
49.0552 127.126 85.5763
28.1507 118.966 113.956
26.7303 107.848 218.911
54.3077 101.819 177.808
57.6034 90.7164 91.55
55.6714 98.8303 200.693
15.2402 162.369 129.641
71.5085 154.934 204.21
34.1444 225.816 211.783
42.2871 101.053 145.607
25.1052 103.601 212.325
58.8919 96.3403 131.416
53.5763 145.279 144.382
41.7744 128.066 129.107
15.4765 102.01 163.398
81.7857 94.1341 108.125
69.0496 130.631 88.5649
34.1115 106.087 131.964
59.6031 180.934 189.164
21.6489 105.195 163.067
36.9938 95.785 161.039
17.4804 105.364 149.527
73.3473 131.041 175.04
37 154.991 190.312
59.0183 153.252 144.771
55.5449 124.905 104.443
65.6281 95.1588 165.953
26.4611 120.243 212.339
31.5694 168.484 186.888
109.474 224.627 245.988
44.9988 83.8549 162.066
74.8151 85.6778 182.663
41.6517 102.315 162.624
62.8166 148.25 235.111
31.7867 87.5463 174.839
52.8322 81.1048 179.892
9.89164 100.004 151.076
62.2977 91.5754 101.71
58.7483 148.121 99.6367
22.4809 80.447 171.552
60.4126 158.6 224.257
23.7347 111.49 135.249
49.8892 105.49 141.185
31.4289 86.6765 126.701
30.5151 106.151 119.816
58.7108 157.947 169.491
39.0006 108.81 178.847
39.7119 127.189 174.081
52.6032 141.326 173.917
67.4221 93.7383 130.787
74.4715 104.661 212.192
19.9162 107.554 116.899
67.183 176.636 180.98
109.602 211.465 251.765
51.7752 70.6202 187.238
46.1327 99.1835 106.481
29.6743 139.059 118.759
59.8388 140.603 195.013
28.7889 75.1512 186.721
53.6444 146.573 84.6031
47.7392 109.111 106.353
27.3809 230.877 180.66
29.9428 70.5636 177.277
38.101 91.4479 144.08
86.2336 78.583 141.351
38.5886 168.933 190.609
59.0911 106.201 71.2291
57.0267 144.218 129.994
30.2624 140.962 128.675
56.5539 147.061 168.62
61.11 125.691 181.67
71.8573 85.5859 158.331
50.483 97.6516 158.455
19.0607 221.694 184.649
58.0522 162.691 208.176
37.0644 117.159 142.249
79.559 143.062 197.418
54.9828 65.1873 92.8614
68.0462 96.7587 70.1121
55.0793 59.8627 98.8847
35.4756 92.0858 197.367
22.6009 95.2759 161.472
70.6312 135.438 77.2835
55.2417 113.651 144.39
66.2963 135.807 104.864
89.5912 226.803 195.61
63.1922 149.335 166.923
22.2158 91.2144 165.49
106.292 216.82 259.188
73.8824 149.601 181.207
92.5174 218.133 194.214
22.958 70.8288 182.813
59.0461 98.8138 122.554
46.134 90.8739 149.728
77.1341 151.356 90.827
13.4815 230.87 185.931
55.137 138.018 188.938
74.6435 79.177 153.661
56.5686 97.8762 164.897
57.2866 136.478 221.324
61.1585 78.1887 140.528
59.9763 166.325 188.449
62.8487 88.1458 182.029
33.8139 97.4288 129.449
34.2068 77.3131 163.192
64.4453 125.634 139.094
59.1611 86.7177 166.69
78.627 20.3591 104.318
54.3119 154.489 208.094
54.512 157.873 188.645
38.0262 122.67 159.261
56.8389 132.616 144.479
40.9431 106.711 130.698
78.9553 151.174 185.839
85.9243 16.5901 100.895
66.4023 124.998 171.269
60.8112 86.792 174.281
68.3051 110.221 199.017
63.9532 144.532 141.182
7.81526 110.403 141.818
58.7814 75.315 101.532
71.2956 103.494 187.348
49.6107 166.002 236.494
84.6412 149.865 198.598
61.0453 110.732 155.643
54.2924 123.369 204.452
62.8889 146.704 109.463
27.0802 112.128 120.349
49.5447 94.9297 146.082
44.8301 156.5 229.963
70.1812 127.535 185.63
75.8419 79.7283 161.298
40.3691 102.488 169.749
36.2563 174.571 190.52
41.6447 118.441 179.739
8.30398 215.939 164.672
76.2763 111.86 200.895
78.3701 15.5615 107.585
83.1117 130.213 82.0126
50.4877 166.352 243.066
89.2706 78.5204 132.857
69.7807 84.0049 170.102
48.0401 111.413 179.74
26.786 94.0232 128.957
59.9712 129.349 113.089
50.1628 171.619 240.016
80.3803 135.916 203.884
77.5119 97.859 137.569
64.3757 70.2962 156.159
86.2296 139.869 199.696
62.6526 110.725 142.902
31.6858 112.858 116.192
64.4678 135.281 156.599
63.6777 73.8492 142.759
27.4802 88.521 130.262
59.4463 106.264 167.245
15.4703 107.709 217.745
63.4035 126.061 157.1
27.4929 92.9303 162.023
57.2928 125.916 214.049
16.7317 118.575 164.62
81.5575 127.25 86.9761
18.4228 103.559 216.635
83.1392 87.4931 132.643
76.7456 89.9322 136.15
68.3687 128.776 194.249
