ply
format ascii 1.0
comment Created by Open3D
element vertex 828
property double x
property double y
property double z
end_header
48.6864 112.673 170.952
33.8918 62.4025 151.199
53.5356 135.589 166.229
36.3507 121.825 145.013
74.0569 156.618 118.141
21.6034 107.385 79.898
89.376 16.2976 131.722
60.328 27.8643 96.4734
37.1605 51.8074 123.445
34.031 114.325 59.4332
40.4192 51.4021 155.154
23.3555 102.5 70.4329
27.0366 59.9219 120.312
59.5521 72.0155 127.909
32.0125 54.6742 77.2545
63.2969 52.0349 161.101
18.4185 91.3238 124.983
35.5497 134.279 114.23
46.9102 93.6413 135.637
82.1524 18.6209 86.9154
28.4325 70.4809 147.495
65.3581 153.958 150.59
74.6878 28.2367 64.6481
70.9745 147.654 123.565
29.6779 83.4064 137.069
51.6794 47.0726 52.5808
47.3794 46.5414 157.214
50.406 156.156 134.443
76.5088 65.4807 166.966
35.9058 131.101 73.8523
47.7493 126.524 166.028
51.1358 58.1075 160.199
102.266 111.93 39.1021
31.1056 138.839 138.475
34.9655 63.6985 117.401
44.667 52.7863 57.9148
27.4383 113.389 68.0141
23.2435 69.995 78.4804
29.324 60.518 69.8569
29.2455 56.0812 142.202
67.1401 182.195 159.204
40.9481 108.048 165.676
52.6183 154.563 145.004
65.9117 59.9422 43.7144
21.9864 72.2823 133.658
30.6252 160.604 250.87
70.301 117.696 133.872
40.9365 133.713 245.156
24.4851 119.784 126.122
15.9647 160.362 233.411
74.9592 169.424 156.771
21.4577 127.328 128.62
30.3976 105.004 63.1192
31.3533 216.855 257.842
34.9233 122.309 66.4277
56.0009 27.02 82.968
24.7667 136.215 122.57
89.1251 179.435 153.862
16.4713 78.3078 103.188
78.0971 181.626 84.007
30.2404 53.9681 112.726
62.0319 173.459 79.8654
21.082 82.0358 135.927
44.0188 59.8561 52.7013
48.3747 88.8702 131.352
71.2238 158.606 141.343
37.1858 48.606 130.475
53.6718 168.459 118.964
90.97 108.781 38.0971
41.7249 48.7022 71.4375
29.8113 105.434 54.0365
29.5076 46.4166 107.987
81.8025 178.442 102.788
24.6106 126.781 92.7984
19.8542 94.4618 74.4614
44.3513 134.218 161.075
51.1864 209.595 258.745
77.115 176.667 34.9524
68.0014 180.705 97.5745
36.4369 43.984 106.979
35.9645 88.4257 159.495
53.6642 74.6735 169.855
61.548 132.333 125.397
22.2547 127.92 115.26
20.6087 73.0835 96.4918
41.5703 224.082 264.389
45.0929 52.2454 128.538
64.4945 170.543 70.8284
20.9766 78.5646 128.211
54.6363 115.339 134.092
57.8366 112.08 41.1922
42.3169 38.2823 139.188
35.4085 53.6564 65.6449
49.4331 187.128 261.099
50.6395 81.4655 169.578
28.1408 109.521 98.8735
27.4619 118.61 79.2086
47.3181 46.0976 128.672
23.577 109.613 92.5171
34.0521 129.33 83.1542
82.3805 172.462 152.779
76.2565 25.0272 74.4492
49.7193 163.316 86.5674
44.7974 132.489 213.981
37.9659 39.3677 123.699
28.3597 116.937 100.554
80.2597 32.5766 60.4583
58.5775 153.231 125.68
60.8473 76.7773 134.761
72.7346 160.396 61.0985
71.8334 44.9008 55.5994
63.3478 24.1331 82.9534
56.3319 95.6858 130.463
51.7273 218.951 269.619
67.4648 51.5314 52.6398
99.0944 161.307 34.7253
69.5086 184.845 150.323
61.4254 144.724 121.161
51.6633 169.693 90.1028
82.3195 88.7604 156.346
20.3321 210.641 262.78
68.5892 86.8104 134.435
31.4562 80.2655 53.0954
28.7557 95.5917 52.3926
59.702 64.6286 122.106
40.2004 65.4555 160.556
45.6764 156.234 95.1707
24.6048 208.091 258.21
31.442 78.1353 153.679
83.3243 67.5196 160.524
34.9078 49.955 145.893
17.0109 150.144 229.719
97.6781 22.6952 84.2102
54.9121 51.1016 162.002
75.4084 190.407 149.387
29.9478 49.2238 134.943
42.322 160.03 103.106
44.8952 137.248 153.415
24.0009 164.478 245.802
41.5279 112.48 49.6835
46.9306 52.6733 50.0593
41.7014 61.1467 155.215
24.0844 84.2417 62.7121
68.2922 126.635 121.807
23.3923 120.757 115.675
53.0685 145.028 156.09
80.8551 157.372 55.7338
56.6471 115.106 125.336
64.1793 59.7916 161.053
77.4987 181.828 93.6985
42.6152 44.7311 149.771
37.3564 38.8942 111.363
53.3603 188.625 269.443
67.5322 86.7504 32.2568
91.7921 174.007 53.1816
49.8485 90.4052 40.072
70.2958 24.1142 80.3394
68.6029 90.3398 177.789
67.565 41.3613 156.007
51.0895 66.1822 157.058
27.9408 123.064 73.1878
79.7427 39.5131 55.8594
18.2594 149.794 243.004
52.6271 31.7885 74.1233
55.8736 52.4006 115.417
28.8505 50.6355 127.312
14.396 91.6695 102.265
24.1351 81.0276 143.341
66.9786 163.914 66.3647
30.2116 131.49 119.49
66.7018 137.702 123.206
24.4998 130.855 135.279
21.1527 110.555 134.379
32.3391 130.747 236.441
36.7889 85.4642 47.152
69.5867 78.6214 33.7029
20.5314 163.753 239.18
53.0255 199.013 262.292
47.7931 131.542 145.211
34.4553 71.3704 156.12
55.6607 86.0351 135.121
71.0033 52.444 123.929
29.3857 75.1737 138.088
17.9337 118.863 125.544
32.0635 178.201 261.799
97.2001 49.171 53.507
18.5853 97.4933 117.319
19.6951 198.96 259.832
79.0386 172.471 72.0091
62.0095 65.6998 39.1697
70.3817 55.0022 43.3174
20.7294 162.863 224.096
80.2856 176.146 110.842
65.869 68.4014 162.847
102.991 82.6423 36.5772
86.7401 116.302 155.764
35.467 142.067 119.998
57.6462 59.2545 42.5238
87.9035 130.99 45.2323
41.1211 151.781 89.8047
122.258 141.551 20.1045
43.6524 194.585 255.724
74.5484 178.12 149.631
81.6233 37.0133 150.376
70.2636 46.048 137.657
52.4949 40.4052 64.2082
19.6585 186.731 264.836
39.1812 185.894 256.068
18.3134 96.8393 81.788
56.4708 76.0099 155.115
61.0669 70.0153 151.846
46.8913 164.805 110.25
48.1552 88.3699 168.896
72.5487 135.222 120.395
54.8157 92.8617 139.279
64.911 157.012 63.0917
37.1418 60.6455 58.0171
80.6529 182.229 149.128
59.2711 165.145 113.65
47.1864 66.8367 164.308
25.4679 90.6097 68.2503
26.9228 70.991 126.202
75.7294 33.7479 141.217
65.2183 88.6896 129.247
49.6794 143.924 147.285
56.3014 52.0691 125.369
18.5886 97.5268 132.805
43.4736 78.1124 46.6827
35.4797 103.679 48.5595
50.2926 63.6416 121.059
34.0246 95.7757 46.406
50.3397 180.559 273.567
42.7457 143.882 144.509
25.0213 57.3638 132.614
63.8746 39.3935 59.0345
31.7687 191.767 254.349
21.3923 112.284 75.4644
23.0051 64.3461 109.324
60.6777 72.7205 163.123
90.0916 164.491 63.7243
59.8019 48.7086 47.9027
63.0098 145.932 128.203
85.1139 145.294 121.315
70.3042 37.6416 147.121
39.124 122.448 58.9964
68.3554 107.106 38.6915
41.835 96.6033 44.0622
52.2566 101.632 139.222
81.2397 52.461 45.5534
42.8033 117.91 157.36
80.7204 19.7954 101.095
86.6798 16.5191 96.1907
18.7267 212.873 271.998
52.1923 125.944 133.173
20.3171 105.985 86.9324
35.7531 117.322 155.532
27.651 138.281 129.826
102.686 26.3876 79.6394
92.7136 70.3813 38.8692
23.3074 100.729 126.241
76.4858 148.448 117.585
39.3033 136.106 83.9504
38.8769 163.419 253.336
71.1376 148.564 133.169
36.7063 200.173 253.424
20.3172 86.9519 78.8766
88.6617 150.088 48.6193
39.8963 151.016 128.547
25.692 116.517 135.576
17.5296 86.4345 116.576
21.5804 73.8846 87.4437
68.1695 177.331 76.7314
72.2107 175.301 111.787
137.256 70.5441 74.383
55.5041 211.339 267.091
84.0138 179.178 89.7437
102.604 102.184 35.555
22.5931 65.458 127.407
94.8047 78.5892 37.3885
103.345 163.91 64.0392
24.7736 63.888 136.883
48.4979 101.823 172.746
89.2393 161.291 31.0223
82.9354 179.849 166.473
72.1493 151.858 58.3955
47.0875 200.837 256.027
68.3159 32.828 70.4704
19.0121 85.1271 93.1683
36.4727 150.046 111.486
59.7733 84.9063 34.5161
40.1013 152.763 121.387
89.4292 30.8763 67.547
23.6072 122.691 89.3327
18.9277 111.669 124.434
67.3976 138.457 131.352
103.172 173.313 100.747
52.6782 101.368 40.0732
90.896 153.34 136.349
99.772 165.549 115.409
68.92 70.3897 153.259
79.7151 112.377 172.385
42.2166 217.69 258.325
91.5537 159.361 57.6381
67.3729 176.568 150.564
28.768 127.922 102.122
53.7281 32.1836 97.8397
49.0562 74.5372 164.43
46.3491 32.3818 133.565
75.6677 19.1957 89.7744
84.429 170.563 66.623
86.2164 90.245 32.8964
32.7585 90.1133 52.8112
49.0864 158.225 80.1896
15.3582 105.52 100.291
31.5723 65.8748 61.167
102.92 21.9705 94.4945
53.702 54.2117 46.6091
43.9642 126.473 63.3975
25.2945 217.427 268.771
54.1536 157.344 72.0598
51.0106 39.6032 99.9569
56.7728 125.855 120.836
91.3156 18.58 89.6199
35.7729 42.5973 133.525
32.0646 139.904 94.7691
62.1669 74.1306 171.646
24.8094 89.5897 143.445
109.971 25.8124 87.5044
90.9849 163.185 131.677
48.6764 141.949 131.408
80.1488 78.539 33.1204
72.8595 79.1567 173.669
75.7027 188.225 156.769
21.8768 82.0883 122.128
20.3258 112.237 113.065
21.2985 158.152 244.662
36.0834 172.178 269.399
79.2042 49.2473 51.5501
135.138 51.88 90.4872
85.3181 146.705 129.273
68.1775 142.282 162.941
22.6421 115.22 102.849
23.2326 123.668 100.102
46.3615 129.318 222.418
26.8141 87.7246 56.48
42.3352 208.081 254.63
67.8892 104.178 130.397
21.2728 104.746 138.863
49.4711 71.2969 40.5077
80.8195 164.498 60.4721
25.9747 61.6702 85.466
18.1999 95.6249 93.9489
84.7527 189.732 161.096
31.6169 89.943 143.594
47.2473 91.1059 148.379
97.7942 114.544 158.605
24.6721 230.383 6.56367
51.8014 42.6237 143.22
88.2999 73.7081 169.292
94.1625 167.063 110.491
86.9206 99.2163 32.8874
72.2835 170.492 69.3499
59.2663 34.8766 65.8524
27.6903 159.701 214.508
80.4233 171.14 45.6624
62.2349 137.251 166.16
63.608 92.0378 135.615
65.3693 176.321 111.032
45.5319 100.385 144.082
68.5882 66.2499 169.227
77.7605 154.854 130.097
51.5319 78.7895 148.701
20.7165 89.5721 134.562
68.2472 165.389 128.498
47.9743 131.795 238.739
103.151 128.574 154.284
57.3904 160.957 128.297
76.0448 68.2143 151.756
49.31 174.034 225.945
36.5035 73.1445 47.6228
44.2578 105.387 51.3186
84.2335 98.4849 161.648
91.0239 105.465 166.737
23.5553 95.6346 138.907
89.7539 79.5955 164.984
113.572 66.5611 48.2951
57.8572 93.4343 35.3746
27.1049 121.859 144.625
91.2305 178.22 94.8754
68.2087 200.42 271.456
78.8127 52.5249 157.839
54.0109 170.674 103.954
43.6255 118.591 56.3432
23.9918 101.706 95.2314
77.7296 44.517 143.789
91.2726 140.347 154.125
65.2941 42.066 147.799
42.2036 96.8072 165.78
62.3043 114.524 47.6113
83.9765 162.309 131.023
73.8121 179.524 103.869
51.8867 147.034 136.681
23.8006 101.015 145.009
60.9381 174.973 101.453
109.17 29.1868 79.9684
45.8387 67.8241 156.124
73.481 75.2213 168.73
94.6076 161.649 123.214
96.6071 19.5101 99.6045
33.2414 141.037 250.63
102.572 61.1597 47.7447
66.9181 69.8037 35.328
58.797 43.9519 158.516
57.5061 202.296 270.823
58.383 103.014 178.419
72.7717 64.01 40.0272
87.7034 142.568 141.093
88.2733 18.5124 104.291
80.698 133.048 126.254
108.676 93.7536 35.7708
42.911 177.714 264.607
97.45 170.087 65.9982
67.7991 47.8917 130.076
40.4834 44.7618 139.808
83.4692 146.752 137.291
54.2082 174.184 95.9363
56.1866 107.518 132.668
113.538 28.3314 94.8848
83.1286 35.4291 114.029
46.0372 32.0472 102.392
57.3279 124.896 173.513
26.5432 72.1537 63.6381
66.5439 130.138 49.1366
61.316 100.152 37.5961
33.901 223.901 267.979
58.5217 154.052 137.548
15.6443 109.419 108.963
63.3331 27.8632 73.1579
42.9536 46.6656 118.962
28.8104 57.656 104.526
54.8172 39.3257 149.616
97.2881 162.328 130.189
96.0864 64.8298 44.4248
47.0163 38.0732 81.4511
69.2414 118.98 42.242
81.9475 90.4974 176.232
74.6806 87.1682 33.0157
48.1375 52.2863 115.327
85.7296 114.66 171.135
22.5436 140.705 240.65
102.153 111.234 122.116
51.6158 109.4 48.147
82.6239 189.878 154.39
63.0784 79.1295 143.546
79.0692 162.804 134.781
98.4042 176.769 34.1806
77.0378 142.433 50.2535
45.5418 102.898 44.2956
72.832 172.845 122.753
56.5123 75.6583 37.2053
62.4997 108.842 126.003
49.6 140.869 159.255
87.1248 176.111 73.0804
95.681 176.477 85.2201
74.1988 50.1305 151.709
21.9962 82.5792 69.13
28.8683 149.977 253.022
86.4512 131.731 144.932
42.1597 131.932 140.409
82.1833 81.3073 168.876
64.1247 154.92 136.309
49.5891 122.85 55.7293
82.9609 135.647 162.003
55.7608 84.2206 145.103
63.3438 179.377 86.8518
60.2436 152.624 67.0457
18.99 67.7999 107.56
98.6848 159.777 138.57
18.8646 74.6957 119.36
88.6821 81.9277 34.7035
118.798 82.5719 44.4227
67.9747 95.0489 35.719
46.9231 222.787 273.431
63.2741 140.672 54.7635
102.693 169.507 74.2746
22.7428 121.329 82.597
58.5007 65.7255 160.237
14.6512 196.584 270.514
67.9344 60.2592 127.452
105.123 88.2746 43.5851
40.1387 144.549 137.661
67.752 171.995 119.318
59.7635 162.595 71.4787
69.354 183.197 90.9412
53.886 128.711 57.8591
51.3485 154.329 253.984
118.947 107.631 45.8188
119.401 171.661 83.1508
102.2 25.2401 123.876
59.1607 139.347 227.691
33.271 90.0164 150.669
52.9661 32.3145 108.452
34.7667 69.0977 52.9508
81.4866 173.388 50.7244
64.7189 111.113 133.732
34.2043 142.012 129.866
88.0017 124.695 162.311
84.5267 125.006 148.946
35.964 137.192 98.9244
27.9511 174.657 232.403
135.779 130.056 55.7129
27.5552 133.545 109.388
72.4218 15.5563 115.953
46.0424 158.801 124.704
81.1204 132.649 136.18
80.5855 109.716 35.9133
78.3188 93.1214 171.119
78.3762 118.507 135.547
77.4978 60.4098 153.167
43.4142 44.4683 106.84
41.8501 129.316 153.893
79.4951 99.6842 36.8008
87.1274 26.2185 114.253
116.988 126.908 47.1607
77.14 156.041 139.482
35.4821 145.776 253.437
138.195 70.5568 82.1641
68.1314 116.238 127.031
50.7858 177.74 239.822
28.8961 98.3961 150.68
40.4423 102.07 143.154
85.789 25.899 75.5136
87.2589 118.445 39.5354
133.645 56.6484 88.6415
61.5484 81.1152 173.773
99.2792 38.0534 65.0302
58.3099 175.082 88.85
69.7061 78.7666 142.482
96.4376 96.4899 36.0529
27.0258 68.5075 118.903
58.2106 167.77 230.593
57.4329 167.05 79.1607
59.3836 84.2712 140.165
21.5052 94.7151 60.88
108.916 73.7868 41.9672
94.5971 17.2604 106.061
75.3473 160.276 126.218
96.379 129.394 42.8297
52.9174 40.571 154.87
32.427 105.672 153.581
31.2774 175.919 243.176
42.4485 102.99 153.127
60.4221 40.0053 147.88
84.8256 171.472 113.847
49.5753 171.807 248.47
82.8517 175.967 78.5167
76.8712 169.834 126.527
46.0822 172.125 218.523
48.9191 139.117 65.5288
29.0215 130.695 142.513
111.45 147.991 147.236
62.488 165.12 123.34
27.6697 174.618 268.976
93.0869 73.8444 160.265
50.2526 162.256 118.813
19.1292 101.191 110.737
14.6271 96.5286 103.565
111.246 169.475 118.501
60.7941 126.635 132.593
85.608 103.22 172.15
40.8353 41.5913 100.303
82.5598 78.0082 161.652
73.9104 40.0137 152.358
126.854 104.195 45.5861
45.1585 182.343 235.591
84.6047 56.6541 152.666
66.6539 162.079 134.32
16.8942 112.974 94.3351
23.5047 77.6399 72.0649
130.037 98.046 50.096
62.061 126.375 119.15
66.977 45.6737 48.2437
44.4624 147.203 78.7277
99.3206 143.304 150.794
69.6596 5.04537 124.397
21.6599 115.001 140.3
44.5273 37.6233 94.6891
103.753 172.598 34.94
122.693 65.2864 53.6704
28.6266 49.7855 121.001
130.272 82.537 52.1626
79.4195 64.9186 41.159
38.9796 140.653 131.858
70.5094 182.876 83.5023
104.769 169.395 119.683
43.6005 116.548 144.565
79.2188 43.4879 125.836
76.7568 50.4093 134.687
93.7183 160.422 47.5098
81.8832 154.038 146.759
67.7999 20.6284 91.3072
44.3008 151.35 137.329
76.7632 126.446 171.353
73.4123 151.045 144.653
93.5029 22.7912 122.187
72.7984 147.231 155.437
84.3576 164.4 50.0258
54.9659 146.733 64.1139
89.6392 175.313 107.55
94.0909 22.6694 109.939
132.055 108.552 52.2508
58.2211 32.2824 144.933
30.5386 65.7315 105.435
127.527 57.3248 67.1747
102.785 175.363 82.5623
48.5543 150.641 71.9916
60.1216 161.518 239.772
99.9923 20.3942 109.828
48.6437 48.3036 107.094
74.0691 62.9353 142.797
112.314 118.297 40.4887
134.769 91.0581 59.7117
43.6906 139.179 70.984
107.817 166.119 126.287
52.0115 42.4649 106.114
85.4709 104.941 152.769
46.7308 166.976 100.232
35.3636 133.148 141.833
110.526 168.38 71.9994
80.1526 173.091 119.006
98.7917 32.9035 76.5329
44.2059 69.8842 46.3866
96.2877 132.7 156.147
25.312 189.868 256.873
80.1519 99.4586 174.429
30.8793 117.545 150.285
20.98 101.758 100.513
52.1288 165.432 77.0207
122.825 73.8668 50.1993
138.289 63.8431 86.0983
47.5158 136.622 139.658
67.7397 126.912 174.055
89.0456 89.0523 167.437
103.558 113.432 112.623
67.6928 65.4402 135.151
37.1522 151.614 99.4621
93.1692 90.2161 33.1944
83.0175 72.2058 151.447
98.861 120.464 40.059
105.769 104.213 44.6825
129.058 116.723 49.8838
77.4326 77.0668 156.562
117.122 171.625 119.862
47.0326 38.3299 145.829
89.4348 179.262 84.055
133.859 148.472 132.655
62.6616 59.0325 129.779
103.947 151.629 145.44
21.9812 179.897 273.698
89.3265 177.99 42.1762
114.915 10.6572 161.995
131.901 43.821 98.2106
99.3746 159.421 57.0792
97.8983 170.984 125
26.5093 107.445 145.229
98.2784 171.914 42.7597
82.8997 121.712 167.754
105.68 124.696 42.5502
83.1618 82.5681 174.708
109.837 49.0289 63.1879
34.2723 131.56 222.358
127.756 169.116 85.5734
111.416 101.893 46.1998
136.708 102.062 57.7093
135.85 44.3901 107.93
35.2485 47.9532 92.2202
65.0518 180.107 104.99
30.6054 82.7166 147.793
106.597 175.726 90.8959
41.8098 152.26 102.99
103.119 170.731 129.049
127.992 64.7 72.4559
137.855 53.5511 110.672
43.2409 154.108 253.997
114.71 135.658 148.937
36.6937 100.897 155.544
105.104 111.818 159.965
115.085 136.968 48.991
92.1793 112.69 162.979
134.927 121.316 52.1128
87.2363 160.306 41.8623
100.605 135.354 47.5219
77.1815 9.04368 126.953
32.7881 172.305 249.002
83.7881 41.3643 129.634
45.6986 77.8704 150.768
69.3149 65.3772 109.276
45.3536 37.6308 108.758
121.157 92.6304 51.1299
37.3526 131.524 97.0341
76.3423 179.725 160.53
24.5282 136.82 228.963
121.907 31.223 97.2366
26.4297 97.7581 59.5564
119.975 116.839 46.8579
135.006 143.522 59.0847
111.749 163.289 132.541
90.6825 62.5626 42.5684
91.3308 146.281 148.587
106.668 138.404 48.1525
78.1926 93.0421 33.8997
33.4722 134.065 91.5538
94.2113 35.4059 118.099
86.0204 24.2441 81.1242
121.847 146.401 141.933
89.6162 39.9772 64.8985
73.5855 5.38475 133.059
13.7083 61.0459 60.0022
133.052 98.3512 102.473
100.402 32.1369 145.465
91.0948 130.487 158.472
136.595 117.666 56.5665
37.5739 17.7352 108.108
80.4679 123.106 41.3136
103.498 176.319 113.486
96.3226 151.77 140.988
84.826 142.679 151.908
125.48 94.3179 104.56
86.058 19.7724 113.142
103.662 24.6362 114.521
114.635 174.351 102.941
123.95 73.6371 56.8836
41.3235 164.612 210.245
104.06 75.4806 159.656
71.1042 16.8363 106.295
69.0098 114.263 176.498
70.5252 39.3377 116.899
68.8098 80.0741 136.806
40.2867 42.9797 78.9204
136.983 68.7195 64.3045
95.3341 20.2712 148.614
86.2646 51.4525 132.545
30.2238 141.454 108.226
86.2846 68.1776 41.813
123.864 65.0441 61.5467
104.076 47.4863 60.3734
57.8225 162.6 222.69
116.017 29.1444 107.424
122.81 35.2131 88.5267
76.3369 11.9404 111.201
129.236 61.4326 144.5
42.2724 42.1127 87.4063
110.376 130.41 150.492
76.9339 56.9342 145.284
64.9615 42.1017 112.979
121.931 174.473 105.574
128.987 126.462 50.3381
25.954 173.045 274.184
83.4919 55.4127 144.126
128.041 132.98 50.9701
30.4945 52.2214 94.2309
118.539 166.143 69.6722
113.684 54.134 145.747
29.0446 140.127 216.204
85.5118 62.6001 40.0183
123.278 41.8597 81.521
79.7684 17.479 111.858
42.8706 80.7493 157.087
76.6478 51.2566 144.67
106.532 32.9016 119.678
71.2708 52.4435 132.006
136.549 165.582 102.966
112.08 35.3194 71.6381
92.8806 56.4019 159.653
94.1312 95.5037 168.756
118.768 58.9667 60.1415
112.979 172.755 88.887
94.165 154.501 147.046
88.5768 167.606 107.899
126.974 144.238 55.9685
39.1743 203.842 274.285
131.382 52.3493 82.2141
104.396 51.3095 54.6511
125.563 166.93 123.397
129.461 66.1128 61.3478
104.2 33.3471 141.916
137.518 165.044 83.2004
92.2488 173.015 37.3673
86.2899 174.934 36.7953
100.2 27.5501 139.887
75.7017 21.1277 107.509
103.167 104.406 160.757
131.065 223.19 120.203
97.7459 57.5606 155.791
73.9121 63.6217 159.065
87.157 179.284 33.6221
137.507 136.362 57.4222
109.052 24.3326 112.317
112.78 40.2284 135.842
70.565 138.148 51.685
84.4436 50.4245 139.292
74.4848 56.5922 132.511
138.632 125.066 59.9519
108.795 53.5241 151.61
127.546 154.983 134.142
138.42 116.218 63.3218
69.5407 146.953 54.9789
104.821 175.306 125.732
51.2135 144.375 72.863
59.3183 141.5 64.038
134.176 56.7711 135.883
124.333 169.918 113.506
55.4715 211.598 274.702
135.36 154.804 65.2473
98.5666 32.4398 131.142
136.021 160.736 74.3861
44.7337 78.6826 161.873
130.625 169.453 98.5881
126.897 38.1475 124.89
110.882 37.8303 79.7402
115.853 65.6859 151.244
108.852 68.6917 156.187
107.894 157.794 58.304
91.0397 165.211 50.7302
76.8031 175.008 46.2382
138.76 84.9734 66.2219
39.5959 223.323 274.8
119.359 161.733 135.264
