ply
format ascii 1.0
comment Created by Open3D
element vertex 398
property double x
property double y
property double z
end_header
38.7587 163.469 109.253
27.3911 129.057 166.896
43.3953 107.877 160.624
36.3779 140.067 97.3481
65.8399 120.375 103.115
19.7777 133.731 121.537
56.3806 122.161 157.043
52.6321 98.5758 145.363
12.1464 126.497 148.351
13.9041 129.626 114.799
21.2051 160.923 162.761
14.9876 167.829 134.184
44.9781 145.314 96.4213
19.6463 150.89 114.267
28.8532 168.027 160.374
19.8811 162.964 114.661
58.4092 100.263 124.369
72.1863 110.526 130.985
31.0563 142.74 109.889
31.6069 148.763 113.071
29.2383 119.127 123.644
70.7145 158.072 121.019
45.3381 108.904 104.267
25.1373 174.527 120.715
63.815 129.347 150.537
30.873 118.141 130.569
26.0205 107.054 126.933
52.9535 158.773 135.848
36.5035 146.329 156.729
29.3275 163.461 110.782
13.5637 141.54 118
15.0792 151.176 156.481
34.6541 126.242 114.489
24.7767 143.893 114.316
44.2779 152.794 156.305
37.559 137.705 117.424
27.2873 112.318 121.053
60.249 159.24 111.931
39.9394 167.61 151.355
30.6048 136.639 117.531
52.2799 160.648 110.384
32.0294 124.247 135.182
51.7669 124.506 144.717
26.662 130.675 147.872
30.5339 128.052 123.947
14.656 161.866 153.629
22.5981 126.855 120.928
12.3445 155.529 119.638
33.8991 175.556 139.32
31.7412 156.716 107.977
20.4263 109.86 118.113
51.4577 122.599 135.152
30.8496 177.151 132.154
10.5693 158.866 146.665
38.1133 127.578 137.894
39.9427 173.511 145.646
69.7741 129.57 103.986
28.7126 108.086 139.692
11.2377 148.958 115.298
24.6791 116.703 131.636
58.528 111.576 99.0054
36.4933 125.58 129.099
49.0131 148.207 155.56
12.5011 138.233 126.66
7.79091 160.744 137.012
12.9207 110.524 139.033
60.2164 100.351 149.001
40.9242 105.94 131.518
56.4781 127.692 163.502
38.7778 93.4848 137.778
22.3697 121.124 168.329
30.2994 170.784 126.471
25.1255 148.757 105.036
17.4936 115.313 127.277
52.9601 103.416 152.5
48.21 127.188 117.669
45.3826 115.924 129.762
24.0075 139.868 109.987
79.428 124.323 131.682
34.3688 133.074 147.975
48.2479 159.73 126.123
23.3529 157.554 155.89
37.2365 127.323 145.193
32.2814 136.195 162.664
30.847 136.977 153.34
45.3639 154.98 146.873
10.8539 186.757 42.1927
44.6464 167.392 129.721
47.8109 116.72 92.4707
43.5123 127.387 129.691
21.1464 109.749 105.425
48.379 119.805 165.677
27.4847 142.513 100.189
27.2268 96.9077 148.094
74.8241 116.607 125.163
46.2465 133.721 120.299
27.4125 131.069 96.659
23.2866 154.997 106.834
43.4353 116.466 157.129
15.8651 118.713 133.931
25.0006 188.435 31.4107
15.3245 118.591 152.746
38.7914 97.8996 131.657
41.0122 134.714 142.939
15.9095 169.545 124.472
36.5178 102.653 137.814
5.25392 140.856 124.089
13.2551 141.608 157.282
39.7023 96.1507 124.89
29.5756 160.001 164.328
51.037 139.985 101.96
51.9492 174.1 129.763
67.9416 109.312 143.838
53.1824 153.978 143.764
28.6192 124.637 144.258
32.3212 119.758 108.748
49.2087 173.092 136.947
49.0906 109.656 98.0542
31.4401 96.4635 136.214
54.1129 141.34 155.66
46.491 154.406 139.081
40.734 155.126 170.384
62.8278 131.747 158.154
11.7198 131.308 139.853
60.9952 141.735 150.708
15.4308 182.617 35.8349
26.383 100.803 132.506
39.6117 128.608 121.487
48.1352 135.052 136.967
33.4116 105.536 106.662
11.9298 163.242 124.402
66.2607 108.351 121.436
58.6736 154.502 154.193
19.3787 129.109 140.065
40.2223 171.782 158.251
19.4123 107.672 129.014
49.7562 171.22 120.647
47.818 172.887 143.997
20.0812 127.808 98.2868
51.984 150.87 131.289
21.6102 130.604 110.983
24.0604 173.746 135.043
52.5863 139.887 94.16
29.6989 100.041 157.875
42.5479 161.839 137.375
18.0519 125.215 157.959
54.0791 135.975 124.931
36.3529 110.128 153.186
16.0322 135.149 149.632
74.9571 116.144 136.612
36.3158 122.214 151.721
64.0755 106.61 135.958
24.8825 114.251 99.027
37.6759 99.8533 111.074
52.8331 168.689 157.583
39.667 144.132 148.83
58.31 98.1799 135.301
15.2768 155.089 110.426
10.9014 121.781 127.536
53.269 117.662 127.655
40.3676 151.501 115.073
19.5849 166.967 149.401
54.989 159.867 127.499
38.5154 152.932 101.205
45.5355 142.11 121.62
59.7738 108.013 108.923
25.928 103.293 108.842
28.7526 113.126 93.6188
26.715 131.69 105.045
22.7185 102.289 147.786
76.4575 135.43 141.423
44.5423 142.49 142.949
19.5015 171.163 142.749
38.814 101.817 118.234
21.5382 103.723 135.818
33.1989 168.735 114.635
36.2072 116.109 128.689
78.0811 127.599 123.66
21.0427 110.083 150.49
19.0175 185.707 20.3802
56.2032 162.865 142.871
15.2802 131.153 106.48
52.6277 134.761 131.923
19.5891 141.692 159.649
36.5352 124.133 92.8468
63.7431 140.472 109.666
20.5428 113.706 136.985
54.6922 128.586 120.536
61.5292 108.163 149.989
27.6624 115.844 150.463
66.2544 161.413 154.061
22.3604 170.246 125.596
55.2285 118.995 98.5342
26.9182 108.536 156.346
50.5659 113.526 151.678
18.3516 109.464 144.192
60.9508 117.684 118.925
46.6513 167.53 163.363
12.5608 175.091 28.1452
27.9049 124.468 114.639
50.9091 166.013 115.461
41.3093 113.107 169.117
16.9975 178.586 19.8312
32.0161 109.801 133.157
55.7058 145.48 165.856
32.24 172.673 146.78
54.791 125.691 113.326
46.6617 164.55 154.417
45.5088 153.645 180.906
11.2401 126.662 133.043
32.5007 149.037 101.664
6.09345 153.488 128.221
64.9417 110.047 114.792
42.5025 170.6 116.292
75.2497 135.691 151.206
5.44072 134.821 135.966
44.1061 96.244 114.749
28.2685 100.102 119.867
54.4324 112.941 161.6
64.9767 100.534 134.36
55.6907 141.788 130.289
45.8713 164.958 144.215
26.4006 171.483 149.372
80.3857 135.427 128.591
49.6131 111.726 136.138
53.9368 141.15 139.346
19.0156 189.726 25.7098
12.886 120.181 146.257
48.1768 160.882 165.148
55.2621 146.969 98.3638
23.184 127.628 132.447
49.0388 148.281 110.589
23.3674 173.117 27.8785
62.8495 102.362 142.638
42.5878 119.773 143.658
56.1781 131.295 157.297
20.5906 106.02 159.711
24.5808 123.096 159.353
34.6034 135.748 109.684
29.5159 143.877 171.719
14.15 122.799 140.236
11.9761 120.097 118.006
34.3146 143.569 167.453
32.1095 173.851 119.57
65.627 138.126 127.45
73.4298 157.804 130.899
56.0716 104.732 101.389
19.6148 114.966 157.098
35.8379 114.809 144.532
31.3952 125.226 157.2
64.1358 108.177 130.27
13.854 186.942 21.5122
6.40157 183.046 38.086
48.8087 155.797 121.659
37.8281 156.876 146.971
15.4179 129.988 154.51
55.0364 164.506 150.68
73.6473 127.911 148.975
34.284 98.3251 147.529
69.5591 138.232 154.538
46.9512 137.322 130.265
43.4698 147.954 171.846
32.0194 161.912 147.547
26.6132 135.242 161.034
77.6494 127.86 137.179
58.5708 172.22 141.662
31.347 104.009 116.226
30.5015 181.637 14.3308
77.4143 124.384 111.29
55.258 115.06 139.292
11.2232 134.596 144.099
51.1913 150.076 168.65
47.5887 151.128 117.069
75.334 154.78 140.084
15.804 116.687 121.303
47.6251 144.291 164.699
63.0488 136.984 161.916
49.7367 102.588 123.833
9.35773 128.111 123.185
41.5205 119.675 98.1734
39.3841 162.914 168.341
18.007 139.608 112.242
25.5905 182.038 22.4381
71.8362 141.461 103.99
23.0872 147.725 156.38
63.0663 170.632 132.115
39.5 178.941 124.877
74.4968 118.747 145.609
67.8899 153.824 127.693
36.5816 172.457 122.115
57.6433 163.242 121.048
25.2 144.574 164.039
18.2773 194.678 33.9119
54.8918 126.509 98.6969
52.974 97.2532 136.847
36.9177 107.611 100.575
26.6716 151.047 161.011
42.4431 142.493 156.301
61.4725 127.096 109.562
20.2251 195.065 28.4164
65.9679 168.238 145.347
63.7989 122.663 156.049
71.8047 154.918 113.292
41.6941 171.446 135.169
21.3792 176.915 30.3983
68.968 120.431 148.888
31.8385 127.602 101.202
5.93684 143.634 117.689
48.988 112.92 164.307
26.8532 111.886 112.213
28.9715 120.244 98.167
56.756 145.421 106.279
22.3952 97.2124 140.167
72.6157 163.351 143.401
43.7563 101.115 126.637
21.0505 119.825 100.755
61.0965 167.122 125.268
40.0595 145.537 165.348
58.9237 140.355 136.327
67.6802 150.777 110.816
9.60023 142.91 148.198
60.0838 156.089 147.657
30.4197 116.658 141.512
38.9606 120.894 136.395
60.2259 140.131 175.183
59.0746 147.624 157.406
51.6375 137.942 112.655
44.3169 96.9758 140.79
48.5325 157.57 102.885
8.29744 191.403 29.4557
79.1474 141.171 127.385
64.9534 154.113 160.052
22.4307 114.026 164.448
58.7482 137.249 112.039
71.2193 148.009 161.057
42.5919 102.107 106.852
72.3023 115.824 113.545
64.1249 146.466 137.58
52.8098 165.049 130.983
4.45721 146.913 142.648
48.3878 136.812 146.736
47.2601 101.225 134.894
50.1329 122.473 105.026
80.4785 147.798 124.784
36.1544 102.199 154.505
5.92263 150.153 149.505
64.9736 141.254 99.8523
34.1784 147.736 173.425
50.8108 124.695 153.008
74.9844 121.231 118.6
30.8663 152.626 163.986
81.3325 141.174 136.114
67.8259 141.683 159.768
59.1029 149.046 129.572
77.4816 105.045 137.869
38.0075 131.194 172.516
11.8131 131.449 128.458
53.9584 162.675 163.33
52.673 130.757 169.613
55.9364 114.223 115.159
12.5605 195.058 27.8943
73.4853 133.759 119.074
34.6009 110.38 141.384
46.4103 149.728 129.322
42.5121 156.762 124.574
37.6905 129.358 94.3734
63.8118 132.924 102.669
64.612 137.039 142.299
55.3218 110.332 124.889
8.05474 181.073 23.0339
55.5606 168.159 128.148
4.43625 116.552 93.1682
15.2279 133.431 159.691
36.5106 127.461 99.3742
34.9582 150.01 163.024
19.3856 135.417 162.603
52.4079 141.859 108.802
80.4594 137.654 113.997
37.8489 139.921 154.655
43.5464 119.106 103.981
36.6975 182.876 155.401
34.0606 180.307 157.737
45.0747 174.36 130.786
37.5408 165.741 137.318
26.3951 180.158 29.3718
13.4129 74.5585 184.295
51.2931 165.751 92.2902
43.8686 121.742 149.296
26.7005 103.188 137.659
70.8448 149.323 131.022
58.3717 162.3 156.179
64.5813 119.937 151.303
69.3094 147.98 104.367
39.7562 119.759 168.126
34.5577 133.867 102.433
46.5422 100.638 103.078
42.1914 134.125 172.836
52.1033 159.874 93.9264
