ply
format ascii 1.0
comment Created by Open3D
element vertex 568
property double x
property double y
property double z
end_header
79.7398 180.046 213.429
16.0561 129.401 105.735
73.4533 207.567 202.56
80.564 170.846 208.934
75.5286 200.286 209.244
22.0394 145.974 187.559
21.5842 159.96 155.602
10.8225 131.728 112.267
89.9708 169.104 212.995
4.78707 146.759 139.547
28.0281 132.457 192.961
4.93923 130.687 136.762
70.9923 208.052 193.396
100.606 207.364 198.196
6.14189 147.867 173.727
79.082 189.403 213.086
98.0156 188.66 100.456
133.257 117.202 22.2264
110.181 197.114 199.358
59.1872 175.062 131.87
3.90173 122.827 177.731
91.9205 207.044 170.637
103.112 115.032 77.1433
60.9712 118.511 186.243
52.3011 170.286 141.546
19.807 157.935 147.512
66.4798 188.43 191.329
9.85531 152.089 134.468
66.5057 147.87 100.775
61.3568 133.78 171.904
94.3365 209.598 179.437
7.07207 143.512 168.222
28.2058 163.509 151.031
71.9225 207.216 182.916
101.966 205.438 189.275
59.3718 149.213 101.166
87.5281 177.877 216.899
43.2183 80.3304 141.401
34.5747 73.8673 153.535
4.23598 140.658 135.444
107.143 203.329 194.646
15.1571 82.3553 126.122
103.443 202.797 205.629
5.00702 125.029 170.122
5.55597 135.656 186.859
24.0616 128.314 105.164
68.7894 196.839 201.155
27.9161 97.742 105.648
13.8155 132.243 191.206
107.143 146.591 183.954
31.6373 153.116 123.735
16.6653 150.221 128.512
10.3401 151.182 179.156
129.431 191.144 91.9958
44.7925 22.4024 15.2352
57.3541 168.385 155.663
32.4869 126.282 194.6
7.76932 101.138 186.57
45.5451 145.484 184.106
111.308 182.344 86.102
3.30891 123.69 121.835
100.196 202.166 171.252
31.6372 144.092 189.418
94.7374 208.523 187.208
147.632 29.9634 221.446
32.4733 218.745 74.7341
21.0651 165.412 163.934
97.2564 157.123 197.2
68.9602 185.147 204.128
86.8033 212.008 178.025
74.46 194.398 166.243
46.6101 78.1829 126.211
68.8761 197.907 180.965
77.0424 160.137 97.2473
72.7655 138.567 97.3001
3.85077 126.18 114.167
86.6639 184.173 116.645
2.55727 111.437 151.554
78.3147 213.144 187.805
40.8817 85.3165 153.183
87.3929 212.279 188.101
31.826 158.83 141.793
15.059 77.0704 134.181
25.1915 151.951 180.487
97.0677 176.143 217.204
11.0715 144.013 185.255
24.513 161.109 168.554
99.8689 204.51 180.787
20.1524 152.723 138.588
105.33 162.356 202.255
43.5609 99.408 179.728
22.8833 148.49 120.677
34.2687 159.541 129.088
24.7586 155.795 132.088
58.9254 156.785 105.003
36.8924 155.474 168.113
38.1537 112.043 192.523
90.8118 199.792 163.796
107.098 200.625 181.184
51.0792 169.52 132.51
120.893 183.028 84.5734
12.5726 149.918 146.379
40.6701 132.744 190.693
91.9819 194.28 159.093
21.744 135.694 108.52
50.1821 97.3828 106.282
3.25976 125.221 130.167
6.01832 143.654 126.42
27.5036 138.027 110.132
23.6104 145.086 112.959
55.5094 84.8582 126.487
26.3832 157.788 176.149
49.8832 167.739 155.502
44.8949 128.311 190.272
26.8727 119.669 100.793
45.9121 168.731 141.741
69.3651 188.541 177.69
46.1253 156.316 162.931
118.31 192.89 91.9317
105.859 175.328 213.299
78.0436 203.44 170.59
76.5076 173.811 105.917
7.15026 144.4 150.825
46.5403 83.8983 122.753
84.3037 164.803 202.162
116.921 195.001 85.0969
45.6475 111.041 192.297
61.1053 170.11 116.601
3.20055 125.859 184.159
47.3159 150.131 177.551
70.077 169.995 165.847
25.9982 160.378 143.789
111.024 200.155 188.207
3.1035 133.508 147.967
19.0599 103.817 100.797
61.0211 82.1286 140.893
5.3559 97.422 171.245
9.25944 138.842 161.551
19.9787 154.368 184.626
34.5109 163.768 150.669
13.0586 157.718 161.369
44.1694 165.527 133.799
30.5928 80.26 171.74
8.17709 118.842 103.665
7.03038 138.287 118.749
5.22181 111.452 178.78
105.759 192.706 92.6887
40.873 166.566 144.91
51.8803 81.7841 142.783
52.1348 80.8335 163.416
68.5313 177.494 201.32
15.156 154.08 153.27
26.9381 116.686 196.385
49.2752 138.059 100.914
10.1898 164.67 91.6416
47.4848 126.132 100.706
3.2987 138.241 178.089
79.8505 213.171 196.975
97.911 186.087 153.111
38.9196 78.3673 129.892
52.9744 172.034 149.134
114.344 175.724 205.354
32.7926 164.732 159.543
114.919 193.168 194.31
123.725 188.431 91.7555
39.6723 37.0043 38.0456
53.8434 80.9361 154.298
58.951 106.374 189.291
37.1999 158.401 159.63
19.8155 134.14 190.548
69.0179 106.273 179.62
107.939 194.217 207.479
61.4376 85.4335 159.893
101.123 166.844 210.769
4.22311 112.294 185.83
3.31896 89.883 149.675
153.652 202.476 5.52408
40.1982 93.2656 187.288
26.1405 73.4581 153.083
88.7355 199.978 215.773
68.1644 175.605 160.032
91.722 160.57 201.106
8.64973 80.1329 147.233
82.7028 207.873 206.641
34.1374 120.888 97.8078
89.3049 182.462 153.569
66.1149 91.7689 158.557
31.7454 84.5455 114.524
50.5252 90.1036 178.7
3.08364 142.99 162.985
39.5743 38.794 25.0157
93.8367 205.221 207.313
111.904 175.821 184.315
78.8525 164.158 195.046
98.2532 169.095 111.671
65.2996 137.488 96.6362
32.4647 118.665 194.203
47.8927 86.95 113.947
54.0009 120.324 105.83
61.7767 84.2294 129.712
116.472 182.362 196.412
41.3547 90.9088 166.079
67.3481 198.022 191.33
39.1601 219.237 97.9512
5.80226 103.182 177.403
91.854 209.001 196.681
2.83915 112.243 164.144
103.312 180.51 96.3778
69.5062 177.033 131.455
40.9781 166.649 153.234
50.8895 148.515 102.112
67.7353 168.361 109.163
28.2503 73.78 125.963
104.833 194.5 165.134
70.3225 130.549 100.59
2.47212 122.31 146.473
2.77403 102.423 143.78
92.226 169.356 107.278
120.159 189.19 80.765
58.0202 101.085 107.463
41.4896 89.8366 108.365
57.9567 138.273 101.022
43.9566 133.421 104.748
33.0855 24.6128 12.3567
140.185 138.376 273.701
3.71499 128.952 155.938
154.964 103.542 224.229
81.4705 185.71 134.062
4.54511 145.147 184.366
76.2397 187.187 157.461
59.0487 112.806 105.889
31.6881 133.892 103.752
7.72119 128.115 106.224
3.70815 115.605 169.942
26.0334 109.915 193.796
61.0039 165.375 106.916
24.7376 77.7626 132.51
40.1346 142.267 189.404
15.1226 80.1485 140.467
101.815 177.413 152.927
36.9557 156.219 113.112
43.0443 36.3158 27.1385
69.348 103.607 112.452
42.498 122.116 194.007
67.1078 179.357 184.124
8.14859 126.225 190.315
4.61939 112.01 104.339
4.87983 115.544 191.939
72.3683 185.985 166.284
15.528 120.56 100.914
28.4936 75.9363 163.11
115.813 187.719 186.954
64.8124 178.7 144.421
21.0133 122.246 101.486
81.6299 138.62 95.5473
23.8454 84.4901 114.704
3.05453 100.733 161.796
114.102 160.159 185.286
16.746 147.275 120.18
39.9139 144.451 102.54
57.3682 92.297 111.337
4.26561 137.847 159.436
55.7036 128.269 100.574
4.91686 98.1776 106.1
41.0304 83.8276 113.343
34.5042 111.737 102.18
94.6566 188.349 157.467
46.9695 30.8102 15.2107
34.1246 30.9808 39.5449
51.6016 156.999 106.012
57.7282 163.251 159.585
102.753 185.239 88.1882
34.9305 161.423 167.352
94.0841 183.417 147.174
10.174 150.676 153.389
45.5632 163.814 153.808
6.64443 87.7846 122.577
39.5817 75.2892 148.806
33.4494 143.685 107.116
45.4989 155.732 171.666
71.5896 180.504 152.482
24.2095 73.3926 141.822
65.8254 94.479 120.904
35.7354 124.75 102.587
111.336 192.214 90.1263
22.8378 93.2466 185.562
69.3628 122.923 104.553
51.6321 156.283 162.183
71.6948 165.215 101.061
69.4212 177.824 167.049
123.174 173.629 12.6011
77.2449 175.837 159.435
2.39999 112.528 139.357
18.523 114.905 193.102
59.7127 175.068 147.266
78.4886 98.7713 121.361
34.5513 76.867 136.904
64.7511 175.856 124.599
81.6715 182.16 144.237
16.6042 85.4387 173.827
40.509 103.106 194.408
44.3388 31.195 29.7521
30.0785 90.4936 108.535
37.4734 156.87 175.511
92.8325 179.027 99.3166
111.379 174.134 165.758
101.743 134.956 42.3363
80.935 146.483 92.9501
70.6254 178.695 141.622
108.408 188.056 101.683
12.2814 142.42 117.492
11.1797 109.543 100.249
5.2199 86.55 139.813
30.1041 104.646 194.59
65.3472 111.987 113.971
62.464 147.594 168.425
57.9337 42.1074 111.004
51.8607 148.365 174.202
73.058 169.95 198.517
97.6824 185.483 136.225
90.9406 180.61 140.955
53.1761 228.597 80.7631
49.7654 110.855 98.5498
74.8402 99.6506 164.906
5.40821 143.602 146.098
59.4677 90.1067 173.156
106.113 185.141 212.252
41.6242 109.389 98.805
88.2492 180.063 147.241
76.7981 179.677 148.362
36.4068 134 181.129
11.6359 147.586 126.399
30.4767 150.839 114.333
116.383 189.664 97.0838
12.709 115.726 194.833
3.09131 137.032 126.479
72.3822 177.618 119.564
36.3015 132.407 194.959
43.5805 81.6963 161.114
9.14369 106.639 191.729
45.6985 31.66 21.6024
28.1473 74.6278 147.301
40.3614 163.294 123.548
169.012 105.963 192.194
89.8735 146.859 182.179
31.3128 106.462 147.808
150.907 88.5489 61.5199
12.2898 88.2269 112.768
39.8659 21.1191 26.8104
43.906 44.9709 28.8797
86.5696 215.637 81.423
6.59458 90.011 168.279
121.225 64.8156 63.6329
11.2941 80.2401 156.096
50.4071 116.371 101.121
50.0628 166.271 122.258
35.0399 138.871 187.482
63.7151 121.101 105.534
11.7004 94.1334 181.645
113.082 188.81 178.794
70.2245 178.347 174.701
96.9646 186.572 216.594
48.0241 103.851 102.315
85.3713 127.512 104.405
60.1437 88.1192 119.192
110.184 174.711 176.597
84.3794 184.662 157.524
68.128 87.5435 147.265
95.308 175.283 159.368
16.8819 152.843 142.698
44.7725 26.2708 8.65382
84.425 178.376 71.4503
44.1996 37.9532 20.9843
84.3657 173.802 104.084
38.0954 78.8716 158.774
92.7089 174.925 142.866
72.97 168.4 173.627
36.0502 152.157 181.55
87.9933 153.167 95.5297
62.0498 84.1571 151.88
88.3699 185.622 217.654
54.9319 163.492 112.241
62.8983 128.895 100.006
53.4267 125.093 184.777
29.1724 230.997 150.765
111.605 189.905 84.7125
133.029 69.2938 112.837
67.9349 174.389 153.792
53.8484 118.65 192.096
141.287 95.1492 245.572
98.7292 155.646 184.371
100.621 183.759 124.639
19.4801 92.3124 105.538
19.5059 155.945 166.782
10.4411 150.958 165.377
50.1328 141.87 184.268
99.7516 166.948 95.497
103.839 185.01 161.757
71.745 91.4612 103.362
82.8549 178.561 114.054
82.2567 179.941 135.742
84.0734 177.676 124.554
44.0957 82.7282 173.501
88.485 192.286 138.582
65.6979 158.536 100.632
96.9489 173.627 103.453
168.122 9.69491 78.269
89.0741 175.215 108.305
80.5813 156.486 177.513
43.6919 152.121 107.17
2.34113 113.717 126.693
114.453 187.971 206.468
84.1403 165.109 98.5375
85.6625 150.408 179.471
78.071 179.276 118.535
30.4111 107.818 102.331
48.5415 102.263 192.541
17.9428 74.543 154.069
75.2596 167.259 182.565
64.9472 91.7589 167.472
2.34985 106.153 111.375
75.4249 179.47 134.673
74.7889 221.844 55.1978
99.5808 147.156 190.156
38.4893 225.099 160.398
113.303 169.26 199.772
6.57165 226.643 114.871
50.689 136.167 178.222
53.1556 81.793 132.982
32.0208 128.447 99.1718
82.0514 185.026 151.767
3.87507 180.542 120.288
25.8023 108.31 99.596
55.3714 132.938 185.602
75.4438 96.4861 157.291
106.743 214.348 88.6331
36.4889 80.1609 113.472
78.2645 107.076 160.483
39.0135 25.4104 30.1581
38.2194 146.73 180.516
55.8916 149.118 167.732
37.3972 134.418 104.687
28.9123 75.3916 140.185
43.2448 21.4888 23.1533
42.6926 119.209 101.434
87.5533 158.219 191.957
3.60206 89.1069 117.217
98.6039 161.843 137.92
81.1279 114.333 122.838
102.174 187.602 117.301
69.7906 92.5555 128.411
36.717 19.1225 19.2707
42.2683 77.33 164.643
75.8052 112.728 149.896
106.43 181.876 124.39
71.4321 128.662 169.248
140.443 82.8707 52.1524
168.191 197.025 30.1921
59.2736 175.174 138.88
114.036 186.408 121.72
53.3212 87.5095 168.354
113.761 166.586 181.638
45.0414 40.8678 25.1793
83.7699 159.698 184.086
42.9771 161.512 114.73
65.495 121.921 171.572
86.4292 200.743 150.655
44.6452 87.7312 177.655
111.908 197.223 176.804
39.5852 29.324 32.7245
4.38047 82.9999 131.804
46.5977 134.126 186.635
141.669 163.637 33.0257
90.8717 187.415 142.956
58.257 135.833 180.114
30.9166 78.0751 123.411
106.48 156.158 188.505
101.248 197.414 215.785
165.245 166.821 31.6447
167.779 2.73504 246.534
94.4177 176.82 94.8995
110.24 165.856 115.197
45.517 131.619 180.686
105.75 175.842 166.255
39.2491 83.2989 176.302
167.926 15.6199 256.384
135.153 4.61121 259.428
8.73282 94.3393 107.949
57.1791 106.908 107.653
58.9621 147.646 176.18
87.7996 173.397 137.75
87.5544 207.823 105.469
51.8771 119.745 187.216
67.3099 98.1793 115.155
107.578 183.268 142.738
86.4282 182.346 137.798
67.7964 191.958 151.085
18.2127 157.007 132.417
55.5613 96.7648 187.336
74.758 152.716 171.557
46.321 100.145 186.492
108.75 145.344 177.866
39.6021 83.9495 171.017
82.1677 150.256 39.3615
110.241 52.0645 36.6183
37.1621 96.9 103.735
139.537 3.88272 250.961
150.372 25.0907 222.226
112.873 156.678 23.4019
101.679 163.214 118.168
34.6018 37.9894 42.642
147.508 17.0719 256.073
44.8666 179.153 141.389
66.4808 191.91 142.124
167.691 215.383 5.8331
40.1974 115.498 99.315
72.3697 118.645 118.831
137.744 231.345 35.3453
95.9803 131.34 58.963
76.6685 141.328 171.422
103.068 161.771 131.012
114.19 175.062 95.5066
109.081 164.545 125.064
87.2464 135.885 100.006
104.158 177.212 91.5512
95.6332 151.366 187.291
158.968 231.476 18.344
120.104 136.672 54.5674
64.4381 89.0595 133.478
65.8466 97.9599 178.58
107.382 49.0892 42.7051
42.0205 102.187 101.016
143.964 170.138 240.433
5.50901 171.224 11.7995
92.0119 187.463 131.081
15.7036 154.165 103.378
98.1455 174.472 119.937
118.82 192.51 110.219
104.046 161.244 104.777
24.4474 105.669 155.215
25.4634 157.112 166.744
19.0576 158.378 141.205
61.3286 106.153 181.203
100.687 144.047 100.261
68.9751 112.983 135.122
73.267 192.49 123.138
108.702 152.878 37.8539
7.48047 160.34 102.511
154.135 24.9504 272.215
81.9734 51.3901 150.529
60.7358 165.952 173.535
70.0282 90.9619 138.796
112.302 149.114 59.1922
98.5546 173.599 142.731
116.067 158.09 123.805
31.039 176.408 147.376
97.2499 167.639 132.916
48.9865 117.139 190.528
93.469 98.2731 127.955
7.38454 147.968 112.279
69.4998 98.1578 165.772
95.8308 163.006 121.083
125.845 218.493 144.249
77.5046 131.058 101.318
92.7618 182.925 217.996
131.588 208.416 137.042
101.952 166.815 127.771
99.1375 153.172 98.9435
