ply
format ascii 1.0
comment Created by Open3D
element vertex 204
property double x
property double y
property double z
end_header
11.7658 59.3883 51.7591
38.1032 55.5384 231.051
6.54816 106.989 132.342
11.5535 48.9266 68.6971
6.18789 99.9684 126.47
6.64428 160.04 107.825
65.7275 124.172 220.822
51.1427 87.7275 181.628
41.8286 146.662 118.64
15.4442 140.149 95.4429
33.0524 136.381 85.8419
29.9567 56.8949 88.4007
29.1167 19.7457 86.304
12.598 27.6783 74.5942
54.3013 119.547 161.323
6.22258 136.378 110.383
15.3659 113.624 144.187
77.3494 72.1613 222.779
5.91316 154.124 128.999
10.6798 149.148 142.788
17.9257 171.963 99.3809
23.684 60.9234 84.9182
13.045 102.394 105.629
44.7299 127.245 169.165
67.081 92.7586 183.029
28.0816 46.7742 99.4158
15.2194 133.233 100.746
13.5433 134.87 82.6771
26.0365 49.0157 76.7388
7.84191 160.24 135.059
7.80042 178.354 136.284
50.2062 97.3951 169.677
12.5027 137.348 151.526
11.2607 161.316 166.721
11.6783 152.907 99.629
12.0342 189.961 149.275
28.9926 92.0575 156.228
18.1863 130.478 76.5839
45.5199 85.7271 42.3684
21.1656 99.8665 155.603
6.69325 182.578 148.835
50.2426 130.741 115.075
29.9412 60.2844 70.5829
28.8886 127.839 155.171
12.5034 152.739 153.933
46.8878 157.303 121.12
45.4367 138.074 237.337
14.4229 124.409 144.611
24.4588 139.442 78.7649
42.2946 134.021 103.474
25.3667 29.803 70.831
49.4812 137.455 122.473
4.87822 110.631 111.295
26.1296 159.79 158.165
42.2402 128.477 109.328
46.2918 64.4402 36.0627
22.5439 57.2008 53.2537
6.56271 136.59 98.2964
24.632 47.4188 44.4005
5.77594 164.986 142.354
40.4855 115.674 131.932
17.6133 106.591 148.89
30.8875 169.304 95.0459
41.0126 162.206 109.93
11.1919 143.101 154.439
25.7379 115.464 152.997
43.6582 153.585 112.707
19.862 43.0592 43.0499
12.9832 126.098 94.8393
10.196 93.891 129.342
25.0227 32.6282 84.07
16.838 136.167 89.2251
47.9375 137.859 147.407
50.9081 149.599 148.938
44.218 129.607 97.1768
13.9395 21.5383 80.7018
40.3583 140.365 170.05
6.82952 115.954 105.325
49.9517 112.552 193.633
33.6855 45.9985 70.3556
32.9258 35.109 101.8
76.0071 52.6144 24.1257
6.67712 169.832 130.371
46.2848 166.021 125.24
32.8828 38.935 72.7456
31.2121 45.3644 81.3308
5.13908 124.824 108.013
5.0269 117.243 135.809
25.3465 182.762 118.005
40.171 45.194 81.872
35.4495 177.771 127.466
80.021 79.8765 241.087
44.3575 112.323 140.583
11.2053 123.736 102.303
41.1031 166.228 115.958
53.2691 154.418 130.082
40.3747 131.749 91.2651
20.6986 119.639 147.596
35.0131 155.98 94.9721
4.43786 112.963 124.131
55.5144 129.936 149.012
78.5295 159.875 231.505
43.2584 39.8452 110.199
55.4373 106.859 176.322
35.9643 142.595 108.517
23.8833 108.4 151.428
55.9429 52.592 92.5533
47.9634 126.886 153.653
44.3804 124.993 161.852
50.4399 163.311 135.495
64.7889 101.287 164.688
8.73787 122.281 141.087
33.5903 139.867 93.7412
50.1329 79.7692 36.258
17.7487 51.4136 90.6876
14.7408 111.393 105.578
16.2918 164.617 105.79
12.6354 69.5063 51.5158
61.5416 89.2487 192.302
5.96916 157.355 149.279
39.1312 13.842 62.9096
36.9313 171.478 265.868
46.2132 61.3784 51.0814
25.5144 192.255 132.807
5.66561 147.267 116.552
34.2245 34.6713 79.873
37.0819 151.697 101.036
45.888 79.9298 53.1322
56.3515 97.4859 162.678
10.929 97.8055 121.126
49.4203 124.452 107.181
31.8515 146.845 93.8227
46.4683 52.8097 67.971
4.29559 145.147 143.047
10.6502 70.1932 65.2292
6.10015 143.988 102.622
28.7014 172.911 114.577
39.9853 134.946 115.531
49.6542 122.689 134.516
16.0345 34.0155 81.8886
20.0393 68.0848 60.8729
9.40163 134.984 145.461
18.9132 56.3808 93.9302
51.2229 120.723 118.249
53.2455 157.94 222.413
47.2754 120.349 143.942
39.1342 59.464 67.9171
60.9547 141.502 235.725
57.1838 140.238 143.858
6.24331 97.7891 110.779
22.3198 16.6941 74.2701
43.8534 84.7062 63.552
28.4785 184.649 125.146
36.489 173.079 119.395
36.7068 13.3813 54.1875
83.588 131.499 239.757
75.973 163.526 236.893
47.1351 143.78 164.052
49.1231 137.99 157.758
53.5363 66.7284 63.2089
12.4822 149.493 112.106
40.9279 156.574 105.599
10.1406 195.231 142.933
11.898 118.205 99.6354
51.9416 58.6571 57.5548
54.7943 100.571 193.654
43.9258 146.063 108.43
21.0165 172.268 110.652
45.0353 173.404 263.29
5.84083 125.108 98.1514
42.6551 139.083 121.196
10.7024 111.325 138.954
31.7029 61.6854 134.022
58.8431 112.404 205.307
23.3688 126.587 151.893
22.6747 21.2546 81.5934
5.30015 137.9 116.537
43.265 177.944 268.306
44.6108 114.412 124.257
53.8273 121.351 127.224
39.6563 165.543 96.1468
66.4644 94.7407 191.76
45.9078 170.504 134.245
38.5221 84.1285 66.3255
16.5795 129.662 150.893
45.2085 62.7079 80.1811
53.0901 105.247 200.532
47.0556 96.4574 201.155
45.8009 17.4993 58.808
39.2559 21.0259 55.2579
35.6088 59.0929 138.58
56.215 107.358 191.223
6.42416 177.016 125.637
15.8768 196.91 135.486
74.1114 164.863 231.794
50.6879 164.095 221.205
31.3792 185.13 252.456
58.1471 162.986 218.947
45.5349 136.072 112.651
9.85746 108.764 103.531
4.30249 128.588 102.328
38.9363 170.738 129.628
9.85606 70.665 57.5588
37.6607 20.5148 61.1491
