ply
format ascii 1.0
comment Created by Open3D
element vertex 911
property double x
property double y
property double z
end_header
64.1575 76.3531 80.4786
13.1856 87.8986 149.964
21.0382 80.8044 136.19
21.9493 97.1548 131.558
20.3872 74.327 124.975
27.419 76.7002 169.419
13.5343 86.1199 97.0998
62.6271 88.653 76.7019
95.24 121.736 191.773
28.6393 99.2806 154.893
96.1859 131.618 195.801
66.4967 116.576 199.496
46.7377 53.1358 107.376
20.4082 154.836 114.122
18.4123 137.937 169.555
12.6839 123.324 98.5953
60.0765 190.923 96.6973
18.145 84.1713 129.942
46.9539 118.241 136.622
47.0449 99.7485 190.263
60.41 114.142 145.353
19.5738 79.6206 101.587
18.3958 84.5199 159.165
42.3682 91.4413 66.2487
16.8789 112.353 111.843
34.5841 78.8753 177.719
37.8215 103.173 147.274
21.7899 111.921 121.906
14.146 145.691 134.72
29.1435 175.176 138.486
46.0579 108.881 142.26
98.4571 45.0998 120.408
43.37 97.1485 75.7275
25.6426 174.466 117.168
38.5047 109.919 136.951
46.6528 101.765 145.853
55.4934 61.704 97.109
120.561 48.7536 151.153
58.9677 133.976 154.031
42.6463 183.674 141.001
39.0171 98.3824 89.1805
70.3433 178.369 80.4859
74.7515 81.6859 142.55
47.8798 75.4575 180.621
65.9123 68.8746 165.599
38.03 142.932 178.61
89.6639 44.4352 131.881
12.7394 126.817 155.734
36.4961 94.2022 181.101
64.4467 134.27 165.282
73.9157 112.407 136.325
86.3355 43.706 154.274
52.5299 134.827 109.061
53.2839 97.8572 78.5483
88.3923 80.4698 147.691
56.674 66.183 150.327
47.3264 149.892 183.17
74.2096 128.014 43.6806
56.5234 169.07 108.794
24.593 122.944 63.8778
68.2333 178.715 162.415
80.7522 165.147 98.5853
58.2709 43.2257 154.204
55.3727 80.9957 78.8871
20.0289 71.594 156.885
16.245 64.9984 135.394
47.5455 165.513 165.224
22.9767 96.5959 144.094
36.3658 61.1746 165.714
128.462 51.1665 141.751
18.3542 105.861 112.266
66.1993 160.567 48.3215
45.0781 119.435 118.233
130.344 59.7237 154.14
44.0219 44.3206 129.177
38.1331 114.143 127.966
74.7334 112.552 201.396
92.8021 55.2383 70.6945
31.5131 86.2738 170.187
57.0577 149.921 161.607
114.28 47.526 157.981
67.1725 144.793 164.951
60.77 151.749 44.526
59.9352 176.592 166.305
15.6505 123.459 129.845
44.1305 124.968 124.311
61.6914 187.107 78.2848
31.2591 159.901 74.5913
133.138 54.015 118.771
61.5791 156.831 76.2663
38.54 114.835 188.317
59.0673 72.7171 111.449
103.817 66.8808 68.4395
52.4481 115.278 140.73
22.1555 70.0782 101.376
54.8894 88.7775 140.167
35.1413 156.173 67.1563
63.7929 149.582 155.912
16.879 98.1264 114.799
118.357 57.1807 167.731
58.1176 175.219 72.0707
116.873 49.427 107.394
71.8682 159.885 85.6871
55.4486 118.386 134.937
62.7781 126.97 104.707
63.6292 193.71 126.34
66.4359 69.902 61.1688
117.308 178.54 138.209
57.7039 161.39 49.0293
55.3866 162.892 66.4236
17.3306 94.6044 104.571
57.4648 61.4972 88.4415
67.638 172.304 132.161
18.9365 94.4596 123.969
12.4688 149.02 125.918
22.8638 130.728 66.435
127.581 80.9228 182.328
66.3929 42.1443 101.137
122.66 160.624 166.926
52.0682 116.348 95.1927
133.142 60.4309 138.369
32.9623 118.921 59.5212
33.5636 124.389 113.247
85.8046 175.707 139.71
53.8988 109.499 119.173
78.4334 175.058 126.619
82.6503 175.657 174.168
30.8484 144.295 61.9979
112.066 62.657 124.791
47.2765 105.808 126.99
69.6941 55.3196 178.878
35.0082 94.1096 150.866
39.4769 162.715 62.4695
55.4389 106.85 110.042
89.1216 161.748 109.697
50.0275 50.2246 153.564
41.2241 100.208 136.996
57.855 124.376 74.689
17.2025 106.462 131.251
15.9853 94.885 89.1038
94.6705 121.32 202.418
87.7378 99.2039 125.871
17.4537 103.404 122.763
24.081 133.781 155.433
66.7846 61.5549 132.823
12.75 137.325 110.325
87.7222 91.3034 201.722
35.6491 63.3254 83.1726
67.0964 42.3594 146.619
104.466 108.378 201.45
45.1755 185.133 115.856
25.6149 157.453 138.754
119.872 152.482 159.859
26.5979 149.278 171.58
116.507 103.822 197.753
38.1365 176.816 149.56
72.0726 68.2002 133.272
62.0301 161.715 61.968
42.8706 139.041 107.874
60.0596 113.517 93.4091
65.1632 105.939 165.763
21.5556 86.0318 89.847
110.058 118.581 198.575
11.3206 121.468 148.169
59.3777 97.5532 71.2063
71.9327 186.855 67.9899
11.118 121.383 77.6314
51.5502 106.458 76.4506
38.4974 176.26 84.8557
24.7686 65.3818 144.154
51.5229 90.6488 187.928
27.5687 64.4415 119.561
18.9395 159.384 85.4359
62.2334 78.1365 72.4671
74.6621 119.803 177.395
59.0911 45.8035 93.6378
76.9099 145.019 195.914
47.7143 127.255 70.7352
78.7079 164.618 182.72
37.1397 151.493 155.62
14.2044 148.11 157.589
64.8196 54.1815 90.2179
11.7788 120.208 90.5925
34.5293 137.851 157.124
73.9593 84.3734 183.339
87.335 83.9548 51.1031
51.7104 140.14 189.211
36.8081 53.7607 122.426
87.2573 65.381 141.582
41.0125 184.16 108.026
75.4266 137.436 154.4
115.642 45.1635 139.39
56.9819 178.489 96.5318
79.6904 182.198 106.956
14.5783 101.524 70.9069
54.0732 101.876 122.422
49.0135 160.122 143.25
58.338 139.353 162.129
58.7832 78.6871 118.318
29.6873 99.8977 180.88
115.988 121.141 170.582
72.0552 80.4895 125.061
32.365 177.404 98.8925
58.4817 82.4268 174.948
62.8167 128.387 42.5964
78.4223 116.27 79.0873
85.4663 72.4633 176.617
53.0428 41.2167 131.98
33.7671 128.987 139.911
93.6567 169.934 149.534
73.324 63.2565 109.437
99.563 63.9514 134.445
79.1272 36.5931 117.556
37.6252 56.5842 134.983
105.657 131.77 189.99
24.7454 119.968 174.567
26.1768 94.272 163.86
46.5103 86.0827 78.3207
38.7118 55.0289 143.436
97.0671 94.6945 147.707
64.4986 179.11 154.131
61.3512 108.302 145.595
77.2337 63.016 120.015
87.7685 154.257 161.098
100.641 39.8417 130.156
48.3136 163.096 67.2588
95.4422 42.9639 142.319
124.147 61.4614 161.293
107.238 82.7218 56.1507
53.5212 192.24 136.107
69.1881 118.316 134.677
78.1646 34.7741 143.305
97.3509 138.533 45.9842
107.162 96.2454 198.214
48.8833 97.3574 54.0047
45.7992 111.384 92.3436
43.1436 74.3257 77.0622
68.2287 110.489 97.5039
28.8796 103.783 88.1978
100.418 53.1902 167.292
17.3135 124.567 165.15
67.4662 136.59 101.33
37.586 152.164 87.3186
79.2163 111.295 95.5246
104.283 173.835 158.659
71.206 105.196 149.509
107.719 61.5357 72.1647
66.7224 38.0693 131.845
79.8402 102.382 188.364
18.1621 105.549 172.026
18.5982 171.722 119.288
48.9982 97.1017 137.463
61.2162 154.078 88.0582
16.0981 88.1976 78.4819
58.6105 118.844 105.415
32.5059 98.1891 172.539
49.7606 120.524 76.0336
28.751 57.5204 127.968
56.9656 165.917 102.052
48.3846 180.617 125.393
80.0238 92.3377 136.95
43.0263 81.2789 181.621
77.8047 175.56 137.153
95.4099 74.9967 180.178
58.8136 99.7767 57.8967
20.9418 98.4867 99.2685
30.1445 130.135 153.301
77.2504 87.9389 191.638
49.0054 121.308 192.715
39.5111 88.2324 183.496
81.2018 169.941 109.274
47.5617 114.375 81.7388
113.359 127.597 193.851
39.3703 128.281 78.176
84.5035 157.34 104.358
43.1126 155.71 174.013
18.2937 99.4304 154.654
52.4026 155.797 179.459
39.0721 110.353 84.365
28.8396 160.383 87.0688
86.1511 51.5843 174.469
57.9235 155.784 154.157
13.8254 111.569 101.86
11.5102 134.524 147.332
71.7514 121.026 119.974
66.7983 78.6065 189.675
75.2621 93.9098 79.5113
22.3893 101.796 63.023
49.8035 43.5919 113.508
87.9338 184.399 108.227
61.3019 37.8357 138.398
78.2646 159.702 112.472
25.9739 76.5756 95.4512
89.1301 109.75 142.654
67.5229 143.116 143.493
115.308 133.061 185.233
43.1785 125.937 133.124
15.1922 127.376 72.6676
76.4644 112.955 106.393
47.5557 92.7223 132.948
79.8023 120.415 147.13
30.5782 105.768 62.5345
29.2173 124.065 183.143
94.8988 36.7507 130.004
72.4951 40.3241 112.671
57.9939 51.3947 156.87
35.8115 163.995 116.621
51.9548 87.4283 124.778
58.3298 111.384 173.686
104.648 142.839 154.79
84.9641 44.2688 94.4439
76.6085 93.0456 144.11
104.625 180.42 103.318
48.8401 132.323 120.288
72.1978 107.512 157.763
74.7228 103.124 73.9565
61.8964 60.8598 164.195
50.6241 164.02 121.634
61.8428 123.035 97.0887
31.1544 88.9525 141.094
114.501 64.5218 175.468
12.7092 108.822 157.306
29.9352 149.78 151.559
96.1656 53.0965 120.356
65.9241 158.631 181.801
51.6098 184.195 151.306
59.9827 84.7138 192.818
91.7947 130.874 181.96
34.5899 127.423 56.3976
86.2806 38.3361 109.212
21.3519 98.141 165.741
82.2788 46.8519 169.075
69.9932 104.759 103.744
57.3267 152.629 137.711
95.9812 44.4618 160.047
100.187 59.3748 174.116
28.567 67.1335 154.748
87.5697 152.742 45.7039
73.0343 105.039 168.201
21.4343 69.2408 108.693
61.3151 39.1229 113.265
110.43 142.913 188.145
92.725 184.288 97.552
53.9149 145.496 178.862
83.5253 192.619 148.321
27.1398 128.432 142.503
30.6545 58.6456 145.904
94.9892 173.004 90.7074
68.3501 89.7224 191.649
56.4717 74.2114 127.38
67.4692 115.18 173.015
109.009 52.8293 75.6131
39.0209 128.346 171.971
50.8229 55.1846 164.983
45.1128 53.9459 134.036
18.6379 105.83 94.539
11.0991 107.996 147.796
95.8527 176.556 165.747
106.191 111.401 170.793
64.7666 37.8899 121.038
48.2265 70.1704 105.355
70.2741 151.487 142.663
77.4878 165.694 88.9895
16.2477 91.3668 140.862
74.4154 73.866 118.121
88.3852 46.1883 146.198
50.1924 159.222 134.172
47.2851 69.4912 172.417
48.2579 113.077 121.823
31.7557 109.498 93.3981
60.4394 95.2087 190.933
79.9506 157.843 48.462
103.469 75.5828 176.597
100.868 148.917 190.457
52.3421 176.3 116.576
116.67 140.218 164.9
63.5809 130.364 116.208
91.204 167.514 69.4334
87.0774 163.893 90.8708
73.57 45.9585 166.066
72.5596 126.062 112.764
39.0143 114.652 178.659
18.7723 119.373 122.105
75.9607 165.607 131.282
56.5437 63.405 110.918
111.056 43.7628 114.61
34.3748 94.8708 161.013
40.5432 147.706 117.742
92.2603 108.463 201.635
19.2535 160.757 102.224
98.0052 186.254 139.263
67.2734 41.6736 155.303
74.5354 135.787 164.287
52.9021 119.568 112.082
59.8718 114.311 124.735
37.2813 82.2438 137.931
113.491 53.4009 93.7496
63.9092 70.2326 157.543
16.6885 62.7208 124.264
128.427 47.3718 131.214
41.1031 57.5852 150.212
86.9694 136.679 158.399
57.6273 112.974 196.029
70.8225 121.91 81.2703
53.3339 141.99 109.647
75.0359 128.768 100.567
58.9536 189.967 145.233
20.1559 163.523 141.439
83.0588 155.878 137.378
83.1108 72.0612 190.343
72.7059 70.7552 189.565
104.91 40.9312 144.097
80.0474 109.116 141.853
62.5132 92.747 137.648
100.695 181.909 110.732
53.4364 106.299 55.3899
69.6263 109.277 44.4778
38.3225 67.6223 175.93
68.538 154.783 93.8514
135.775 64.9466 148.234
74.8647 138.802 147.132
75.584 154.38 146.196
78.8983 185.279 60.4533
25.466 140.074 68.2753
39.8469 57.3465 105.067
44.5929 90.8763 141.684
66.326 189.164 148.331
58.0409 160.361 80.1433
73.3601 108.102 91.7055
99.9062 47.4345 82.1464
102.735 67.7297 176.949
44.1904 148.582 153.125
105.29 184.362 141.876
49.6789 134.618 49.6974
43.4819 96.9807 125.609
33.6994 136.51 57.0942
49.9001 174.73 71.947
71.5613 192.693 132.036
37.0152 158.231 125.758
66.2353 162.996 78.1179
84.5594 135.231 74.6521
12.5086 107.239 73.2352
74.2734 163.805 48.6197
66.0071 161.866 139.159
82.0701 181.684 166.007
82.2022 51.8667 71.9417
120.144 50.3414 99.0899
33.064 105.304 54.3932
11.8757 137.468 86.0352
71.0704 136.358 47.9521
38.5452 178.754 114.674
37.6478 157.881 169.07
60.717 118.087 44.4991
93.8575 64.4879 65.5912
92.3937 100.569 168.256
54.7774 185.399 102.724
91.3452 80.199 132.354
72.4692 103.216 109.763
94.913 70.8341 174.158
81.9404 185.658 91.8824
46.3643 154.671 114.451
61.2318 136.724 114.875
121.026 87.2681 59.0178
93.0912 44.0165 90.232
80.0826 61.937 129.491
94.2768 154.899 132.094
63.1795 93.1426 118.803
92.5216 36.0434 139.127
64.7869 53.9483 157.003
100.049 48.8496 131.321
95.1181 137.085 155.539
88.5382 140.904 195.637
87.4408 80.9561 198.1
107.93 44.9108 92.1197
71.0038 104.971 121.297
112.785 76.9455 61.6047
66.1451 101.841 199.428
63.9423 126.92 175.612
124.023 81.5624 152.689
39.3027 83.4437 75.9831
55.2659 100.152 182.927
45.2471 123.346 56.53
77.6873 126.124 198.56
76.4364 111.172 126.88
61.8361 76.4385 167.113
48.8653 74.7742 62.6907
140.305 87.6539 165.328
96.7964 77.1818 195.759
103.012 166.106 95.4689
74.4801 56.2303 77.2388
108.508 122.365 56.1677
73.1703 146.149 53.2506
12.0225 144.087 116.652
74.1889 187.375 134.668
77.5422 153.942 171.062
100.092 38.8963 104.518
40.9889 122.351 61.868
13.069 79.4215 83.1246
106.132 143.397 72.1373
42.6024 79.313 65.0395
34.4935 142.155 114.14
19.1739 95.5823 68.626
13.1835 148.733 147.355
76.3622 108.154 178.338
35.7168 121.337 123.516
48.3777 151.814 74.1392
55.1955 80.9876 186.854
88.0494 191.734 113.253
106.919 46.5713 162.068
39.3683 133.982 113.765
92.8506 147.953 135.947
15.7937 103.954 165.008
59.1419 159.267 144.479
69.7954 142.985 43.3677
103.657 107.384 181.67
41.5102 157.957 76.3215
22.7134 133.281 171.293
87.59 96.8068 146.398
86.1372 46.1379 162.861
49.5445 111.582 107.949
97.7332 126.389 47.8449
16.4754 101.225 141.013
80.7583 165.631 139.843
26.9543 108.456 59.9861
122.223 67.489 167.494
97.9474 99.0894 127.871
89.0795 100.224 154.461
100.191 167.666 171.177
69.9181 75.9037 146.221
25.4212 148.926 144.747
13.2377 103.987 83.3767
51.0778 122.327 115.115
50.0422 147.183 113.875
91.5026 61.3886 174.146
119.794 168.259 115.052
92.9132 66.9807 184.423
54.6586 186.429 122.08
58.6328 157.772 102.559
128.911 125.018 183.242
106.57 109.078 161.111
39.3477 184.759 133.641
82.6512 72.4837 57.7061
66.3807 161.26 146.76
44.1944 56.8851 165.569
55.3654 129.658 192.154
54.4185 70.4057 168.313
71.468 125.183 148.824
72.2694 79.4303 170.992
76.2759 44.3831 104.861
60.2732 178.473 88.644
86.1187 145.488 75.9578
64.424 77.7765 138.847
83.7589 115.155 109.263
91.9495 115.173 132.021
109.429 67.5508 181.08
77.7918 125.405 85.7144
55.3681 61.2435 77.4451
34.3566 149.742 98.5231
91.5101 41.0162 101.798
88.9441 95.4855 45.9544
84.0401 131.414 84.4982
48.6897 117.999 102.992
43.0584 151.025 96.2954
81.1736 162.113 121.28
60.0059 94.7424 108.272
119.084 171.945 97.4979
11.59 155.293 93.9441
91.8764 155.765 111.237
47.1695 59.7406 83.9479
75.6081 191.266 105.155
22.178 126.589 171.907
31.1545 61.5265 106.374
75.348 131.438 57.2711
13.7446 116.743 161.415
42.7247 122.375 112.074
100.842 141.234 191.992
29.1515 120.854 105.627
58.7819 67.6864 72.2663
130.939 72.4566 161.198
59.4999 145.107 152.513
40.3388 123.834 107.328
85.536 160.72 85.0538
76.9538 124.012 61.4779
13.4338 150.814 117.574
79.7812 121.89 113.058
105.508 138.46 163.539
70.2642 72.8549 108.724
90.6631 156.349 122.704
89.6541 164.171 173.806
81.0131 157.935 142.271
66.7465 169.494 52.3725
104.385 176.923 94.3406
117.828 168.892 159.796
18.7248 137.941 69.5972
47.2155 150.981 88.7403
36.1325 144.151 107.71
77.4895 191.444 117.384
88.7158 113.65 151.629
137.792 60.7319 130.842
95.5979 108.406 151.296
117.994 73.0033 67.7018
120.916 158.51 139.631
86.1265 136.122 42.6144
54.0965 117.409 71.7367
67.2427 79.1687 114.432
85.1691 166.394 176.781
67.3544 97.5134 77.8142
100.605 129.366 100.209
125.687 142.404 162.253
106.803 53.8763 117.293
93.9131 57.2795 137.8
83.7257 149.573 194.065
96.3044 186.586 114.89
120.492 81.5642 159.42
47.1181 120.376 180.319
111.57 181.233 111.532
85.1206 118.028 126.157
108.52 80.8457 139.03
66.7573 86.2302 136.322
58.652 107.328 46.0709
110.82 107.224 62.6243
15.8408 128.667 115.841
51.4874 139.852 124.213
98.7914 84.8454 200.699
54.0216 153.497 81.3066
94.1214 162.9 61.7337
44.4134 136.648 187.085
26.1313 165.642 105.696
43.0558 144.563 49.6112
37.0275 156.55 118.637
114.016 95.2175 190.547
38.1788 67.5049 91.8854
80.0633 102.187 144.346
55.8389 70.146 180.831
112.454 130.361 54.1658
28.5113 59.8274 136.175
76.7062 100.167 175.941
66.7842 112.274 126.669
77.0363 72.7433 125.641
104.336 152.116 112.916
39.0543 122.105 136.856
116.263 86.4446 191.499
109.355 44.2682 124.937
105.368 156.359 178.768
37.9553 146.78 137.588
102.119 104.511 172.017
56.7716 113.094 100.732
67.3173 133.992 95.5164
47.1503 174.886 96.4923
105.304 94.46 53.659
81.173 147.021 147.601
56.9808 142.068 117.887
105.194 78.4992 190.815
35.7603 178.338 135.823
89.4261 155.383 56.8115
125.829 109.175 176.731
114.474 146.16 68.8537
12.9996 129.615 85.7101
42.31 63.4129 133.282
91.1406 115.764 105.177
38.4483 161.155 87.1405
57.1781 88.8659 120.533
48.1238 141.375 157.225
36.4606 150.601 170.759
45.5639 62.1271 101.499
82.7909 60.8333 181.57
87.0245 117.305 61.2489
39.8012 113.735 51.1039
51.9568 102.797 48.8443
91.3264 186.513 145.935
66.4672 66.5386 103.055
26.6546 135.662 138.119
62.8431 104.947 104.249
112.936 140.955 174.308
64.5864 122.344 87.4499
86.6314 120.955 152.524
83.6215 77.7823 184.473
26.4306 138.78 112.232
125.631 170.435 140.534
125.935 103.59 60.0051
38.9427 55.9929 157.64
39.8095 169.022 94.1692
98.2281 159.89 184.301
17.7252 68.7964 129.646
111.445 182.864 131.632
46.0688 130.739 54.804
96.2874 88.572 134.056
76.8601 127.243 68.1517
117.825 178.935 123.842
93.0252 146.118 156.17
97.2011 83.3902 139.543
70.8928 113.082 117.971
98.7975 87.5489 52.7104
58.2753 95.6115 115.514
17.9715 146.092 109.381
92.6657 107.423 160.675
39.8349 138.648 56.1112
99.6719 103.255 120.892
77.6082 128.845 107.221
82.1929 133.404 197.874
119.918 146.369 141.272
60.4153 100.869 144.014
92.283 117.905 122.608
49.2153 160.456 56.292
86.0635 127.967 96.5333
74.0553 124.506 94.3075
78.9725 119.393 41.0376
110.231 46.7263 147.222
115.709 68.8491 77.0852
48.2899 148.316 105.472
34.6688 154.084 146.857
68.2311 143.774 196.324
53.0397 83.2022 134.577
127.723 74.5455 151.465
102.176 133.899 52.6722
74.4065 186.062 87.3448
98.5403 158.472 74.1279
51.498 157.733 117.649
82.6094 94.1608 129.746
69.1885 94.6616 126.998
100.068 149.209 55.8721
32.334 139.141 149.535
92.8483 69.4651 129.991
23.2161 157.062 124.271
84.0451 111.953 102.992
94.4719 50.5768 170.129
61.913 168.384 155.071
79.4082 102.017 135.459
26.3939 126.256 82.1054
103.111 63.0785 127.154
99.0119 163.792 77.7226
15.0575 131.97 136.086
122.236 56.165 82.4138
49.1797 104.207 62.172
54.8545 70.6201 104.666
50.0513 76.4384 137.106
111.817 180.218 147.563
94.5469 113.719 113.149
97.0202 148.08 76.5806
77.5706 175.484 93.5295
98.1922 165.383 85.2883
125.332 63.8071 112.45
113.072 156.951 110.527
67.7377 62.3791 70.6019
83.2955 114.408 135.248
80.8705 111.1 87.1256
114.386 47.587 131.402
64.882 59.8814 80.6212
28.7593 65.521 96.4689
100.177 104.43 148.141
60.3234 146.106 142.39
99.5039 151.522 119.223
26.41 147.755 120.7
71.3098 118.681 143.073
62.4668 120.688 139.24
96.1241 183.824 155.399
119.766 97.5916 58.2907
28.0299 94.0976 89.0897
122.881 73.6534 177.148
118.861 95.9246 184.4
32.3178 121.943 86.5888
119.576 173.81 110.515
112.421 94.0716 58.7142
50.5274 84.114 179.397
20.9383 60.8242 115.387
87.3557 112.483 117.186
40.3639 145.955 129.365
76.6218 141.408 60.2801
82.2105 189.053 69.3401
92.9861 108.485 42.4345
74.1736 61.0126 67.1512
44.7683 155.194 157.713
70.5621 153.877 48.2305
113.232 118.384 67.3187
70.4681 94.8856 115.766
49.6025 153.639 139.051
111.045 54.8101 171.126
130.779 103.005 165.763
101.351 188.733 126.046
69.7955 183.928 96.662
81.1691 41.5911 99.4131
128.926 118.717 179.754
78.6809 105.416 81.824
50.4764 144.283 130.042
15.8676 155.254 133.278
92.2669 124.021 107.508
56.4313 148.432 101.25
136.577 94.6767 169.295
82.2009 110.143 203.017
90.8108 157.462 146.396
96.2415 125.197 83.7371
9.88645 100.066 101.559
111.183 158.015 78.8466
87.7252 174.842 61.7889
83.7079 106.053 161.945
31.3296 177.32 131.244
101.774 111.073 48.6274
122.578 76.5912 123.634
31.078 141.973 141.907
113.866 147.064 160.403
17.0705 126.734 90.5376
45.2374 152.59 125.612
93.4298 153.234 64.3204
114.033 79.0033 163.554
105.274 157.729 73.5668
40.482 93.5419 135.63
131.843 151.907 163.646
130.139 134.093 68.631
120.669 49.6838 115.121
109.555 111.238 67.4631
27.5392 128.658 168.288
53.3692 149.355 146.499
50.8747 108.791 48.94
100.169 119.472 122.189
19.512 87.8856 115.681
55.2197 155.776 95.6637
96.6311 100.365 140.476
102.729 95.9853 60.8496
51.7529 149.616 123.226
28.234 91.59 58.466
121.362 72.5182 135.544
109.295 166.064 88.2222
109.655 131.288 94.4554
90.0822 47.8656 166.836
104.264 138.175 179.626
107.388 108.033 107.439
125.579 162.569 109.931
26.4855 132.708 72.8536
98.7727 113.714 92.685
80.9651 139.408 74.2013
122.453 58.8122 101.778
109.106 72.4598 133.54
118.128 59.7097 115.493
100.912 132.669 154.989
14.6717 104.473 101.519
94.5196 112.75 100.991
58.8781 127.768 108.877
90.7518 177.786 72.4703
65.9285 90.0072 32.6129
17.1825 179.025 137.709
95.2011 134.953 92.1481
137.52 109.266 172.829
81.1982 132.733 91.0372
88.1505 112.208 94.4937
123.918 169.471 129.167
99.2761 110.942 137.493
77.1508 42.3792 96.0549
68.8374 129.933 197.031
22.1363 93.3044 86.3705
106.016 153.95 119.256
102.625 123.767 60.3369
22.0528 96.326 92.2449
98.9995 100.048 134.551
125.472 68.4564 80.4986
79.4256 118.388 120.754
51.3727 65.4492 84.1074
104.322 164.313 82.044
102.818 116.271 53.0627
51.7533 60.4922 58.5817
28.0925 114.266 46.6256
103.555 120.548 199.434
120.189 166.444 86.4368
95.2669 146.263 145.871
120.65 126.624 67.4314
21.3374 183.92 129.077
101.73 114.136 99.3545
102.731 109.057 114.053
109.743 166.625 164.853
93.8293 154.516 71.7677
16.524 113.512 125.656
40.0258 61.3747 99.2128
89.9937 137.55 82.5284
130.509 144.681 175.383
145.4 111.858 167.054
133.416 59.2109 109.055
108.263 83.3179 147.675
138.175 154.358 157.722
109.876 89.594 122.419
129.567 58.7915 87.4394
93.462 156.877 78.5604
101.853 98.5201 160.022
58.8382 75.8599 106.426
37.0697 155.026 95.2322
103.462 117.648 106.267
65.0082 69.8376 74.4202
88.8758 151.976 192.986
100.999 151.178 126.593
138.189 127.344 164.027
61.7003 164.02 53.4516
107.142 100.692 67.3256
30.2638 119.029 45.3144
43.7501 143.974 134.999
130.009 84.845 144.01
128.258 126.111 72.8509
149.547 76.0385 127.827
116.582 92.6095 171.698
131.07 120.298 65.9622
18.3924 135.06 75.698
105.782 142.985 95.9414
101.407 87.4886 143.701
92.9691 125.959 100.541
85.4591 119.917 116.155
84.0089 61.2278 121.215
76.0417 57.6156 125.508
117.173 79.0787 129.825
35.1649 132.466 72.5461
36.6363 91.9905 85.5106
63.9814 130.284 109.561
91.6834 83.3739 83.5131
118.072 138.939 90.0026
131.687 121.981 173.565
