ply
format ascii 1.0
comment Created by Open3D
element vertex 498
property double x
property double y
property double z
end_header
4.78391 98.2409 104.868
94.9224 5.36987 7.10073
15.1951 68.2334 99.3244
22.3743 183.977 88.8488
17.5072 96.4417 35.4375
27.7129 107.33 178.295
6.74345 62.8537 49.8085
21.6414 98.6741 101.588
29.3932 142.746 154.144
10.4642 152.517 157.365
5.29985 93.3896 143.496
30.4456 55.8744 170.195
39.2074 102.752 123.648
27.3244 92.0885 37.8783
11.8748 150.624 135.697
35.7405 129.73 144.104
6.61672 151.512 145.848
60.1291 180.396 155.937
6.45315 49.7253 148.045
31.2784 117.3 36.8925
5.21439 85.9467 81.1219
16.0674 92.1583 49.196
26.7448 149.15 168.718
23.3928 101.876 143.801
9.48602 70.691 177.479
26.9016 64.6369 55.8436
21.1868 186.046 103.919
21.8432 104.002 154.189
13.812 119.819 122.492
27.3209 154.136 43.799
20.7941 71.484 168.144
13.9344 135.003 175.562
37.5672 128.359 23.9616
32.6217 137.965 92.2097
27.0882 157.125 59.3715
24.0196 161.465 50.4863
10.1574 72.7404 169.321
20.9542 148.937 153.615
6.3019 79.8792 106.748
11.8226 93.5144 124.081
12.3158 98.3924 139.938
26.8834 46.7462 70.0037
28.9498 127.964 166.352
41.9555 50.9414 79.1741
33.4158 117.822 166.291
14.1983 72.4239 114.072
4.96503 125.28 117.033
4.27632 72.2455 77.7718
7.3059 112.632 55.3476
48.6153 140.316 26.1414
37.5558 91.5255 67.8499
37.853 38.9792 73.737
21.3966 92.1525 131.542
22.7501 139.536 165.605
12.7198 93.016 95.8548
45.6699 119.848 45.3167
26.3881 152.305 160.337
24.648 159.56 73.1416
16.7521 155.555 120.683
18.8672 103.194 53.3526
15.5434 179.325 55.7594
30.1713 182.323 49.6743
42.642 183.938 11.202
39.2195 127.095 15.7781
19.1015 150.372 3.99455
17.0322 181.132 63.0697
23.9586 165.82 155.81
60.5253 43.3992 78.5648
52.4218 33.7372 68.6566
15.0853 73.3719 3.9049
9.53727 109.093 47.3959
5.24789 184.701 77.6191
18.457 94.7672 23.8079
12.5584 168.668 153.778
4.86945 80.7583 120.133
62.2048 60.4675 70.0135
60.7271 142.864 31.2153
87.7233 43.4186 90.4726
28.3537 53.5815 49.1017
36.6576 155.638 178.053
9.93107 171.239 126.573
45.6134 129.063 91.7549
20.953 48.8632 125.5
22.7769 194.837 98.882
46.639 143.1 127.349
38.8599 179.775 26.6522
37.406 83.1966 170.02
33.3148 126.064 177.961
15.9492 114.294 151.957
28.7144 129.222 68.4235
42.4494 189.899 28.0815
37.6512 54.0952 128.049
31.1833 135.642 42.6198
18.7281 111.852 126.52
19.4775 74.47 52.2278
34.4846 86.5953 58.0782
4.50473 179.122 124.803
5.28773 144.443 37.3706
27.0727 147.223 62.9491
25.5936 93.4911 80.1573
11.6195 49.7116 154.445
72.3643 194.452 141.814
10.3017 138.159 32.3202
26.6159 105.026 51.3394
14.1261 113.023 58.288
5.57003 185.578 111.258
34.8375 41.4451 80.0987
22.2771 159.052 170.127
14.1149 130.897 97.1971
29.3231 174.385 146.034
40.0531 125.502 162.838
44.6997 164.075 31.475
8.32166 27.2969 106.729
40.9072 131.308 54.2167
33.4012 63.8171 130.43
3.3747 167.668 122.387
25.3289 173.131 36.1305
32.8374 191.962 49.0757
47.4348 152.798 19.2864
11.9481 115.264 113.209
50.2224 78.2939 164.27
33.5582 190.473 93.5377
12.4225 135.287 60.4811
37.5358 92.4098 30.1023
39.3606 167.964 191.544
24.2368 102.641 164.405
45.1946 85.8915 70.6618
37.1569 51.2353 144.386
35.9595 128.228 45.4647
36.1199 155.305 190.636
33.8315 186.253 27.2465
6.22274 128.049 172.969
17.3597 67.966 58.2796
18.6367 180.02 72.4398
13.7612 157.492 164.352
24.8143 99.1297 26.6902
3.14662 140.005 118.892
49.9056 131.962 130.234
44.8506 142.384 40.7586
47.2543 49.3646 146.749
49.6823 177.031 149.104
32.7011 64.8035 10.7386
4.07829 165.987 110.979
25.9851 188.321 121.633
24.6884 167.306 143.437
21.1547 193.192 57.4657
46.0943 42.623 78.3741
44.0226 159.513 170.194
25.9385 195.122 53.9431
4.03464 82.9362 131.885
4.4768 167.206 101.232
33.2073 80.6253 147.811
23.0949 110.416 119.514
39.4304 91.1941 147.812
16.2861 138.371 91.2651
33.5835 103.166 101.525
28.5214 68.8053 109.58
25.2853 66.0752 71.4841
38.7075 152.679 35.2071
24.32 150.303 91.4304
41.4401 140.725 46.9189
38.0706 130.664 88.0344
25.4653 85.7777 41.5098
22.1311 54.2282 66.3591
38.4763 193.727 68.4309
4.6962 175.432 109.584
25.7545 117.184 91.0396
26.0961 148.627 114.369
41.9204 165.042 156.398
53.5408 178.072 130.427
12.6109 85.737 171.416
9.25036 134.959 154.323
42.0543 151.646 174.755
36.4946 48.0994 160.203
46.2665 121.07 86.7212
32.5082 122.845 90.071
32.5039 212.26 125.286
7.90432 61.8208 39.4323
46.3885 127.534 147.181
22.3437 60.0161 102.772
37.9157 113.667 112.738
39.187 141.363 79.0861
23.1812 81.5965 144.31
25.4064 103.591 125.283
30.673 88.794 28.5738
32.5268 174.131 104.379
21.1023 140.541 110.698
8.7605 96.0295 134.788
38.5892 194.922 122.129
38.6108 171.203 25.729
45.051 126.885 38.7883
29.5109 168.189 91.5783
4.90716 179.355 55.4019
17.0639 68.8961 84.6912
3.25076 90.9204 132.466
53.9143 161.738 25.564
8.80919 69.0317 69.3348
38.0496 169.159 33.3897
45.1788 50.4189 135.199
28.2927 179.889 41.5116
51.3423 147.493 141.001
49.3041 97.4886 60.4979
37.1519 159.939 20.2848
147.441 220.2 132.558
57.8314 51.8384 83.4539
18.9485 178.715 40.8805
66.8453 135.784 56.4856
43.0737 157.066 164.88
39.9512 146.307 136.707
36.2038 116.635 52.5361
14.8606 152.671 64.6838
5.10338 176.054 77.8727
29.0332 43.7734 77.6348
17.2424 82.6096 125.404
74.2038 199.485 133.488
43.3463 128.735 124.205
38.1514 135.29 119.309
15.5766 168.392 73.2049
55.2662 71.1352 168.188
33.3556 155.892 123.863
28.8437 176.443 95.6098
40.1874 122.515 174.266
40.3491 107.209 169.888
29.6074 91.5062 101.404
5.51889 102.312 92.2084
40.1077 117.481 144.281
32.5406 158.315 72.422
24.8323 104.233 34.4877
33.1583 114.359 94.627
52.4322 85.5906 173.704
8.18773 63.2316 85.9332
42.4378 158.974 145.892
28.8865 144.441 135.968
36.4522 80.1419 119.43
28.3143 96.1705 114.031
13.0772 106.264 106.904
43.9163 91.9994 41.3251
32.7825 182.721 63.7332
78.8466 46.0562 84.7375
39.0036 170.836 166.142
14.9283 142.298 162.913
50.2388 119.922 177.21
15.8136 85.9157 93.2198
39.1978 118.334 31.3975
38.3211 159.279 45.0718
26.9479 81.6409 81.4371
37.3292 84.8414 30.2766
34.8692 136.911 65.1712
42.8723 91.8612 169.221
51.603 148.831 108.17
14.8738 199.44 35.4444
11.4518 88.9552 111.346
16.8336 151.604 55.9302
68.4508 191.726 85.89
30.8596 92.3369 46.997
10.7168 141.184 156.436
20.6134 48.4096 154.798
40.3787 76.981 59.16
33.8013 135.023 172.852
88.8855 51.0823 98.4898
23.5789 175.094 151.02
43.5515 111.278 159.87
19.6187 128.047 60.3892
19.2684 192.733 83.7918
64.6441 168.626 15.0645
50.298 143.389 162.719
46.8636 184.322 110.455
17.8705 153.251 111.966
31.4434 81.7448 156.476
5.61036 61.3396 107.204
71.4599 62.3743 93.5681
7.97096 66.2185 77.8061
51.7836 83.0611 54.0877
6.82494 181.104 104.801
19.6722 145.275 137.017
24.6089 149.853 121.792
7.94941 107.999 150.122
35.0764 149.115 87.8346
22.6261 144.047 51.292
48.8718 164.116 123.297
30.2129 70.5466 166.964
27.9053 174.787 157.648
27.1102 124.513 83.2688
55.1821 172.332 172.137
25.9136 155.326 107.681
12.5743 182.826 101.854
7.99401 70.3637 59.5019
22.1331 138.544 59.844
3.38776 85.4418 106.712
32.5963 79.4166 161.777
49.3299 167.511 174.288
36.9364 172.978 84.046
32.4521 98.225 184.749
29.7288 149.833 126.503
34.7224 146.415 44.7048
51.8507 115.887 124.165
5.11042 108.722 42.3215
67.2368 125.785 122.529
9.58342 116.657 70.6677
22.143 130.545 114.146
17.436 149.409 119.096
16.8913 57.2492 143.614
13.2764 154.636 126.758
9.94634 173.964 66.3068
33.8882 134.68 100.399
24.8249 99.6976 185.957
55.4997 184.958 70.6156
66.6968 47.46 68.205
3.44395 146.892 104.312
2.66166 156.013 158.37
26.1899 48.8102 143.259
45.5616 106.408 33.0084
39.6149 78.3647 161.294
61.7672 63.7478 111.266
30.698 112.454 135.176
21.3496 65.2137 18.2398
15.7872 178.174 48.7716
20.8048 145.306 89.7077
51.076 59.4474 76.2775
50.6348 62.9064 62.8064
41.3473 153.14 82.3212
20.9322 156.8 141.71
15.4029 97.8674 166.283
36.2422 159.154 137.473
33.271 193.631 103.783
42.2982 99.8831 163.974
35.5311 186.394 114.296
52.1336 138.528 143.122
59.3971 170.869 23.1672
36.1015 86.4276 43.6555
28.9342 163.38 81.3435
63.2331 187.919 92.6213
36.8088 179.657 40.9311
18.1438 50.5199 145.767
33.3565 92.8632 168.721
29.9035 63.6146 139.026
75.0957 55.7645 98.3238
46.6857 60.5897 115.657
37.5638 68.3312 93.3462
26.5613 172.556 77.1785
80.0921 52.8705 91.7989
50.6967 166.103 19.0521
57.9699 104.04 26.3876
35.574 168.442 153.569
15.4801 136.981 103.066
46.452 62.8329 129.632
40.4465 70.7802 138.696
26.7059 88.8795 110.329
14.8593 73.9956 8.42787
40.4048 131.078 133.02
67.4765 195.435 133.255
34.4576 109.675 70.645
28.5148 129.228 57.5574
2.57495 143.786 76.555
56.5105 159.334 176.349
55.033 169.688 162.407
43.0569 146.804 119.376
47.368 109.741 76.6879
41.3034 147.886 39.2336
48.07 145.765 19.5718
33.19 103.859 72.7369
5.80813 122.248 53.6563
61.0051 151.429 167.98
7.55708 176.778 101.988
63.6188 173.106 158.533
40.6934 179.754 55.8918
53.3972 105.732 110.879
39.719 94.9904 100.761
26.1768 129.906 87.0972
38.8193 133.686 17.4632
63.6625 85.0748 176.236
53.3215 193.489 109.032
78.0765 178.228 146.113
41.3036 112.418 59.9669
50.2224 70.2395 146.727
61.8065 190.351 51.6541
44.8234 119.881 155.787
19.2348 75.5072 156.043
64.8655 189.433 119.791
20.5237 77.4526 108.525
62.0117 196.976 123.197
43.4305 128.149 180.603
58.533 123.996 164.678
54.6301 85.9697 125.626
86.2015 195.902 76.2773
24.9431 109.721 138.376
29.5552 144.756 41.0986
76.8099 196.329 80.3173
67.6476 183.591 125.988
83.1759 55.8145 79.2199
52.485 200.874 119.516
42.0273 132.455 38.1842
55.5274 85.8796 141.065
27.8693 155.215 137.785
38.0811 111.737 140.904
20.4286 93.6317 108.103
34.8608 106.292 113.783
46.9914 101.941 87.4596
69.9407 191.606 74.08
82.6912 193.106 88.1014
61.3225 94.7326 24.0836
33.9069 154.876 133.55
9.98346 197.008 36.3998
63.5426 58.7976 132.489
5.8979 101.431 150.42
21.7247 47.6006 135.122
51.7968 102.307 130.837
44.8729 169.935 193.338
35.6575 168.204 60.0275
27.3713 166.274 166.441
24.1574 71.3577 157.896
76.0136 185.446 140.979
37.4038 190.652 110.503
79.5113 199.318 121.472
30.9012 164.587 53.2199
45.7469 84.5583 81.9186
61.6287 179.751 179.991
43.1276 172.245 61.9878
12.1857 208.121 33.7449
31.4902 145.484 183.4
69.0779 179.497 161.088
5.83311 181.307 60.4353
26.7346 111.783 125.945
46.0541 186.621 120.097
5.46757 95.9193 171.786
6.28551 93.9682 64.3864
51.5648 112.307 54.8695
37.7685 122.567 49.5535
46.3239 148.377 168.213
52.8788 151.55 167.311
65.3873 51.3928 74.0113
34.8961 73.6636 158.072
37.6583 139.283 131.862
15.9191 161.835 158.699
39.9235 106.237 77.899
42.2891 151.811 143.182
64.209 156.113 43.536
31.2154 165.073 163.67
70.3587 189.394 40.5782
63.2501 211.114 55.9725
46.6989 133.912 138.538
62.8787 142.563 40.6017
53.6219 74.8331 58.6653
21.2481 175.066 50.3421
51.633 43.032 73.6226
38.1106 92.2527 139.114
19.7766 146.803 109.301
55.33 173.6 37.5105
37.2024 158.327 78.1135
58.0932 127.56 103.785
53.2004 156.013 96.0245
21.5813 68.9486 155.454
63.3312 142.317 53.4675
60.3312 155.987 127.715
45.9517 115.081 103.437
22.4668 74.9196 160.102
12.5735 35.5112 147.123
26.5956 127.946 50.1793
37.1044 96.8129 134.769
29.6177 117.21 152.872
43.1403 190.303 115.413
46.2206 125.208 100.8
61.4649 198.484 115.873
36.0131 73.4153 166.504
4.76887 123.574 59.1141
35.9374 162.099 54.9417
35.3617 130.655 167.043
73.2634 68.7147 97.6601
30.7102 41.2571 71.6433
52.3453 98.5746 120.649
63.9702 99.808 23.0816
44.0055 131.626 17.4409
64.1364 156.263 34.5861
23.9565 156.735 134.261
68.1699 100.673 24.1407
65.718 194.232 69.1401
3.55053 116.498 70.0088
36.9915 143.094 177.373
48.6668 127.868 171.124
52.5102 83.8567 132.703
67.8737 197.556 119.228
21.3908 55.3434 137.132
49.627 63.4914 56.7578
18.7516 170.443 67.1974
28.1864 135.603 53.1585
40.0484 145.47 124.677
53.0615 103.631 99.1757
12.3872 157.122 130.261
32.0983 160.045 130.316
71.3724 166.586 46.0251
20.9647 101.463 122.623
80.8274 190.839 131.356
54.4552 71.6677 53.2447
61.4064 165.72 20.0105
62.146 150.468 159.162
2.57306 172.049 92.146
27.3294 132.399 124.387
55.2825 149.302 133.891
