ply
format ascii 1.0
comment Created by Open3D
element vertex 1209
property double x
property double y
property double z
end_header
27.1339 50.4915 96.2321
18.5055 51.8055 101.925
29.4708 117.817 103.526
18.5204 93.9832 234.108
45.465 28.7308 84.3678
17.0842 42.1711 96.6991
15.7154 34.4831 21.4211
26.296 121.163 127.826
37.505 110.257 227.065
12.9849 51.3815 263.017
15.7944 184.783 161.302
25.9317 102.095 194.506
24.35 39.5382 16.0696
42.9307 120.812 239.852
18.6256 49.1563 126.132
15.678 33.7686 30.0691
9.90011 176.797 180.372
17.4859 158.519 119.92
31.9988 19.9758 133.055
15.6173 134.159 241.037
32.2425 96.3594 140.133
46.4026 38.3445 63.5292
15.5747 60.4073 259.09
17.6942 113.152 168.289
70.4184 18.3705 100.902
46.1668 126.659 103.298
17.4009 46.5027 268.357
81.5066 78.9967 119.36
29.6735 114.273 122.701
20.1827 115.233 187.062
28.1691 54.1093 123.219
31.0407 43.4638 80.1852
26.2366 195.075 166.978
26.6611 117.322 134.915
23.2068 36.1581 4.26181
34.1089 155.38 173.925
42.8715 80.3255 57.1584
17.0636 35.7033 12.4618
27.5888 48.458 128.478
34.7156 216.738 94.5435
26.0388 39.2807 25.6196
29.0543 139.701 106.048
16.1288 191.104 223.808
12.2515 183.171 247.996
48.6911 186.725 226.256
54.4034 12.4604 14.6396
54.8952 10.9305 81.3256
35.0995 38.628 10.2304
54.7087 80.7659 143.043
13.0582 26.4298 17.3257
17.6925 18.353 3.24907
38.7988 90.1361 140.871
34.5449 139.23 123.199
72.6385 25.1048 107.716
14.8827 42.0308 113.441
26.606 192.537 158.951
31.734 26.5993 41.6637
11.3704 208.321 192.287
43.6179 85.1745 49.5564
61.4667 64.5809 129.741
18.2585 58.8016 268.923
18.9213 96.2615 226.631
62.7823 70.8395 134.905
15.2659 3.95734 14.527
26.9812 38.251 32.6472
31.7857 124.868 124.402
34.8391 173.763 148.992
21.5107 68.292 254.964
29.9495 62.1599 213.115
17.4774 29.801 158.036
21.9373 142.83 238.91
35.9432 56.629 101.784
35.7489 54.1689 127.799
14.84 102.972 53.8937
33.8146 21.4416 83.8176
26.2919 45.6935 51.9583
12.6357 16.6934 12.5297
39.9631 162.008 167.695
38.0233 33.3453 84.4632
10.3998 173.199 245.901
26.4643 144.255 118.951
47.3935 99.8007 73.2798
21.9026 40.9612 129.059
34.3574 37.2712 250.817
21.2192 52.5125 3.31356
12.1345 46.0331 105.224
35.7199 129.087 156.437
50.146 138.681 149.551
21.185 15.1196 225.083
34.9372 83.284 174.173
35.4041 143.5 135.741
17.5759 194.599 129.195
13.7998 24.0822 102.371
41.835 45.631 91.003
56.1723 128.916 95.2385
40.0918 120.051 220.318
15.7524 40.8321 248.147
43.5266 184.867 183.952
38.1781 94.5909 147.157
11.2515 101.969 244.596
21.061 219.223 125.614
25.0011 106.392 224.119
36.6121 83.6793 50.2517
19.0044 84.6528 225.859
37.3778 86.7421 132.583
60.6633 108.582 96.8488
30.5689 97.9099 97.7393
21.5862 66.3981 262.978
12.2483 53.786 252.531
12.1418 106.403 62.3764
84.9468 90.9802 102.654
39.9934 80.1631 204.914
40.6183 57.6097 265.777
34.5504 4.63831 190.055
26.281 56.2268 106.612
11.0139 113.141 176.514
58.6556 41.0098 97.3616
36.5766 149.191 107.208
26.4264 170.484 211.321
10.1998 177.218 164.283
30.1849 80.6275 53.687
44.3897 181.416 219.845
22.2479 61.3948 243.798
25.2293 113.629 215.776
13.448 31.4416 99.9959
65.2656 32.9277 122.651
16.713 203.627 88.6358
37.1919 38.0836 260.637
37.2021 160.013 221.806
13.5585 183.346 185.478
34.0363 122.03 98.1569
38.1264 80.4134 104.024
37.3059 109.666 235.866
33.9651 168.835 213.232
35.3228 44.4577 243.653
49.0416 9.68179 85.3468
43.2895 85.5778 141.636
52.7618 116.589 198.68
28.3577 105.65 238.341
33.2804 4.33512 181.334
12.2079 12.9993 24.0821
11.974 62.8414 219.238
28.8694 156.548 162.794
33.6477 41.2563 19.6926
21.459 109.529 49.8547
40.6945 169.895 216.924
25.7961 224.136 85.5047
48.14 92.3175 54.397
17.5267 27.209 226.31
27.2799 169.215 151.455
30.0659 155.677 221.589
16.7818 25.277 38.0941
11.9846 6.99935 21.5849
10.0633 165.655 165.844
84.1115 126.802 137.688
14.7189 173.371 187.846
45.4608 186.249 176.841
38.7988 126.523 147.191
13.836 13.2433 36.0108
31.3186 71.7162 209.817
45.3917 176.795 177.129
14.3975 226.658 97.1541
40.4986 225.791 91.6839
55.0352 221.009 145.801
44.9269 163.176 242.51
40.8794 162.275 177.115
49.5218 18.8628 82.2372
28.3199 142.184 264.625
33.1135 99.1798 195.689
89.5782 116.274 130.795
24.9287 14.9707 88.8176
26.9983 34.5315 256.196
37.4805 99.7542 94.8045
40.5653 21.0891 133.397
20.0659 153.696 210.553
12.214 31.902 150.795
51.1326 76.7583 137.469
48.3094 177.959 236.677
32.864 46.8476 92.3666
48.9851 88.9417 68.6651
17.7991 28.2835 5.22546
68.9151 22.8495 94.9742
29.5338 52.349 200.646
16.7533 38.1795 106.166
19.2002 23.9058 94.0646
13.4925 25.3055 110.837
21.8537 139.379 111.355
44.8915 81.4129 66.9129
31.4071 109.528 101.911
22.6226 9.03401 100.165
17.2577 143.312 225.838
40.8026 6.73602 181.206
14.2449 31.3126 117.422
28.2617 115.898 162.453
33.1908 222.661 87.7658
24.2854 30.8749 41.0791
57.0811 148.638 137.822
44.8505 122.155 232.189
36.7462 108.26 148.758
49.9869 85.446 146.13
30.6367 86.4758 162.323
35.7772 89.3404 189.719
40.8732 55.3319 121.807
64.2796 12.5767 84.3686
29.8215 31.3994 132.92
18.0784 191.475 168.085
45.6518 177.099 185.497
60.2978 141.042 177.715
14.5308 43.2775 120.636
49.2265 129.859 95.0036
28.4676 156.127 121.517
35.1035 81.65 85.963
20.2833 34.2842 257.998
29.9349 33.5638 85.7142
54.2099 66.2054 115.612
10.768 159.687 114.975
27.3663 60.2138 204.385
20.941 32.0459 33.9094
84.0997 86.2206 109.795
25.7034 57.7853 53.3526
54.9507 164.485 180.367
49.5536 48.6186 130.35
80.9227 113.642 145.453
25.028 218.593 93.6274
33.8533 150.989 99.5602
29.2702 128.071 269.084
69.726 10.5131 97.2846
36.0026 162.145 187.21
77.99 73.6092 116.01
44.1121 171.594 246.713
62.1428 7.13489 96.5485
42.4387 46.4764 251.348
41.0047 46.7064 263.503
11.7517 107.561 183.996
29.5441 99.4019 46.5349
39.2214 218.557 116.221
24.5209 212.813 111.614
60.1973 42.464 123.837
36.396 33.5307 59.8863
56.8636 125.919 86.9818
32.3852 164.911 267.847
20.2542 178.32 190.946
32.9328 69.5938 259.783
60.8164 33.6123 95.1537
41.7632 48.9477 79.3734
50.9979 14.3309 35.0181
19.7206 177.873 153.947
29.1656 97.4964 236.686
18.5308 204.693 109.452
34.4534 112.086 220.321
28.6919 99.0603 215.319
48.2528 2.29276 84.8838
18.9485 167.885 101.846
14.943 133.68 217.598
38.8824 95.5747 47.0405
26.9876 180.643 150.03
12.7415 57.8761 157.178
20.7458 56.9671 70.3107
34.6835 131.025 108.728
39.069 53.98 244.531
18.4419 107.707 189.873
40.8439 125.161 255.047
18.129 18.098 114.706
12.0273 164.539 243.952
25.8799 41.2318 243.829
45.3077 114.625 88.1587
49.4993 54.6043 47.9961
30.3056 8.131 91.6289
25.398 51.2155 179.789
36.6803 5.9586 199.186
38.7948 24.5751 40.5231
28.9495 107.635 127.658
30.1121 132.131 122.963
45.7583 13.4389 133.125
30.851 124.756 148.761
23.2345 145.36 94.7102
38.4133 103.382 192.985
35.3373 46.2795 201.764
85.4866 120.851 132.074
28.4859 219.674 128.123
15.0629 51.4632 172.47
60.8477 159.98 206.469
39.5385 13.8194 270.409
24.7091 190 217.927
23.8999 91.3227 160.395
31.6503 118.32 66.3839
10.4044 168.287 223.445
28.8279 125.016 117.087
12.203 7.00634 191.288
27.1249 20.9679 44.4731
29.768 3.84692 103.267
17.1342 9.43937 4.59105
42.7644 45.6965 206.74
30.4129 228.336 130.949
48.8278 213.762 155.002
75.4881 65.1386 113.051
50.5848 145.506 147.187
25.4011 165.65 190.048
40.027 4.43762 87.2198
42.3414 184.625 251.069
22.4971 38.1417 92.1095
32.9265 119.252 154.176
21.5286 83.7188 179.368
37.6223 186.586 186.185
82.8859 126.333 104.024
20.4561 107.141 235.334
31.1815 90.2346 240.489
27.1203 134.451 265.878
27.061 161.233 156.146
33.2388 120.996 136.387
40.8992 165.062 253.398
34.2146 113.668 111.518
22.1059 19.254 40.5435
56.6461 141.85 106.735
41.1836 161.231 263.137
48.3073 36.761 135.964
32.2505 190.776 155.197
63.3991 108.319 81.3655
12.3374 229.598 216.433
40.1188 50.9342 189.832
21.6982 12.6742 115.671
30.3588 94.8155 133.028
37.541 129.943 243.617
44.0448 12.9097 39.4088
19.5755 139.205 100.938
47.326 52.5167 120.233
12.0351 19.9931 29.1322
15.5278 17.9001 104.936
66.4934 77.7957 141.702
33.2731 92.1668 159.148
17.7621 217.079 111.459
48.2032 8.71642 6.44363
41.6778 145.226 120.928
66.7643 149.034 132.188
15.113 222.097 123.912
13.4575 140.385 236.78
49.7716 190.605 246.401
18.5451 109.923 160.511
27.9654 104.683 115.863
48.8678 121.97 90.0399
32.4964 175.963 258.371
45.8825 95.5158 175.897
19.0956 156.311 229.538
31.2385 114.891 188.977
79.5806 79.9791 111.842
36.1504 77.4175 77.2452
45.9913 10.3111 126.25
44.7551 99.3056 189.327
11.3213 144.39 103.062
13.137 176.089 252.371
33.0258 106.824 94.7381
45.3447 81.13 135.447
44.7229 28.3065 136.862
44.7256 74.4856 118.053
16.1664 112.239 54.5766
44.286 169.795 188.468
46.3263 71.1567 124.144
35.7623 37.9466 52.4166
36.723 122.409 207.739
72.6717 15.0777 111.146
17.5811 62.8127 250.079
60.2616 21.109 130.867
36.0768 70.9013 217.904
49.0676 86.5325 61.0061
16.8029 3.68469 29.7236
28.106 106.016 142.492
79.8594 135.018 125.271
36.6793 155.357 244.307
33.7605 120.515 111.601
12.0611 46.8437 250.094
34.598 44.069 132.384
47.7218 144.218 127.494
22.0674 137.623 213.877
55.4408 13.0469 129.272
50.6423 3.52981 14.926
46.0672 68.0954 113.393
59.1055 75.996 137.223
39.86 94.0136 94.3042
42.9202 53.0586 257.739
67.4183 4.53345 89.3704
30.9706 99.2973 122.614
41.097 108.632 91.3731
33.9787 120.03 200.197
49.7842 170.421 231.515
28.2572 200.915 244.947
20.0455 15.8573 97.5381
19.8711 130.452 246.744
67.6225 141.86 204.782
48.8347 98.765 206.963
33.5439 48.698 193.456
39.1352 175.726 191.421
35.7504 117.187 245.564
41.25 43.3103 134.453
27.8871 194.803 176.695
22.7766 120.466 166.251
36.5351 85.0185 109.895
36.456 154.825 113.644
36.64 42.0681 269.836
47.0169 166.64 172.885
30.9209 69.8071 252.706
27.7428 113.55 140.281
47.8977 177.054 225.405
20.8425 4.6061 3.76818
31.3765 133.405 141.749
34.2566 18.3933 263.432
77.7044 85.4143 122.622
30.6899 214.316 118.141
38.2166 13.2795 128.929
38.5562 119.804 95.4283
54.0934 153.293 124.929
47.2624 167.025 237.379
61.6571 7.5307 82.1165
16.1789 116.805 180.291
89.1754 112.111 107.531
57.4782 134.522 100.363
16.485 51.8342 115.912
21.3346 227.4 129.992
42.308 92.7636 192.333
47.6247 94.6805 183.255
11.5831 190.766 125.7
37.4858 156.716 236.105
18.3972 32.9175 126.445
27.0516 84.1923 85.3302
12.5784 174.783 157.534
24.4392 114.303 54.8731
39.0623 39.5466 79.4641
15.8911 119.974 243.539
40.6311 85.7829 95.8427
25.417 39.6788 69.7229
14.3082 29.8604 184.255
69.3165 68.0933 130.412
53.6054 107.262 199.53
47.4994 32.6341 26.2361
22.0695 30.9138 90.4963
88.0394 107.671 132.36
30.5355 143.302 221.116
75.7958 87.8754 95.7381
37.493 113.756 60.4338
22.9632 51.2235 56.1468
17.2579 87.7085 174.93
89.1501 102.974 114.402
22.8291 86.9134 49.8672
34.6316 200.436 235.339
59.5312 63.2959 111.705
39.3558 213.924 139.015
65.0777 73.2535 90.4333
10.0143 184.899 226.811
62.0529 79.364 86.3031
67.61 28.06 111.977
12.626 225.111 116.649
33.572 97.9801 156.539
74.038 72.2824 92.0034
23.0321 147.061 225.35
32.8905 58.2395 190.251
36.4933 144.169 263.297
29.594 36.2255 62.5892
25.068 152.746 236.21
21.3128 225.251 92.6972
16.3095 94.4955 273.121
12.1404 162.546 234.632
46.263 181.735 157.287
42.2997 128.429 237.709
25.0847 9.72367 41.8298
42.2911 174.072 150.624
65.2342 141.119 104.317
41.2051 113.658 181.796
51.3563 74.7603 98.8031
35.9741 216.24 122.347
43.9963 228.81 125.185
33.1691 17.4849 44.9002
37.2509 114.915 104.527
43.6026 53.6348 43.6386
19.3313 11.026 37.049
52.3829 50.3352 209.654
34.7381 64.0875 264.497
45.7279 123.873 97.1221
33.3259 93.9988 126.772
30.0199 80.638 179.05
37.9211 220.979 128.005
22.5949 214.935 118.678
86.2146 128.785 124.792
11.3101 110.824 168.147
36.2749 108.317 51.1115
33.298 89.2868 102.591
43.8988 44.2855 197.149
34.9086 126.781 140.774
54.6701 46.6407 97.2207
36.8927 57.4427 109.552
43.5031 53.5956 102.641
38.0662 170.444 265.792
9.3301 173.415 230.614
85.8421 109.63 140.238
75.751 135.795 119.597
38.9222 127.313 105.259
29.8671 127.906 138.091
9.19548 157.185 106.41
65.3463 38.5974 116.167
55.3765 62.205 214.679
27.3106 67.2521 266.609
29.5548 103.603 133.035
74.8646 119.439 87.9236
42.1012 167.722 181.535
47.6088 202.836 146.519
38.5636 63.9552 49.2762
11.3626 4.43806 158.408
32.5049 62.2716 272.463
55.6314 17.7956 21.2674
11.452 159.267 171.382
62.2023 121.366 82.2113
39.9618 11.9499 84.6307
10.2571 226.309 108.483
39.4686 123.16 158.412
9.91487 169.408 171.956
43.5137 92.9371 219.556
26.6263 63.4989 63.2525
24.1255 117.327 71.3827
21.5927 53.8296 113.553
19.4127 168.22 153.782
11.0173 137.031 228.009
17.0996 91.0034 165.749
36.8416 30.1722 136.498
23.3956 95.8073 271.669
61.48 85.0664 147.418
26.5514 19.4379 128.132
17.1271 114.919 63.5364
84.0947 81.9186 125.879
16.0982 98.0618 163.098
85.8902 97.4017 99.5507
47.3595 76.5608 112.238
58.3823 111.07 83.7457
64.7228 109.634 88.5414
25.9267 82.4041 168.163
34.5607 133.441 148.256
39.5097 124.647 110.63
15.9433 159.474 163.648
17.5592 177.932 213.643
40.1618 123.221 91.8655
55.5057 143.087 152.957
29.9898 65.2964 244.744
58.8661 139.748 159.032
26.8407 50.3195 81.2014
34.5635 95.0103 104.708
29.6363 127.593 247.564
64.3148 67.2042 97.1931
24.2642 2.85861 35.6049
53.852 64.9678 122.779
15.2069 109.197 23.665
59.321 59.4829 204.021
31.2114 34.7764 265.276
45.9361 78.5271 201.025
23.8306 114.51 245.395
22.5109 166.704 255.717
17.5321 158.523 246.436
31.0369 105.73 108.115
19.3448 33.9536 174.569
21.4582 41.856 246.785
47.7886 169.663 166.204
32.9506 35.3113 38.8454
49.1868 134.257 101.104
39.3224 98.0125 232.443
58.3068 139.325 102.316
45.6268 230.156 104.245
40.3879 136.422 237.304
23.9484 191.371 185.036
41.1796 79.2485 123.319
51.2539 181.483 231.17
69.5581 63.7775 120.899
45.1026 133.631 154.699
59.8529 222.705 149.692
13.2039 21.8566 256.495
47.8617 151.209 132.212
24.1314 79.7683 181.991
13.0504 171.203 216.506
12.8537 106.36 71.1644
43.7391 222.979 108.543
70.846 30.6967 118.758
22.6083 199.587 236.501
18.9736 219.822 100.319
24.5447 156.795 223.881
19.7177 221.586 237.207
12.9489 178.379 220.065
42.5466 75.9338 215.85
53.6575 34.2881 88.2936
18.566 205.019 119.126
61.7886 132.29 93.9904
89.1368 92.9978 118.853
47.6869 145.018 161.814
27.4923 156.287 181.774
89.084 104.242 121.597
21.572 102.056 159.06
33.2213 2.25027 124.497
43.8983 126.874 225.962
37.323 184.649 150.967
88.6469 96.5211 110.382
40.3447 78.8012 228.199
32.7631 1.82879 38.9882
43.7536 166.585 225.707
33.5267 121.315 178.835
53.981 15.0795 26.9734
12.1065 199.526 113.361
35.9059 8.6614 41.9114
36.7882 113.455 96.1245
54.234 52.3612 119.964
43.474 196.824 232.588
19.3579 9.82112 170.774
83.2351 85.6031 132.012
39.6939 141.695 147.896
24.1591 27.8971 127.521
52.4886 75.1205 209.047
26.1192 128.8 211.237
77.28 78.3039 126.904
39.4958 35.9001 32.3211
34.2692 133.761 214.203
9.31397 224.859 174.835
37.0015 62.1767 77.1
34.236 1.76743 95.0159
44.5201 136.354 228.251
30.3764 154.339 93.4374
15.4938 11.3293 230.657
52.5225 135.897 158.581
14.3923 30.7231 177.208
47.5619 189.264 236.331
51.8609 23.1429 134.257
18.7036 163.91 159.012
34.9356 159.629 263.912
48.3806 107.207 87.2268
30.4813 226.879 273.72
39.6802 102.491 161.595
65.4236 127.233 89.7419
16.9203 62.6628 184.932
14.7432 162.077 219.741
84.1726 114.374 111.385
44.6987 146.172 114.861
37.9623 3.48829 2.25497
33.0833 144.657 113.424
23.1057 90.4457 240.277
50.0046 54.3542 190.051
54.4083 117.791 85.3379
19.1203 164.721 112.577
46.9122 98.8735 88.8746
53.2814 26.3274 24.2347
61.4978 45.3937 112.676
10.5836 101.924 172.299
21.93 93.2726 218.612
53.4651 68.3226 103.38
12.3292 189.714 238.4
34.7118 110.677 160.062
41.9772 79.9375 114.261
38.4198 75.1572 118.222
32.9375 131.752 116.129
36.3316 139.091 130.858
63.8834 105.545 164.594
43.5478 85.456 221.515
37.889 200.995 147.041
53.9387 50.4195 198.215
40.4482 209.718 166.227
45.2884 92.165 150.681
48.5059 88.1555 92.0738
27.6708 230.685 82.7308
39.1955 79.3242 131.005
62.5622 19.7077 88.2426
45.3716 167.113 146.221
65.4738 8.81337 124.096
13.201 168.696 107.863
43.1819 166.195 268.94
38.543 64.2847 247.721
38.0469 53.0606 271.88
46.6196 24.3461 36.2946
33.2042 75.964 71.1625
13.0163 161.528 95.3334
61.4134 140.196 204.547
41.1771 89.8736 236.44
57.3271 72.2816 95.3631
86.7704 113.434 125.823
15.7486 40.2145 259.785
33.1227 134.422 132.72
61.8463 153.708 128.144
50.1172 68.3329 109.112
54.6227 154.615 173.761
44.3012 145.726 147.726
28.5464 77.2844 63.7493
64.4144 36.7519 105.121
34.1123 114.695 77.2799
39.8858 178.997 255.559
64.1964 87.8852 84.4618
49.9693 97.696 153.485
21.6862 84.2356 235.545
26.2385 18.6889 272.294
36.5515 97.3146 215.296
67.2874 118.182 86.2196
41.2067 88.0843 170.256
70.5897 132.492 95.3784
27.2665 1.96324 187.472
23.4205 150.321 123.602
32.03 90.2853 201.819
42.9356 8.04498 191.49
75.3748 144.322 187.045
37.4844 35.8471 70.6854
48.6946 44.4542 54.1019
35.4772 99.3547 116.891
10.768 150.436 210.14
12.4651 48.1184 56.9331
56.0026 41.5032 131.524
77.5524 69.0237 124.289
15.542 143.041 114.004
77.8292 90.8544 105.345
31.563 36.6172 73.6047
80.1813 129.766 119.829
60.3816 172.968 228.788
86.7961 125.717 114.179
61.657 62.841 120.46
43.5274 199.602 138.283
46.3089 99.0772 59.8238
70.2525 4.74716 105.721
22.8103 229.821 86.936
76.9944 89.7106 89.9236
40.1114 136.96 152.724
47.0008 89.4681 79.1256
52.5143 155.975 201.676
68.538 150.644 123.604
35.0098 75.2057 199.134
65.1797 146.465 144.16
14.6127 19.0946 119.762
21.5732 101.879 13.6143
84.9215 118.49 105.003
15.1749 230.815 126.617
43.0963 60.9166 253.182
31.3685 144.988 234.712
53.8531 146.608 177.707
59.9953 64.3221 102.121
36.1487 88.7189 213.05
23.645 117.281 179.25
56.2994 2.2306 82.1575
58.7879 177.106 220.315
22.9967 1.69348 27.6682
45.4098 31.8557 8.32581
42.2748 101.353 213.512
50.582 52.8347 101.31
48.068 46.455 71.8517
10.7433 37.4376 108.843
11.5022 174.85 173.766
45.1585 161.32 141.32
43.7452 36.9537 17.9022
47.939 172.427 156.242
42.7076 1.8254 9.09237
71.1269 34.2023 109.217
40.6866 112.896 153.599
37.6323 144.017 129.556
83.5643 96.6514 107.961
23.0519 55.6237 172.76
13.7332 229.464 102.84
73.4943 22.8255 119.031
84.4108 102.978 130.246
69.0847 85.5842 142.915
49.9269 204.704 164.058
82.5349 110.923 106.902
29.6514 151.693 243.722
36.3363 124.819 272.633
36.9451 120.6 265.732
33.3429 52.6196 74.8384
44.1932 125.306 202.967
43.4775 102.624 80.749
69.839 89.0652 84.2626
41.1933 137.975 116.832
40.3636 142.079 230.08
51.3142 101.44 83.4836
71.0465 66.8768 96.4207
81.7924 103.932 124.396
9.04789 128.557 232.846
12.8409 177.339 92.8274
21.4016 49.5921 68.3661
44.7459 114.996 158.928
41.4873 163.881 158.43
60.7108 136.105 187.322
40.7217 144.455 141.999
17.3257 50.9368 188.738
21.6732 102.134 47.5875
10.6185 153.87 96.0034
54.5096 166.323 156.849
14.8029 7.43794 168.488
24.8259 156.218 249.632
19.3688 117.042 4.37622
25.8467 91.7022 88.995
33.5392 101.617 224.111
44.6773 77.3059 99.9107
23.4671 186.088 124.437
21.1217 107.47 85.4216
74.0082 137.923 192.85
30.8 113.702 54.5405
52.752 215.284 163.933
84.4362 113.563 97.0743
29.5188 89.5234 45.8756
37.982 44.3228 46.3797
58.5024 29.4329 130.752
71.9812 129.862 159.136
28.0267 160.62 214.757
50.1358 177.09 166.92
12.1936 97.8118 182.056
77.557 96.8659 97.0362
50.3937 136.472 267.957
22.2636 59.8097 60.1021
67.0796 133.396 100.772
45.2472 56.9468 113.256
50.9098 146.732 111.594
49.6188 126.514 262.206
58.6648 187.263 121.994
46.2379 2.18091 203.728
48.5051 136.059 106.83
15.2853 66.3796 90.1752
72.9146 102.045 148.421
22.4916 214.572 101.728
67.5236 148.883 138.055
24.5832 40.1234 267.751
87.3407 96.7854 124.57
29.6741 64.0336 198.642
21.1539 56.1361 273.634
35.7026 67.3131 69.8832
27.4866 54.6464 75.8108
30.6628 156.129 241.993
49.9065 23.8718 29.8199
15.5646 3.06114 243.199
41.2571 3.34177 125.508
68.8483 139.429 182.566
81.0848 92.1383 128.658
21.3759 194.04 250.93
18.3307 24.3063 123.653
53.4486 23.188 14.0996
25.2275 196.168 124.532
48.8186 97.3609 65.855
48.0069 117.348 215.328
89.5031 102.405 128.433
36.698 139.296 142.472
45.1016 188.527 157.639
68.8502 17.7331 124.537
75.1661 129.979 107.47
90.0361 115.01 114.429
47.3785 23.613 8.4035
50.605 3.30323 197.831
19.8856 88.5595 187.454
20.2325 101.746 245.64
30.665 77.9358 234.372
79.1585 89.2088 114.972
30.8695 113.203 146.677
18.9402 189.308 182.317
15.391 186.321 120.384
79.6412 111.861 86.114
45.5267 185.899 242.286
71.1161 142.661 110.335
70.4513 125.83 88.8627
85.7396 120.107 141.394
23.42 118.466 173.274
24.7698 98.7984 110.659
33.0429 59.0103 115.712
20.2111 228.242 270.616
33.3456 100.993 145.724
23.0271 58.7214 76.894
56.324 81.1692 91.704
46.5026 221.248 149.305
50.7663 80.2073 90.7409
11.8186 127.112 242.402
80.6075 125.691 111.368
42.265 226.788 152.419
52.2176 157.002 139.195
33.4879 8.01911 140.349
57.3614 102.854 82.9996
47.919 204.369 139.269
68.7987 90.8482 148.104
35.2869 46.7178 273.515
57.4736 110.581 162.584
56.524 104.811 207.968
35.5656 230.132 87.7585
25.9589 102.466 272.937
21.6235 34.0152 181.119
52.1762 111.304 84.3767
40.3951 1.75663 36.788
71.3592 142.258 143.814
30.4015 135.45 256.419
29.6311 65.5036 69.2364
50.2265 146.718 140.493
81.4429 103.3 146.555
78.9075 100.344 101.336
12.6731 60.5656 2.56145
34.0171 135.975 273.702
74.4528 78.9817 141.814
67.9736 136.87 197.28
36.9449 52.9621 43.7977
61.3483 95.2242 153.852
81.9278 107.989 134.432
75.6635 96.4932 138.85
27.4383 164.581 98.0865
55.6871 131.532 165.84
45.1136 104.675 183.012
15.6719 38.0219 66.1914
45.9381 210.832 170.137
43.7096 105.22 54.8998
81.5298 134.505 133.473
74.2691 146.829 117.483
29.7905 100.251 104.536
43.491 144.866 269.413
85.602 102.304 94.9601
73.6831 115.341 82.3824
53.8428 70.3704 130.005
38.1561 200.047 119.793
39.6641 69.4996 256.018
37.4685 117.136 168.7
65.9287 2.96717 114.755
83.1246 93.9025 135.65
68.6883 148.296 113.998
60.978 167.229 149.904
84.5478 80.4542 96.8386
78.8814 122.806 91.1976
43.1911 101.808 152.274
79.9432 134.053 140.643
52.2765 106.898 215.849
27.3424 6.54074 112.745
51.6526 53.7866 64.7059
64.0953 21.4024 124.286
52.509 181.877 238.405
36.1499 192.952 167.001
32.505 1.34874 116.783
37.5021 110.695 213.773
54.699 195.029 130.533
29.8659 126.43 260.195
14.8687 164.243 180.994
44.897 158.028 148.808
42.984 39.507 72.1391
26.4776 33.7846 37.0466
55.7429 70.4355 200.028
10.9967 20.2049 226.885
68.0099 148.282 208.553
25.8039 11.8951 121.222
26.9401 43.5252 44.7984
17.8857 196.808 238.615
22.1571 139.122 205.661
57.095 172.115 147.632
60.8708 226.99 137.645
11.0266 117.622 232.535
29.6186 173.246 194.29
21.4005 154.761 173.311
30.3333 207.084 257.805
31.1315 196.023 115.911
15.6708 59.6711 11.8839
20.5267 184.084 110.206
63.1166 136.979 274.063
33.5775 36.7643 3.34555
37.8709 155.853 166.348
65.0781 230.98 142.789
21.6078 121.756 213.808
37.2724 211.43 146.452
33.3268 188.911 255.314
14.9 9.54727 123.066
83.4025 101.728 108.84
60.2229 25.6424 90.8456
62.0014 133.906 159.717
56.1572 153.308 132.679
58.0521 29.3676 86.8697
18.8245 188.75 187.796
40.903 190.654 172.476
30.4128 161.578 112.933
30.1457 105.789 160.012
28.9985 179.342 213.82
52.368 4.37426 181.8
51.8722 225.38 105.379
46.5612 140.771 108.806
36.5464 95.5584 88.8334
61.1002 229.805 154.864
51.4702 90.4057 152.845
26.2679 1.42864 3.11881
8.77578 122.368 194.485
37.4177 194.958 113.78
36.9407 195.639 250.814
61.4114 135.456 150.991
49.0887 104.215 160.199
83.7728 90.8041 117.147
54.3279 7.27604 31.4142
9.53744 193.46 119.945
12.2133 11.279 245.251
39.1579 192.822 222.469
49.0348 115.825 273.963
89.5827 119.588 122.994
64.0871 218.144 102.083
85.4017 109.386 114.825
10.8058 92.1858 174.478
71.2465 144.203 128.804
60.1718 102.252 156.887
24.451 52.0368 240.814
14.1903 49.6466 23.4421
74.214 160.139 181.107
38.3951 86.9485 124.922
14.9641 160.956 228.528
55.9313 61.6104 194.246
42.4879 211.317 155.317
20.3081 81.5748 68.4152
69.3223 103.633 82.7612
58.1022 70.1506 207.098
66.8303 61.7462 109.858
56.7085 87.1174 150.995
52.18 52.6476 56.0955
14.7016 46.5496 179.179
41.6853 134.18 107.226
57.7198 218.999 102.033
40.679 30.2391 2.04784
11.0955 129.756 181.005
52.2497 142.203 108.401
33.9319 52.181 212.077
14.3334 186.085 174.893
63.191 112.76 162.912
43.8567 146.478 134.394
44.7059 59.0512 219.472
30.9126 84.037 116.822
48.9546 53.0933 109.656
76.6024 91.3037 143.416
31.1151 182.956 190.366
24.542 98.5151 245.747
78.5866 128.86 97.6954
69.9779 155.83 175.635
38.5259 136.129 223.349
67.4876 118.308 167.545
15.849 89.2355 55.3563
52.6163 152.462 147.307
26.8863 82.5126 216.233
30.8117 114.929 115.947
82.7072 117.138 117.922
34.7578 1.50556 173.793
72.89 108.197 153.748
71.8262 140.049 151.559
41.3538 125.855 162.902
52.4106 184.84 127.954
32.3439 47.3272 45.5243
63.607 169.102 185.613
16.7129 113.207 222.732
36.3112 136.405 116.517
25.831 106.238 46.8278
51.3284 222.333 137.659
54.2343 3.83996 190.83
18.8209 209.574 259.027
76.8116 103.147 140.577
79.1524 79.1807 99.4073
38.6684 21.4012 273.881
48.6804 139.163 259.196
70.0569 8.91141 115.403
74.9128 141.291 132.135
46.0382 124.802 167.19
26.8153 186.015 117.665
75.0432 164.752 226.284
33.9183 215.279 104.212
58.9856 95.2816 85.8037
43.2559 194.83 247.163
39.0769 88.5399 44.8818
46.8947 64.3925 188.671
36.5722 132.766 122.158
44.0497 105.381 166.845
71.0563 160.011 203.525
61.2116 144.96 148.888
17.8083 126.575 1.68205
12.0609 50.1262 219.566
14.0818 97.7738 78.7458
11.5934 174.312 117.474
50.7293 73.7527 195.076
87.4549 103.63 105.319
37.993 150.337 153.09
20.8908 87.5554 273.474
66.4319 187.926 221.309
67.363 147.546 172.733
37.706 105.32 203.123
66.8389 175.621 208.453
79.8487 117.277 96.5795
48.5312 64.1028 54.7275
61.6749 157.686 174.665
50.4813 173.424 248.622
23.38 64.1692 5.97372
10.9025 53.9773 210.123
30.5562 53.0288 271.705
15.9195 65.4766 5.58186
34.7622 159.15 157.222
32.3294 161.419 249.923
73.762 186.691 221.09
30.4886 183.316 215.91
81.1892 71.1645 98.2906
61.9058 152.111 119.042
73.0101 73.3204 129.897
49.6559 126.098 157.912
42.6185 1.46002 118.777
16.6789 102.844 274.607
27.7694 202.284 114.066
59.6296 151.212 209.557
77.2377 128.042 137.755
47.5512 186.813 131.531
45.8015 21.6065 1.38735
54.0694 2.65943 25.2354
15.3385 88.5674 183.478
73.8498 85.028 133.579
78.9389 129.198 130.253
57.1353 96.4681 158.435
27.9898 191.83 255.372
47.5416 205.224 113.934
74.902 78.3438 91.2868
48.3635 2.46268 129.704
54.3183 145.172 202.089
54.1572 106.329 166.778
54.3013 145.977 120.625
12.4797 24.2151 67.5014
10.0499 231.265 247.622
41.5503 67.8973 63.6396
66.8285 130.006 165.221
64.6235 183.712 212.831
48.2131 183.338 193.231
61.5818 152.417 170.756
76.6767 73.7518 104.767
20.3547 187.175 254.647
37.9102 188.613 118.886
12.2269 92.3586 64.2169
76.3644 64.9282 102.227
48.8591 150.874 189.441
82.3144 69.152 108.177
49.7482 5.60438 35.8294
19.6489 1.07217 17.61
36.5425 199.471 141.266
55.5042 21.9273 86.2511
81.7632 165.537 222.492
58.4306 196.595 122.343
61.5 129.532 167.719
23.413 60.8171 186.092
78.5535 84.0475 89.4844
63.0925 1.22583 100.009
60.3787 148.758 112.569
80.6871 132.239 112.681
65.6537 31.4114 94.0706
62.8666 227.378 144.543
47.2589 197.322 132.314
28.2303 38.9467 54.254
45.313 182.64 124.949
47.8021 179.211 244.469
47.7206 130.364 161.733
76.8665 104.246 89.3791
15.5056 26.5773 54.8556
30.9824 96.1647 90.8282
9.31161 194.055 136.48
77.5284 95.504 87.6466
49.8482 17.1854 5.79643
17.061 231.021 89.9261
27.1883 190.571 119.493
71.8784 135.994 108.409
14.2183 124.37 219.134
44.6859 222.996 139.911
66.1439 181.376 229.066
47.7866 2.92262 28.683
71.0137 109.74 164.74
13.7549 182.86 177.212
51.0033 111.1 164.113
41.2141 194.444 165.959
83.5072 106.238 106.282
60.3591 147.45 273.821
61.4503 231.26 97.6012
46.7017 231.618 114.917
48.7822 226.207 133.759
10.1858 102.617 255.442
11.1008 50.2825 179.523
77.835 181.499 225.035
23.3741 48.2168 75.3565
33.238 25.9536 270.752
12.8183 55.0987 187.82
15.2485 222.138 235.409
19.6483 202.439 258.046
15.1774 88.0191 273.658
71.1606 80.4306 86.2574
51.5116 226.177 115.472
59.4437 135.691 196.272
12.4016 182.647 119.832
41.8176 90.2996 78.6926
23.4576 223.485 274.694
85.2759 75.9987 110.681
20.9676 38.9256 272.405
16.5609 84.9346 71.6473
82.18 106.594 92.8368
73.6512 122.938 161.999
50.1065 11.5885 1.78002
43.8138 209.391 148.321
53.155 4.02975 123.676
44.7648 74.3952 193.88
41.588 66.6583 188.855
66.8498 123.754 160.212
70.4149 63.3892 102.922
49.747 131.392 165.925
40.3736 137.303 274.511
82.247 122.927 148.902
53.3995 53.2487 107.392
28.3845 16.3505 264.189
64.0876 17.0586 128.351
69.4838 110.505 81.5885
39.4833 1.20159 94.9552
43.9783 13.5333 1.093
56.8774 3.94016 119.682
33.6158 110.179 202.303
32.2589 101.049 274.82
46.5793 87.3329 274.547
27.4115 50.6192 274.439
21.8731 85.3454 217.807
9.90133 77.4259 191.652
18.4643 97.3658 84.7228
23.1479 33.9658 191.924
25.41 54.434 273.592
44.1556 132.842 274.724
60.9621 165.216 176.621
32.7903 231.576 83.0242
63.8601 170.142 192.502
43.0834 92.3615 48.0313
25.3305 104.132 88.3946
44.1185 90.0955 84.0207
