ply
format ascii 1.0
comment Created by Open3D
element vertex 736
property double x
property double y
property double z
end_header
29.4207 11.1706 268.469
69.6428 179.896 134.57
42.3172 12.6418 263.047
62.3804 24.9394 269.56
86.8009 176.552 62.6973
65.8356 189.49 116.787
90.117 12.9707 268.303
52.4027 20.4561 265.597
78.1376 84.3791 75.7991
62.322 21.8609 263.814
83.359 187.801 72.5506
58.2194 189.73 98.0871
52.1114 159.623 123.995
123.634 119.909 33.2073
81.7243 154.019 149.866
72.429 158.873 57.213
93.2088 105.525 156.405
115.491 45.9148 69.4502
126.183 53.559 50.5937
49.6497 27.8613 267.746
112.628 48.2542 77.3572
103.784 73.6122 63.9448
50.7769 13.1069 260.314
61.5585 164.968 134.285
52.184 174.873 79.4765
48.0464 158.077 79.5344
79.0406 12.9719 262.916
88.7578 3.65166 264.934
59.5755 140.424 122.464
118.781 48.3864 57.7568
42.5427 22.3192 266.271
88.0587 102.453 74.5915
67.3537 179.207 65.7593
53.7087 171.478 73.1552
101.992 101.691 59.5933
76.2749 172.258 139.635
91.1884 154.329 154.148
94.4392 110.916 64.8602
84.5707 162.871 51.4361
55.5433 147.118 117.903
56.1672 131.073 76.1637
110.149 121.26 51.2877
104.702 62.4168 53.5458
42.4387 29.3153 271.093
107.29 80.9812 38.1733
59.6532 174.961 127.771
81.2177 6.17545 263.995
30.5816 23.0609 270.488
55.7517 166.581 67.5748
106.678 55.9885 94.7672
75.4335 187.378 76.6365
99.0952 97.086 154.266
93.1839 75.2173 89.1606
52.4163 143.348 124.499
100.952 141.923 165.289
88.1989 190.924 121.598
59.309 165.597 129.297
96.3996 134.105 48.1212
74.6995 96.7894 105.95
115.369 95.826 157.596
97.356 143.757 53.095
76.1856 147.734 148.175
75.9067 165.168 142.258
89.9895 67.1587 95.2493
104.032 134.072 52.4819
127.521 53.196 58.6536
113.916 66.9024 50.7062
53.8513 176.911 118.451
77.5499 93.9203 116.283
105.932 93.9597 154.846
77.6871 162.87 54.6028
86.8814 178.609 146.733
112.751 55.6686 100.449
81.5935 128.478 58.9127
105.684 189.304 134.867
59.2507 189.666 108.838
129.913 69.3266 125.352
53.5413 178.665 89.6384
84.0586 16.5554 270.605
108.864 147.87 165.1
108.006 176.68 60.8625
69.7241 135.02 141.75
119.037 109.739 33.0693
58.5378 30.2185 268.537
111.624 106.453 164.205
70.5911 20.1794 264.122
84.2595 154.544 50.5093
98.0671 82.1923 68.9175
73.5868 14.4878 261.677
62.4554 7.63062 262.821
68.9421 169.515 138.845
55.829 164.439 118.815
78.3003 131.759 54.1841
56.3571 156.601 131.528
103.691 87.6167 146.738
58.4075 117.247 112.683
118.643 104.816 161.196
76.7741 142.113 152.31
109.644 100.219 58.2136
93.0262 198.504 94.3649
67.7548 184.723 128.291
115.203 67.1395 80.5638
50.7682 141.195 111.532
70.8374 108.835 88.2863
35.8594 3.51966 263.131
48.2201 166.317 115.629
100.444 167.364 159.573
76.4811 194.346 92.1839
46.0132 171.271 99.8329
129.21 63.2303 88.2592
68.543 193.499 109.344
47.0676 164.402 101.024
97.2107 109.669 57.3034
68.7098 151.398 145.465
122.416 44.9393 83.2222
84.0425 168.683 155.17
106.351 177.502 155.028
118.737 147.452 165.796
78.6729 26.5928 272.13
91.142 186.139 73.2862
104.11 72.1152 43.9507
94.3808 166.34 52.877
92.251 68.7329 67.1867
88.3776 138.654 48.6752
134.873 67.7783 117.506
94.6765 178.06 59.1563
84.5962 193.578 80.1288
65.9049 183.257 120.782
84.7796 135.372 54.0338
108.751 125.645 166.948
78.7078 141.712 55.3104
49.3317 151.135 90.1592
109.473 117.742 165.121
50.9681 33.4842 273.485
113.097 191.09 131.895
81.1653 95.9735 84.2013
92.0708 122.7 59.3322
74.8239 124.786 73.4935
63.0285 123.041 127.373
137.226 71.5093 126.579
83.2311 166.95 57.2338
75.8754 114.878 63.1559
66.7526 125.128 137.853
110.015 152.577 55.1975
97.9872 90.4383 42.0375
52.9087 154.47 69.2692
54.8891 180.892 84.1613
35.29 16.4159 265.395
118.323 87.1023 152.769
107.167 101.269 39.0858
112.64 52.2592 54.6274
101.266 66.1163 57.8865
49.2479 137.65 95.5105
109.788 141.844 167.048
119.152 98.6465 31.6
100.547 71.5959 51.8774
43.9534 158.502 89.5155
81.8875 135.82 48.9735
113.479 65.9639 97.6309
76.4579 194.606 84.292
99.4011 195.93 86.3605
96.3492 181.639 148.901
97.4566 84.1085 47.8701
71.0891 194.323 98.4075
91.5868 87.9508 139.929
114.311 81.4811 146.239
121.605 68.8083 97.0931
120.583 79.2646 52.2271
121.317 57.5279 104.536
106.973 65.1241 69.3657
80.0064 174.248 62.1887
80.4456 185.695 134.948
82.6671 82.7165 62.2596
58.4563 127.454 85.3606
105.974 194.55 128.009
86.7125 182.544 140.479
113.505 53.7797 89.7875
117.684 48.8561 92.7743
64.7437 172.724 134.136
94.0455 195.757 111.057
80.4819 166.125 148.638
75.4006 85.3659 84.408
76.5146 94.3428 94.7941
67.0866 12.7638 260.014
92.0318 192.415 80.4794
95.0938 125.074 50.4263
65.7719 160.079 142.679
121.612 46.1146 70.7387
109.772 58.4963 54.1035
42.4771 166.578 94.1199
99.9306 77.1893 46.1989
86.5635 123.208 55.8609
107.762 67.4444 47.394
65.8796 168.032 60.0495
119.427 52.0807 97.2893
101.946 114.352 53.5432
123.376 65.2046 117.631
90.708 91.6006 50.4123
49.6819 165.938 75.6942
71.4536 115.856 139.731
96.5247 143.061 161.113
131.937 110.702 162.207
55.8654 170.691 124.521
68.5764 143.468 142.581
62.8909 184.645 88.2965
86.6693 196.517 89.4521
59.508 120.991 93.5159
88.1679 113.785 50.8015
90.2765 160.616 155.372
104.234 52.1467 84.9923
120.093 70.6852 129.725
74.5925 184.568 130.545
112.113 86.3436 44.3673
112.763 70.4972 54.4077
120.045 71.3823 35.2753
127.408 80.006 48.1366
96.7916 68.8767 114.042
75.8641 21.4686 266.88
46.4023 150.563 84.6906
116.205 79.2067 32.0765
97.3972 99.4476 62.9693
100.801 172.368 156.283
132.017 63.8867 82.9807
93.1292 167.259 156.071
63.5187 190.47 86.3567
83.5275 176.779 138.706
82.0405 121.979 61.8605
138.013 62.7755 84.0994
114.986 49.182 86.2743
126.25 71.6404 33.9877
65.7411 146.563 59.5342
71.5213 6.75478 259.928
137.893 85.1344 148.074
83.5547 23.2987 274.01
46.5454 157.579 95.6887
60.1116 141.584 128.807
30.512 29.4835 274.073
108.263 154.9 159.97
53.4866 173.058 110.329
50.6242 180.913 99.6812
89.9931 129.785 53.5734
50.626 132.649 117.522
67.4148 29.0221 273.475
65.3711 153.88 138.078
130.386 50.9415 93.6819
60.4073 178.19 68.3773
107.697 60.065 107.989
114.107 79.1896 36.8191
91.9332 83.4021 49.413
78.807 174.253 146.301
106.138 196.226 116.12
114.258 64.2766 105.356
61.0306 121.372 81.3691
121.353 93.3024 156.371
89.4177 98.338 54.1317
74.0241 121.703 62.8987
86.9456 111.315 61.9651
129.691 148.218 163.144
129.82 60.5764 38.2831
104.579 108.414 159.449
136.688 129.982 43.4462
59.9216 180.824 120.975
123.361 63.6298 104.882
90.7472 148.531 157.037
130.655 97.8571 158.544
101.937 61.4024 63.3273
72.5979 187.337 114.287
71.3607 114.935 70.6027
81.9706 161.267 152.933
99.3069 151.421 160.312
107.642 60.5829 100.625
94.0421 193.69 127.888
60.8172 139.925 134.92
99.4068 169.496 56.9716
125.627 54.1863 100.893
111.501 89.6058 152.566
136.365 51.8508 86.4876
112.993 179.686 149.893
88.0879 77.9739 74.6259
91.6515 99.6776 62.0175
114.918 71.3931 39.4692
84.685 72.4002 92.8161
122.496 53.1837 63.4664
56.3108 32.79 272.814
63.2705 2.6588 257.848
65.8766 111.449 114.645
116.69 140.841 166.913
65.8215 117.005 76.5021
77.6705 157.209 149.059
82.9232 118.027 150.952
57.5657 15.2802 261.416
95.6198 159.69 49.3877
131.032 73.5664 136.532
59.7551 142.319 64.5832
65.2605 129.602 73.6953
124.504 62.8886 79.053
106.662 182.76 67.8649
88.6478 197.146 116.372
49.5159 142.104 86.9916
83.6652 184.279 66.062
73.9543 182.946 67.7934
120.954 53.1264 46.9905
135.664 90.7192 31.1537
113.787 64.8177 43.0395
89.3373 103.214 66.1301
124.546 107.816 51.703
48.7716 177.564 111.301
66.5178 186.415 107.94
103.377 86.1456 40.6334
58.1804 188.809 103.869
46.6735 173.868 87.7725
52.5384 157.311 117.311
62.5957 112.091 100.471
78.516 196.571 105.864
100.713 192.944 131.893
95.691 66.7991 106.218
67.982 190.366 78.0426
75.892 172.976 58.9683
22.8414 2.19765 273.654
48.4316 180.839 92.8955
81.1603 127.403 155.644
89.4671 189.639 136.267
119.748 113.919 161.561
54.3483 136.501 124.534
63.9996 167.019 140.052
73.6177 112.362 76.6331
82.6517 194.453 98.0409
96.2346 67.2164 60.3964
72.9883 135.189 56.9967
52.6105 150.149 110.738
67.5739 122.022 62.9887
87.0673 93.1123 138.694
58.1454 7.67231 258.255
99.6669 119.311 161.678
46.1595 167.579 84.0939
51.1084 145.105 76.6428
61.6347 159.188 60.9257
93.2535 183.531 142.505
110.166 166.076 157.601
69.2164 130.143 64.2315
137.074 170.569 81.3987
111.527 69.7544 84.4438
95.2069 91.1386 69.0668
88.8128 23.0305 273.838
113.433 157.633 163.537
119.037 116.598 50.8147
100.521 58.447 85.0444
63.9079 184.786 94.9018
131.44 129.078 163.583
126.798 122.104 164.569
127.712 186.951 127.931
113.99 64.3078 114.145
118.34 146.254 52.9661
67.3622 114.316 92.7518
124.38 134.14 166.718
86.916 199.441 107.965
123.907 179.42 133.63
79.6497 78.6382 100.688
117.071 189.593 124.794
58.4752 124.029 107.231
59.5382 184.134 112.981
45.8426 178.457 98.0824
83.8369 80.9306 91.1538
90.8409 171.781 58.0228
129.297 107.149 32.1299
71.1096 174.093 61.2689
67.1732 160.277 59.9291
130.983 143.395 60.6931
115.669 79.246 46.7467
25.7732 19.4368 273.981
55.9388 182.293 98.7889
62.7783 148.541 134.484
71.3618 142.854 57.0066
93.0727 67.3367 88.5168
95.0747 135.993 160.145
132.055 105.198 159.312
102.958 151.803 53.5667
59.8507 131.198 69.0331
94.5918 101.298 151.005
72.3013 154.74 149.536
57.876 185.138 80.7608
91.3114 157.819 50.9342
112.653 70.9023 66.2981
100.874 62.5516 104.903
83.7136 146.13 48.5993
103.712 182.605 141.43
67.8477 179.745 126.556
93.2426 171.545 148.879
87.4807 94.57 70.798
107.758 99.2329 34.3068
82.8809 112.792 65.7142
92.9479 145.932 49.6255
78.3982 195.315 116.267
74.607 127.348 58.1689
101.787 125.787 160.741
110.829 182.743 142.344
108.195 139.352 51.4197
90.8656 91.2858 60.7454
127.909 48.2304 65.6911
101.962 58.2271 91.344
129.386 142.363 166.154
76.3578 147.118 54.3577
29.5929 3.60501 272.234
106.657 103.182 52.5281
132.822 52.204 50.4824
95.3867 188.302 133.408
60.1856 184.893 74.8878
125.14 186.07 137.302
77.5518 186.033 121.3
128.274 85.6177 149.335
55.0738 180.213 112.243
50.0681 160.895 104.926
73.6673 193.147 106.912
90.7979 77.8955 60.6453
92.3358 176.183 150.493
136.837 95.0944 155.904
132.576 80.8583 146.207
32.7594 220.728 258.736
127.917 155.19 160.136
47.8496 152.08 117.984
98.9157 61.8745 69.6805
56.9625 149.685 66.7325
56.0749 135.596 133.296
69.53 123.654 70.9263
67.6455 105.058 101.211
110.779 85.2786 53.154
137.972 77.1019 139.177
75.1644 1.6331 261.537
73.0881 176.334 140.612
81.1196 146.656 154.495
36.2656 27.4101 271.688
134.19 76.7016 32.3217
97.5201 198.006 116.523
121.482 125.8 52.3407
95.2301 78.3533 72.8858
85.6759 142.185 152.936
125.905 65.2904 34.2123
52.4899 181.467 105.798
110.541 67.885 60.8472
97.1637 183.165 66.6205
97.66 77.192 65.9977
108.539 74.487 132.788
123.699 191.362 120.484
129.794 79.1011 31.2118
68.4929 119.212 133.001
80.3136 88.6915 113.693
67.0671 114.745 125.981
76.8668 150.525 50.5297
102.243 54.5181 76.4742
77.6935 100.661 128.864
48.7318 172.849 105.878
116.636 58.1124 46.4167
116.342 130.922 164.933
123.811 62.72 42.2227
136.977 59.4296 65.5448
131.302 50.5417 74.5996
63.9886 131.949 141.622
50.6692 147.065 105.305
138.778 70.2417 32.5152
107.363 55.0214 61.5761
119.921 153.38 59.9071
108.036 178.562 147.073
137.031 180.676 118.13
84.9164 69.9989 75.1931
73.1004 105.378 78.3245
119.02 136.565 162.425
69.3455 107.699 124.181
116.212 68.5737 125.197
101.198 68.2638 66.7331
98.8607 122.014 54.5154
126.149 153.686 61.3464
111.525 86.6788 58.6244
134.05 174.881 128.849
99.001 161.916 162.823
95.8572 196.233 101.489
101.496 177.105 149.03
112.351 96.7411 33.6027
96.0913 129.139 160.285
117.39 74.8774 139.251
102.916 70.5718 75.5054
107.154 100.081 160.173
131.153 176.492 80.0156
130.405 56.6745 86.6597
57.119 122.976 119.42
93.8982 152.454 50.5329
128.254 113.183 36.3299
99.641 107.597 162.175
78.9659 191.541 127.111
74.9777 87.1899 103.254
97.7066 6.32805 274.721
104.959 59.4084 78.4819
93.66 115.027 159.472
90.559 117.377 56.66
98.0933 192.112 123.226
118.418 137.858 51.298
134.983 54.6898 98.1603
83.3226 78.4182 72.9768
132.734 69.7344 35.6952
65.4615 134.836 61.7497
92.0548 15.1862 274.72
83.6995 142.994 161.498
89.3604 184.699 133.166
22.6637 205.714 267.638
115.973 82.8258 50.7155
134.11 53.753 58.9144
138.176 170.783 122.831
129.838 91.0555 29.7686
123.166 92.0637 27.1373
76.3995 120.97 144.725
114.988 52.6082 61.4887
125.537 136.504 52.0041
52.7348 128.639 88.448
109.796 167.865 58.5697
98.6931 153.758 47.6926
115.878 89.562 29.9099
92.3493 6.07177 272.126
76.3582 85.6908 91.6127
77.1983 111.447 137.643
53.613 138.228 77.201
110.32 112.726 52.0153
123.838 145.145 164.737
104.616 120.636 55.063
94.4303 78.0113 53.5964
98.6784 186.202 139.587
88.7137 100.428 149.407
82.3623 88.1231 83.4805
103.853 135.704 42.3122
125.242 155.727 55.6537
137.175 52.5238 73.2985
129.931 134.55 43.9887
98.9497 69.7051 88.1466
129.21 99.6894 31.2649
15.9022 218.163 265.458
99.6364 80.7493 58.2229
33.1269 121.629 268.05
127.606 61.2531 67.2317
96.413 77.4272 128.397
85.0062 140.064 157.025
87.8584 196.794 100.277
123.961 178.016 78.315
114.136 130.167 47.818
124.488 76.9087 35.3793
64.5032 110.786 86.0947
88.9162 76.4945 103.257
111.389 147.425 57.6337
108.04 81.1436 142.25
78.9182 112.208 144.904
88.3925 82.2775 82.5688
108.003 69.4836 123.287
95.7243 60.6592 79.2582
102.364 158.579 160.457
42.0528 1.70964 263.242
112.953 195.514 121.551
87.9443 106.439 59.1175
82.0727 98.0632 73.3859
119.014 79.4395 41.729
124.304 50.7924 89.1495
52.403 1.87228 260.275
26.2448 201.636 272.413
88.411 83.9413 59.2902
137.123 83.1564 34.1222
114.872 164.155 58.7132
127.388 51.4599 84.247
133.198 54.9661 78.7959
117.948 99.8096 52.0992
110.579 187.098 138.486
67.1989 100.522 104.748
113.246 90.6564 34.7722
59.4031 127.544 123.124
122.379 153.053 162.046
128.179 58.5878 109.752
124.724 80.1829 144.521
81.6351 200.466 104.197
97.4918 75.0133 54.7207
87.9072 116.612 154.516
131.798 118.135 162.969
101.375 70.7685 116.469
68.5558 98.8264 93.3232
101.101 174.764 57.8561
102.594 58.2728 71.7775
55.924 150.284 123.592
102.403 186.893 78.5114
101.384 92.4855 54.9939
116.799 123.357 51.7576
56.0916 132.793 109.966
96.4909 72.6362 65.354
136.245 55.259 41.6553
123.727 51.7294 74.4675
135.477 48.9818 66.6797
101.59 197.578 120.712
49.6158 148.104 98.7377
136.842 55.5357 51.9038
117.988 193.349 105.469
130.237 107.399 51.5492
117.418 107.08 52.405
111.415 186.718 119.15
100.059 196.579 95.7846
114.418 56.1567 63.538
85.2482 169.169 149.449
124.971 191.298 110.928
103.107 84.7117 60.015
126.973 67.256 56.7705
123.741 160.33 160.697
136.029 54.9696 67.8166
106.692 158.87 47.9023
102.846 64.2311 84.8415
105.873 195.082 93.111
124.824 104.52 162.652
115.494 125.771 166.972
116.878 64.3644 38.5955
106.206 67.5071 101.948
78.598 127.508 149.177
76.8087 133.552 149.445
110.108 134.588 161.04
129.903 176.539 135.006
110.243 96.4665 54.1619
50.4804 130.139 106.396
130.278 61.0894 72.9995
132.572 163.981 74.4844
132.422 161.501 63.2654
103.083 127.025 49.4779
85.1673 97.2199 135.542
115.81 113.064 166.605
72.1986 101.911 126.816
121.249 96.5559 54.2969
129.903 182.425 118.578
104.66 148.839 161.512
126.841 130.289 160.654
138.632 69.6525 108.425
112.608 52.6198 72.2812
30.927 10.3137 114.897
78.9652 108.234 68.2566
111.941 58.8629 47.4169
117.809 195.014 115.308
118.422 63.1792 67.5309
128.803 185.098 91.4238
38.1858 4.84095 114.721
93.6319 155.435 162.163
132.444 101.334 50.6913
113.491 174.012 152.919
71.9025 97.2228 84.9971
36.9218 151.755 267.508
136.791 170.984 139.165
100.501 96.6813 56.7786
117.007 182.904 136.541
105.443 78.8401 57.107
116.847 179.052 71.9029
97.3777 62.2984 94.4144
119.527 171.627 67.7617
105.84 130.725 160.864
80.4001 88.6471 106.915
110.676 161.891 51.5404
112.271 193.432 116.924
128.137 189.044 101.764
101.711 108.241 52.9397
55.6972 131.586 115.813
83.0854 85.5737 67.0577
89.0557 85.9077 71.0267
87.6538 73.225 110.421
111.366 187.424 76.269
136.508 180.454 106.254
108.015 94.0852 36.2546
109.081 86.9142 36.6451
106.097 199.048 98.7883
85.7105 83.0676 77.5499
129.861 86.1023 29.3019
122.501 99.0391 160.915
87.4063 84.0425 119.698
103.626 194.82 102.953
83.32 86.4197 91.0695
87.8059 106.768 147.516
83.0666 191.188 123.426
119.147 86.8259 41.7929
121.574 175.212 151.831
126.528 170.382 68.128
139.225 175.267 129.735
85.9989 131.38 155.033
53.4946 138.732 102.298
103.807 57.8982 62.3636
121.439 122.982 165.686
87.9687 127.492 157.635
130.524 90.5792 47.4425
84.4267 83.614 99.3192
107.565 92.8132 30.5167
120.808 66.8918 39.459
108.096 143.822 59.1674
122.472 104.685 32.9623
51.9987 200.867 247.542
121.28 83.4047 39.762
51.6705 154.457 105.733
102.638 153.499 44.5759
135.389 73.2904 50.0548
130.279 115.255 50.0524
109.657 194.283 101.665
99.2968 81.4659 137.371
42.7278 17.606 118.554
69.1477 220.63 184.964
111.608 195.224 87.725
120.122 95.8255 48.3164
131.604 137.222 162.092
62.5551 111.921 119.71
138.992 106.693 158.245
117.389 187.214 85.4194
126.438 99.1442 47.8356
70.4711 102.991 72.9757
63.7205 220.299 190.581
138.791 170.799 88.8395
117.58 181.221 143.705
135.436 69.031 96.288
90.8422 82.2399 74.9974
138.115 61.893 60.7874
133.227 95.5981 45.1956
63.212 115.966 87.2555
95.8983 91.9221 145.303
115.268 66.9022 118.562
46.3925 1.36603 258.435
106.962 155.844 52.104
81.8349 1.24095 261.84
137.633 61.4517 53.8582
116.009 169.618 156.276
85.0775 84.9187 127.575
121.09 185.286 128.53
135.207 100.881 33.0355
89.7198 74.4718 96.1983
131.2 161.983 146.518
83.7843 193.911 113.687
138.335 77.2222 36.1113
127.319 127.172 51.8256
133.248 151.735 157.285
137.06 57.5034 60.5658
96.2885 220.216 275.029
117.583 90.5334 47.684
107.65 186.991 77.8953
85.1352 77.573 97.8078
94.8133 150.673 45.0607
129.274 92.3413 38.2754
