ply
format ascii 1.0
comment Created by Open3D
element vertex 199
property double x
property double y
property double z
end_header
16.3654 168.823 88.1859
40.3787 155.077 136.293
23.6223 62.8576 24.3623
37.3746 161.245 117.327
14.9713 155.467 66.6042
3.7295 136.482 119.753
38.8361 152.904 123.733
17.5715 164.907 80.7078
38.8538 173.383 106.911
29.2358 165.737 105.832
57.0981 118.083 100.5
22.3593 121.304 133.536
9.47157 17.5099 255.466
27.0405 140.432 131.075
3.17414 153.871 95.7384
25.6241 159.459 73.7366
45.8683 132.906 136.744
12.6703 117.87 70.9072
29.5304 139.416 67.9388
41.2876 113.033 89.0935
18.536 49.5334 265.248
46.4894 151.91 131.494
21.2976 128.673 53.773
24.0083 160.688 141.534
12.887 143.95 64.865
5.00681 126.883 91.395
23.8784 166.212 85.9
22.015 72.0199 38.1795
11.3745 154.042 109.779
32.0427 144.12 98.2838
8.91779 3.96079 243.194
34.3596 145.42 136.276
33.8369 152.715 79.1617
3.17351 70.7624 36.9018
19.0534 116.427 61.367
21.3419 43.5768 23.8348
27.1846 47.0678 36.8325
20.9016 164.358 107.394
50.8766 151.357 119.065
3.30131 2.81035 255.955
9.76141 135.843 73.5378
6.67409 126.864 76.2936
14.3593 124.113 85.7636
49.2503 161.598 114.356
10.3543 15.9403 245.791
56.1656 156.129 112.525
31.1637 101.558 123.453
24.6419 140.84 62.8605
26.8594 118.885 66.5814
3.04731 144.281 101.474
40.1361 154.28 90.2734
7.36256 3.62318 232.907
4.74707 150.452 105.097
34.0943 144.773 73.6974
29.301 163.388 97.5726
5.52969 124.475 99.486
5.02077 129.192 83.072
23.7441 125.713 65.4818
40.6991 116.804 123.694
32.0343 116.599 135.163
5.75377 149.153 75.5831
56.73 149.776 94.5484
7.05354 25.8709 256.43
2.60041 135.224 88.9041
31.5952 163.549 82.6092
43.3025 159.837 101.042
46.4652 145.64 124.137
23.7135 52.0438 170.224
10.9006 135.543 59.1889
29.2868 153.359 120.851
50.6073 154.75 97.0652
38.359 165.658 97.9007
23.9038 103.943 101.974
25.2696 112.473 105.705
9.23213 172.59 133.239
18.1564 130.863 71.3459
33.641 161.909 123.206
21.897 155.94 197.438
15.651 119.3 90.2612
27.6058 109.566 129.635
33.9772 98.6442 102.918
4.05726 11.6923 258.074
2.18141 101.54 177.575
1.90847 110.211 81.418
46.2359 141.03 129.811
4.58899 65.971 223.511
28.9105 172.562 90.0292
48.6886 159.269 90.5893
2.9182 4.22275 268.417
26.4765 79.2089 132.561
42.9158 148.621 81.6548
54.1338 145.042 89.0511
40.2068 148.778 96.1795
25.546 116.269 89.7811
22.8521 145.857 68.1798
25.7643 122.419 77.0638
40.2944 120.826 133.721
4.97557 122.226 106.275
30.1872 123.343 140.832
39.7048 124.171 140.183
26.4742 121.741 101.616
47.2024 130.868 128.171
27.1713 114.067 74.4033
3.01608 36.8835 272.84
47.6649 142.526 111.943
34.6558 144.135 109.532
37.0247 82.4732 263.099
49.9186 133.509 101.846
23.1329 114.127 99.4224
52.7998 150.922 102.536
3.78499 1.63899 245.985
46.8704 129.485 94.0772
57.3973 129.407 92.8123
46.9405 145.95 136.597
34.4096 113.424 99.5815
38.4366 121.271 98.1027
25.776 225.002 1.58678
45.0027 139.21 99.404
3.09031 52.4624 272.42
2.86195 16.2009 270.865
41.6007 125.63 128.116
32.0326 130.575 136.336
25.4753 108.983 116.214
36.3141 105.631 91.5986
32.6243 110.302 110.393
38.1267 146.384 117.093
52.2838 162.605 121.613
54.2331 140.886 122.658
17.3823 113.864 100.741
46.6869 105.112 115.731
48.2357 114.621 101.502
3.42355 25.0151 266.436
10.8109 74.9145 140.032
37.7629 106.448 126.07
43.3903 163.044 106.193
32.4018 155.095 90.9578
18.7337 130.812 63.3031
42.1919 112.666 99.4834
41.3374 122.302 102.653
31.2432 101.891 111.555
39.0774 131.273 98.3216
5.76296 36.3454 266.096
49.7287 167.199 109.343
48.7992 140.662 86.9293
32.5542 119.215 129.424
5.13377 11.3386 247.679
26.4983 115.44 119.965
43.1411 137.809 124.387
11.8717 128.425 95.2495
31.2374 157.369 100.808
56.0072 166.701 108.204
58.3286 153.127 100.735
42.4566 114.278 113.496
59.9702 120.872 110.423
45.7471 153.903 107.941
46.7856 127.089 119.03
43.2743 120.464 108.12
49.172 138.259 117.2
31.8595 49.4656 35.4404
43.2891 157.342 94.5065
41.4495 100.528 119.324
49.6843 124.367 96.6287
48.1702 138.274 107.832
38.5964 133.295 127.597
47.0926 120.396 121.515
38.6327 198.204 180.949
50.719 127.246 104.481
11.4017 112.388 95.8117
44.6904 128.637 107.34
51.95 117.847 113.644
55.9021 146.417 105.635
18.0474 131.066 82.6364
19.0468 109.693 119.177
41.3692 108.219 115.195
37.4155 106.236 101.603
42.1581 112.261 106.372
52.5068 146.903 125.281
53.0463 131.269 117.219
6.71494 130.343 97.7021
9.06367 76.4111 99.1431
54.0978 129.917 108.921
27.2801 156.163 105.346
53.7883 123.897 110.064
27.5236 160.714 121.668
3.378 9.42704 274.375
52.3621 129.996 94.8844
17.6924 143.322 124.353
1.41974 121.65 133.238
24.2983 67.6858 242.322
8.61791 96.0899 15.3813
55.6512 132.375 101.517
47.8843 131.678 110.045
21.7327 136.976 68.0515
30.8425 81.2779 247.063
41.3809 121.423 119.702
17.5067 85.3907 261.744
49.1875 154.777 274.84
36.5652 98.7966 111.648
2.89481 162.959 59.1615
