ply
format ascii 1.0
comment Created by Open3D
element vertex 175
property double x
property double y
property double z
end_header
91.4732 215.023 85.9967
81.6846 211.499 87.0926
89.6531 227.622 116.353
89.489 215.618 98.3485
12.843 81.6032 201.855
89.3126 217.638 72.8899
17.7358 20.6082 138.679
15.8767 128.718 184.026
50.1642 81.0356 239.045
67.3555 209.02 91.8912
88.7826 222.835 108.407
24.1709 75.8438 219.204
97.8218 123.866 253.084
79.6239 213.526 102.144
93.1471 227.427 68.0737
7.28098 124.57 153.234
93.6072 125.486 51.5242
64.5351 141.407 254.336
56.1754 210.447 97.9256
106.471 115.198 216.509
148.234 185.067 30.939
87.6231 141.869 265.239
66.0446 93.3115 256.734
124.406 200.257 90.3685
90.1645 192.627 218.204
64.8545 224.268 120.949
47.5296 141.857 240.258
53.3589 153.255 212.365
98.7064 111.358 227.687
95.0766 221.749 87.8354
103.026 134.569 248.944
56.5054 148.047 246.379
50.053 142.654 222.883
66.3895 212.764 105.891
78.4629 179.222 213.993
88.4074 106.759 215.082
14.0477 31.6403 181.92
121.901 143.021 205.754
86.3174 227.595 57.1799
12.3672 143.256 197.001
98.3044 225.839 101.736
71.2449 100.461 36.5732
33.3193 84.8722 247.835
141.176 214.862 88.0329
94.9132 102.565 213.84
19.2092 112.069 23.694
61.8713 211.827 70.5745
157.116 223.385 271.774
114.638 152.629 193.762
9.09655 185.712 196.777
11.1921 55.4605 153.681
34.735 228.825 110.975
87.017 169.468 60.0406
99.7529 203.846 31.1175
70.2996 163.43 194.262
8.98559 129.84 195.703
42.131 223.28 113.372
127.03 194.164 258.191
54.3653 156.182 234.412
13.6521 124.719 190.316
137.585 129.529 32.9608
72.3706 218.92 113.729
76.7098 139.125 258.285
90.8255 181.568 221.145
111.278 166.833 203.139
168.494 196.37 181.755
72.3074 176.631 231.474
93.0353 114.156 252.985
76.7403 217.887 65.0149
120.283 139.25 225.766
145.492 155.081 151.541
21.2996 156.707 216.4
99.1723 183.327 233.838
53.4842 166.934 229.627
86.8762 107.743 229.253
54.2072 125.647 211.237
113.159 139.919 192.038
88.0227 124.633 52.8344
71.5769 209.623 78.7625
88.9522 143.869 218.666
52.6222 140.09 190.485
111.49 165.133 234.414
101.901 226.279 84.4751
77.121 229.476 122.032
119.889 185.434 253.479
48.1789 117.012 212.142
83.746 161.489 185.346
85.0296 128.114 254.388
24.1113 135.336 212.136
30.8247 4.77914 188.19
39.1889 215.441 87.5349
54.5364 142.367 205.86
12.3958 73.1897 192.892
111.176 144.06 242.368
41.905 230.059 119.903
122.722 149.682 214.524
48.8069 122.788 224.186
78.5902 120.346 258.242
102.416 174.319 235.247
73.5768 172.391 222.629
60.7205 167.528 214.657
82.9301 168.63 191.75
36.8831 80.0747 251.163
75.7041 114.246 195.011
98.195 181.007 258.043
73.2239 105.775 202.116
56.8287 120.379 231.919
77.4619 149.338 182.76
60.2764 154.869 197.831
100.659 157.649 185.896
157.626 120.725 12.5733
82.5613 148.862 259.155
85.9841 179.459 234.902
116.661 128.812 204.821
168.811 187.496 58.2949
47.0579 210.319 87.7453
31.328 225.729 97.7597
110.908 171.084 214.871
157.419 191.146 106.567
102.52 177.732 221.7
15.1427 146.528 209.186
10.0553 69.9615 184.29
57.1878 218.917 61.7975
124.939 184.569 248.638
74.6982 174.007 204.339
65.3213 131.679 252.218
50.9935 216.222 110.375
98.1237 231.187 111.43
94.5864 135.055 181.272
94.0627 173.636 200.183
117.163 158.638 228.108
18.6973 29.6674 203.863
94.5577 139.92 256.064
87.4545 174.573 199.218
50.5883 158.29 221.185
21.8419 142.753 196.009
89.6019 111.051 198.697
13.5629 14.7535 178.325
88.983 119.569 188.123
84.2623 152.646 217.655
126.943 167.526 62.5309
58.3901 115.918 220.385
40.6634 230.649 61.9779
169.153 224.785 145.445
55.543 147.689 269.526
76.3631 165.089 250.674
30.1582 107.256 241.901
70.9526 109.765 205.992
17.7209 69.1611 220.103
57.8416 159.323 255.371
28.052 28.7108 207.176
11.8582 26.7585 274.245
126.744 173.288 213.704
69.1639 125.471 189.978
100.269 161.34 187.461
70.9312 108.005 226.58
13.3712 1.05913 218.357
18.6941 66.4884 81.9092
96.6673 178.554 211.456
65.7658 137.489 189.565
55.1686 209.381 78.9112
48.9418 215.889 68.1283
61.2111 231.179 124.974
35.0172 223.587 76.1563
108.563 173.772 66.1941
35.0076 221.309 98.8468
64.9863 228.886 54.4005
95.7577 160.027 252.175
48.0612 214.81 105.821
46.5782 214.159 73.2747
95.322 119.596 189.848
99.7428 230.882 76.072
105.116 184.237 245.556
128.785 144.852 245.567
26.8016 18.285 210.428
