ply
format ascii 1.0
comment Created by Open3D
element vertex 671
property double x
property double y
property double z
end_header
11.0854 94.4445 85.1912
10.8752 157.727 47.5319
22.4117 5.76995 55.5319
9.25988 123.081 209.115
9.18418 119.563 191.204
37.5659 105.184 147.655
49.812 98.6836 127.607
33.1908 155.958 175.47
35.1587 177.85 191.935
26.0734 175.087 177.886
35.2125 12.0399 120.981
40.0095 115.117 55.9933
8.04134 107.699 200.274
9.54954 138.323 213.2
40.0887 158.618 178.3
37.933 117.173 72.3759
9.92044 130.575 181.246
9.50427 178.859 202.596
16.2474 81.2153 88.034
10.16 137.563 170.535
38.2916 113.826 165.806
43.4126 126.754 78.8453
34.0169 140.806 244.645
30.2842 187.063 244.983
24.8546 98.7458 88.2908
37.6218 153.846 247.577
28.0839 109.488 151.644
8.79825 153.763 200.633
42.4172 135.981 83.9356
23.013 120.393 126.272
8.4153 110.65 190.819
9.74002 151.604 213.33
12.1864 160.234 226.847
9.24853 168.631 206.234
9.60461 125.703 186.892
26.955 155.77 213.524
10.3399 145.5 167.319
48.9712 100.687 96.0939
17.8205 114.877 207.692
39.6594 170.255 266.805
21.6478 120.646 115.135
12.5758 162.379 166.655
19.2201 121.453 64.5606
38.1393 168.709 179.455
41.1745 137.256 94.0664
12.8417 132.228 206.003
19.8528 121.25 238.802
11.7872 117.565 240.946
25.8077 127.285 243.81
50.1027 112.601 63.7412
16.3807 133.723 73.7134
21.9238 157.348 175.908
43.4986 104.34 107.191
38.6728 128.376 63.796
8.96291 169.437 221.453
28.6366 80.3595 84.6391
51.9732 100.446 165.945
15.1847 123.839 228.248
13.958 149.481 72.4702
46.664 122.864 73.9369
65.406 126.214 145.636
10.4485 192.631 216.232
27.6909 190.908 238.954
46.3194 76.5925 105.181
10.4107 181.201 194.045
10.6979 107.864 217.713
66.1657 101.834 149.949
26.9286 149.515 175.171
12.6783 113.311 57.4043
31.4934 115.278 158.748
34.0696 169.189 204.371
29.6717 69.3377 87.204
26.8197 188.092 198.155
25.4941 74.3863 91.1373
19.8141 159.893 169.189
13.2537 155.617 219.959
18.9511 191.104 222.117
8.64005 113.499 208.55
19.9874 170.309 173.304
50.1673 89.8117 56.8653
18.9743 115.761 99.9208
16.6026 139.575 233.865
9.71362 161.083 216.586
32.9846 67.7349 74.9032
27.9558 189.436 219.836
40.5999 104.003 167.023
8.55924 144.713 209.721
54.2489 77.5081 66.0357
22.7494 94.5971 59.6364
15.2662 119.759 197.358
26.0171 181.515 250.511
13.8464 103.729 54.417
46.5181 125.882 64.6362
55.2373 80.8629 103.531
37.8966 113.2 106.933
19.4524 122.018 93.6929
65.0193 132.443 141.848
10.7444 170.959 185.8
39.2501 90.1942 102.414
18.1473 150.996 233.47
55.5707 91.187 99.3118
31.1798 94.518 68.0302
8.77812 174.941 211.745
24.316 122.918 142.999
10.4354 90.3393 75.7067
33.2046 60.8654 83.0698
52.457 75.4204 83.3443
14.2235 173.836 246.466
27.3595 109.867 57.2107
32.7436 117.331 128.037
52.0507 163.973 248.781
40.9186 84.8549 57.5342
58.0614 100.123 95.3661
36.7224 68.2934 81.9705
37.4527 138.411 104.353
26.5504 124.876 81.9773
45.0818 178.124 264.72
14.5435 91.913 52.4326
9.02933 159.607 190.175
21.3036 160.449 253.458
49.7775 171.968 267.856
21.6678 133.901 226.045
40.7589 125.198 123.822
40.289 184.354 250.102
58.7832 137.234 146.627
33.9733 107.188 116.166
18.5525 115.367 218.345
21.5324 132.559 112.884
70.2157 63.0797 95.5756
36.0743 98.225 143.071
38.206 123.44 93.6896
46.2935 60.8135 81.0519
31.7908 109.729 126.663
28.1649 167.073 263.972
9.11152 182.548 226.761
37.4859 136.299 142.615
9.57428 98.1155 227.847
41.8181 144.377 106.436
37.4421 137.223 113.814
11.0838 149.03 193.767
15.7502 98.9224 98.1316
26.5062 96.8032 54.0056
29.7754 178.84 187.633
17.3307 128.174 190.364
58.7212 119.769 163.367
67.4598 62.1292 86.6007
45.6869 99.5305 165.416
10.9099 129.552 234.334
54.2396 122.031 68.6663
20.0929 96.307 67.0631
33.8858 174.939 181.532
25.5215 117.918 98.6182
29.8921 189.958 229.811
26.5626 90.1572 69.5505
7.54174 86.3054 63.8523
25.4189 144.846 251.851
53.9347 104.413 60.5686
17.3231 169.151 240.309
11.2321 136.159 225.478
30.4872 173.873 244.931
23.7682 172.326 241.569
45.2041 88.2954 65.842
33.1911 129.346 245.558
48.4664 70.0069 99.0008
27.2739 106.822 106.859
28.0663 105.97 115
30.308 129.143 141.932
42.8733 74.9959 99.1698
30.6706 158.419 208.14
20.1668 162.284 210.455
28.6318 152.442 181.797
42.0242 82.4085 105.35
40.0506 95.9999 135.961
38.3359 97.1437 128.673
60.1861 84.057 81.5435
69.2935 119.05 149.241
10.0788 118.919 200.44
47.3376 178.916 256.496
55.8198 113.656 164.667
26.2737 121.634 72.0167
30.0536 183.372 192.415
9.29933 144.135 227.671
55.3643 68.1367 113.304
57.7268 107.491 66.4527
52.1836 119.646 166.434
26.0369 197.196 48.4347
75.1977 91.7948 112.625
21.3378 94.688 96.9042
14.8915 142.726 66.815
19.1636 167.135 183.573
66.5254 123.503 153.077
7.87909 128.332 217.074
45.3569 59.3753 89.4916
31.159 134.369 134.058
39.6553 179.328 260.163
34.7104 113.75 206.404
44.0127 68.0403 81.4196
73.7216 70.5046 112.954
34.3405 88.1439 71.2029
14.8888 89.4137 91.5239
30.9937 100.836 51.3573
27.5595 182.852 42.2596
47.0673 104.525 68.6307
51.4306 54.2622 93.8566
21.4281 110.072 224.258
20.0169 146.185 240.862
61.7248 67.82 100.252
27.1249 88.1641 96.5496
24.1718 113.738 143.017
12.3098 170.16 89.6239
61.8557 124.33 158.248
39.3793 172.851 194.265
29.7404 78.2669 77.4855
60.1099 135.251 138.095
22.3068 140.972 66.7649
38.2131 186.972 267.435
13.6859 110.651 199.801
17.7275 88.7223 140.347
40.8134 127.256 70.185
27.5119 161.233 171.981
44.9706 163.181 250.675
23.3148 117.83 224.445
32.1473 81.3303 95.6593
14.3491 109.88 85.3463
26.4292 131.884 106.419
21.2441 126.529 235.522
64.7525 57.9879 93.0513
70.3087 64.0648 104.572
17.9723 188.07 237.789
31.606 102.392 155.281
29.7371 74.4482 84.3032
68.9218 122.666 134.608
56.211 128.997 151.795
19.4738 177.227 184.811
26.6861 147.601 236.43
16.7387 109.751 52.3438
24.4667 189.683 212.322
63.0566 129.331 154.487
61.9711 80.1819 120.382
55.8476 116.998 139.113
28.5452 137.48 99.1999
43.1291 175.783 248.399
46.9098 135.393 152.925
29.2308 133.11 66.3682
50.2165 131.322 73.4332
62.9104 63.2254 76.6381
42.1481 109.406 119.545
52.6241 139.339 128.593
44.1811 139.749 117.745
27.3941 88.283 54.582
54.8034 82.6438 115.026
51.6583 95.3908 109.625
15.2963 119.626 222.715
56.8083 54.0707 87.0399
20.0904 115.986 76.7411
9.97221 179.397 247.07
62.763 88.9672 72.3368
49.4203 141.244 133.582
12.3071 104.183 232.994
68.3138 112.14 150.76
16.3828 142.159 179.61
43.3329 116.128 84.3826
48.7921 164.181 257.746
49.9789 126.05 151.762
27.4495 156.444 260.864
52.124 127.245 80.6871
19.2039 124.129 100.167
55.0461 89.6892 113.498
34.6673 183.429 198.686
14.9602 117.383 213.769
33.9489 175.29 265.196
63.8112 131.113 131.167
11.5733 133.955 188.287
14.2637 142.958 241.831
35.4025 76.1792 68.9308
51.2875 108.774 167.843
23.0181 136.509 93.1568
43.4678 95.2464 155.116
34.9602 137.251 67.0919
28.3455 106.918 132.967
16.5402 126.469 69.5235
10.5781 155.198 184.393
14.7305 162.648 188.038
50.1677 75.9069 111.263
59.6549 82.212 88.1759
48.8023 55.3119 85.0741
59.5381 108.355 77.0189
38.7418 117.805 146.832
48.5684 128.74 98.7734
63.6654 73.2402 119.614
15.7387 143.73 197.377
15.1268 135.282 194.448
24.5725 113.769 63.2023
24.4332 167.246 250.164
47.3788 136.29 102.323
33.2048 103.87 160.697
38.1725 138.701 87.9213
45.215 110.789 169.99
65.2232 91.531 91.1108
25.5171 112.6 134.783
37.0664 180.505 203.081
45.9726 97.8151 139.123
52.8125 60.3916 87.1041
9.83032 186.422 220.831
26.0526 107.002 64.6522
41.3797 128.617 90.1875
42.4625 141.546 135.69
58.0614 99.8723 156.376
32.2447 130.01 106.697
53.5241 58.7476 80.3368
17.7122 88.4203 63.0553
11.2591 148.475 182.064
21.4083 147.047 179.241
35.328 125.565 153.452
84.7493 81.5961 98.6212
36.8366 155.289 262.289
8.71868 146.428 220.354
34.3108 159.277 194.774
25.6029 110.101 128.089
53.9818 140.561 121.463
55.5805 107.434 139.625
46.7917 143.26 127.118
21.0827 109.572 118.395
24.0158 68.0558 81.6611
49.2074 134.613 114.441
38.4822 140.744 75.596
20.6763 132.78 248.826
56.5784 73.4742 106.892
8.22476 125.925 225.987
52.94 127.506 159.332
18.5017 152.406 167.905
24.8005 69.1871 70.838
32.3379 188.021 201.696
49.4397 99.1771 148.544
21.3507 129.607 102.466
70.7654 88.2341 72.8693
36.2715 130.471 147.808
57.7449 127.312 103.828
10.32 141.582 180.421
9.16755 167.452 229.649
20.6375 176.396 257.787
25.7667 114.344 75.0657
39.8759 87.7412 64.4232
57.8293 79.5959 98.9565
36.6237 136.779 135.796
12.8918 179.536 61.9202
39.5346 169.309 249.208
29.2418 81.3558 69.9225
46.4751 162.777 245.006
51.424 112.829 123.087
53.5463 96.7307 134.102
33.6897 158.676 244.065
16.9346 177.543 238.651
12.7487 183.938 51.2079
19.2692 103.516 67.1312
9.06066 79.9618 154.894
15.4411 109.335 224.609
36.3042 137.914 120.608
22.7173 153.038 239.754
19.3731 156.647 60.104
42.7054 134.103 129.848
67.7791 88.6145 117.754
33.4216 102.548 134.253
43.7421 108.057 113.383
11.1383 172.242 123.631
64.2725 116.659 156.119
10.2466 147.435 240.76
56.0642 69.764 76.3889
52.9528 96.7762 142.149
28.373 127.51 134.401
51.9668 94.9703 68.2504
10.5636 169.25 242.224
20.6394 127.214 76.4847
8.97433 138.43 234.651
44.3178 171.588 256.894
49.2234 97.6936 61.1933
47.2391 127.957 146.836
58.5792 83.2934 94.0351
54.9447 134.368 115.578
21.6307 112.318 68.1754
62.7737 79.3425 110.179
10.8585 157.865 234.235
63.232 99.8523 69.9045
44.8735 159.192 264.185
47.4045 127.331 90.9392
61.7545 112.413 124.786
54.4768 62.3316 100.472
44.043 117.526 99.6985
45.4709 139.158 140.267
19.3932 133.959 199.199
28.9246 134.014 76.4252
39.2444 101.467 121.515
64.4774 116.129 82.9685
35.7972 95.9516 149.452
19.2229 189.209 200.468
38.3649 99.7636 156.689
23.7774 122.977 105.58
21.437 160.231 240.103
75.9379 101.012 89.0669
14.8805 160.141 181.844
44.6379 104.332 142.58
22.6148 133.878 78.8003
60.7192 79.9211 73.7808
21.1386 165.567 261.935
25.0231 191.518 227.087
34.1292 106.34 108.155
36.5662 107.822 128.658
35.3679 182.16 213.356
25.5614 139.635 241.807
75.2718 103.159 96.7583
32.3138 184.306 220.409
41.3 133.224 112.048
16.2648 167.202 216.356
27.2328 154.042 249.207
49.3313 117.403 87.4504
16.1958 204.207 49.6983
39.9282 59.1501 84.1188
14.0123 137.85 242.954
36.3819 100.575 63.3394
42.4276 122.346 153.263
27.935 116.27 148.489
22.1409 88.7003 83.0454
24.0531 135.416 237.63
38.0009 161.98 190.357
75.1195 65.1698 82.5569
35.9628 103.394 138.764
22.9084 154.676 191.676
11.2951 175.717 217.511
82.91 70.0043 98.662
14.6841 148.511 205.606
13.6853 103.236 47.7728
30.523 187.04 208.08
13.9004 113.154 72.3173
14.1866 152.847 224.656
61.0424 126.238 136.079
64.6172 89.2304 83.7374
80.4328 74.5637 103.941
33.6543 176.814 212.245
53.2514 106.751 107.044
53.8664 89.7865 105.629
81.1214 67.8928 90.2015
56.4251 126.517 73.1495
54.4831 101.787 147.314
37.9214 123.039 67.3988
60.0959 87.5059 119.382
34.5818 87.2567 62.0452
37.1832 77.4719 62.9101
36.3467 140.293 95.726
58.0169 99.6105 136.296
79.5202 81.3474 112.381
17.7161 143.469 249.535
31.0058 108.25 138.593
8.68724 117.253 220.754
76.4174 91.3176 90.1059
21.0255 179.229 226.366
11.3851 156.371 240.707
36.558 118.807 88.3497
52.0967 136.291 139.529
21.5619 106.633 104.19
27.8941 135.414 59.4652
53.2369 99.8954 101.907
59.6249 120.157 84.46
39.515 127.387 98.6557
25.3859 107.468 73.2103
41.6918 131.021 149.105
35.8972 144.754 103.719
39.6719 111.378 142.36
58.7628 114.737 70.3565
50.4694 122.772 162.166
13.9508 180.651 232.262
12.414 135.087 177.772
62.7314 63.6666 112.397
10.4723 158.222 176.78
68.5987 122.776 140.515
40.0535 140.327 127.094
48.06 111.736 115.544
17.0016 166.549 245.887
18.1785 131.624 235.299
86.42 73.5154 93.0673
67.1185 109.041 145.389
42.8282 133.118 101.254
22.9611 117.33 107.149
38.6961 157.622 185.194
12.3503 85.6927 63.376
25.1492 167.379 201.233
40.3747 166.355 194.331
29.1709 128.086 125.698
8.97555 97.1262 57.8246
62.8519 65.1852 82.3985
24.8638 113.119 122.385
33.4296 155.049 190.43
45.6025 116.353 160.473
62.4999 93.9752 94.2588
60.9518 106.853 132.858
29.1535 181.046 238.792
36.8326 170.135 187.431
53.6179 123.673 92.2514
11.2502 150.784 233.586
55.2657 134.117 129.735
53.8972 130.064 134.664
29.346 171.117 214.989
51.3336 131.219 109.237
51.7527 96.0141 156.6
26.3765 157.758 187.569
46.5151 64.4493 96.8421
49.124 118.307 113.458
15.3915 160.337 242.863
35.6336 95.0822 59.4777
87.4705 86.4929 91.0144
72.043 83.9876 114.659
46.9353 132.763 108.777
9.08888 178.332 235.352
61.6461 93.9774 116.971
78.508 106.79 125.256
52.3314 108.602 89.9686
18.2197 153.711 247.521
16.6428 76.114 80.8087
65.3758 84.8566 77.036
14.5593 131.974 241.151
61.3781 126.92 123.215
82.5129 74.2631 88.5993
38.4475 99.6469 162.295
56.2976 125.397 129.734
12.8777 151.769 251.867
41.6674 56.7442 93.3928
26.0018 120.522 136.561
15.3773 101.477 71.3231
16.4638 123.865 250.636
61.9136 72.5045 77.5932
32.7176 165.03 197.539
63.2777 108.738 139.536
12.5001 181.953 210.964
54.0741 128.275 125.791
79.272 64.2236 95.0974
55.7396 63.7196 78.7654
12.2449 120.651 68.5826
19.7845 115.955 230.204
43.9715 184.822 260.617
20.1637 203.71 134.735
38.3473 107.608 66.1325
11.586 145.059 188.841
69.4828 70.3059 80.5281
49.344 105.237 55.905
65.7941 104.6 155.804
65.7644 111.96 134.471
27.0966 178.724 224.109
35.1138 176.365 199.799
24.1597 184.216 231.54
22.8864 126.382 67.6436
60.1924 95.2264 63.7109
44.3093 103.015 148.933
66.3018 122.574 128.628
45.6499 126.746 155.442
86.4906 81.7414 106.034
67.8216 114.868 142.307
34.0325 119.202 154.16
14.0806 122.623 235.828
63.9275 72.1462 108.387
40.2729 132.665 123.526
28.2673 185.003 214.061
16.284 159.809 235.753
76.5438 84.6358 101.171
56.1126 152.199 104.345
68.4767 74.9647 74.9534
14.129 126.846 199.469
50.0552 59.0793 97.8273
47.7936 111.434 78.0887
27.2579 159.16 195.347
21.6996 185.05 39.9027
31.9259 143.632 98.9741
36.1046 63.705 87.604
24.8139 84.8299 92.0341
63.5904 116.335 76.0316
30.1484 120.212 78.2859
44.7894 92.538 146.134
33.0379 181.768 247.46
11.0069 150.019 175.056
44.6653 121.828 87.7547
30.5529 176.475 206.018
28.9336 184.314 225.59
60.4009 118.189 134.377
29.1712 171.911 197.021
37.1698 106.24 124.459
45.696 165.446 268.415
64.4672 112.427 162.181
12.8417 187.377 235.472
56.4872 130.651 112.193
20.2371 197.207 41.3269
76.4214 68.9153 106.298
13.4634 174.868 50.8083
79.4424 76.7131 85.3634
23.1421 131.595 71.6668
54.2626 68.4129 104.68
49.1974 84.6753 111.962
14.8958 195.997 52.7422
24.5933 182.62 236.89
59.3885 103.321 162.334
60.6238 126.974 95.8387
33.973 101.633 106.281
61.24 119.128 122.726
21.0712 178.037 208.471
32.1393 115.545 139.289
18.9264 152.263 14.9205
29.1639 141.28 87.2844
19.7005 183.745 48.5304
27.8799 178.158 216.177
56.691 119.088 128.525
38.0749 131.156 129.229
18.6684 192.264 56.2967
11.4769 158.721 208.09
32.8978 192.666 215.899
24.7472 159.349 200.002
56.938 123.567 113.493
59.8058 59.1261 90.8828
14.5218 151.037 172.016
40.206 95.9959 55.9804
84.3456 92.934 100.763
27.3811 174.736 51.51
23.3009 189.204 52.1985
29.9136 87.6049 152.107
57.9346 109.647 129.333
25.4676 192.195 36.4703
15.2885 73.6645 76.0991
49.2817 137.528 122.174
18.2161 178.2 218.343
17.8406 183.566 216.286
76.5908 79.6049 78.6704
27.329 181.935 207.347
64.596 108.442 61.1931
46.0313 132.515 143.767
61.0698 107.764 93.2605
19.0959 172.094 212.037
19.8739 195.404 52.4217
24.5405 171.134 207.323
74.5308 94.8718 101.565
51.5029 158.288 262.496
36.3046 65.4249 96.0876
30.7627 104.19 63.9636
13.663 154.032 59.0624
9.25725 182.742 97.552
60.1236 102.754 144.243
22.9291 147.368 15.93
51.2718 129.627 103.763
9.39764 168.096 236.408
51.2775 166.852 264.88
74.6085 94.9561 81.4176
33.0449 120.61 146.155
74.8081 81.2651 107.395
36.1548 133.523 201.228
66.7265 109.175 164.42
22.0199 186.331 33.1309
61.247 60.0971 104.004
75.3789 63.3418 98.3702
69.8694 69.3182 107.065
79.925 70.9707 82.0859
9.79236 152.142 228.13
41.3274 62.0678 94.0661
52.2607 124.17 98.865
12.1777 164.403 92.7857
16.2728 153.361 208.702
22.7418 181.469 218.52
61.8438 108.946 102.921
28.2595 182.38 51.9951
62.6176 124.625 107.158
63.2935 112.119 92.7575
56.4502 119.921 117.682
8.87358 173.406 94.0111
49.5936 124.39 104.363
28.5406 106.927 243.793
56.7417 130.848 119.792
33.9173 69.2026 97.8797
