ply
format ascii 1.0
comment Created by Open3D
element vertex 1512
property double x
property double y
property double z
end_header
24.472 126.701 88.7946
8.56548 145.817 18.371
42.6883 126.705 41.5968
45.6433 95.1375 148.401
6.51343 118.759 128.26
27.3861 183.239 104.675
16.449 134.051 126.094
23.4319 10.2773 248.101
48.4456 190.658 224.237
66.6498 11.7086 167.361
29.1934 197.323 263.778
25.0829 64.8964 71.1666
13.7929 144.179 56.9391
46.742 155.999 70.4136
4.49266 136.984 52.6725
35.5482 139.216 219.952
11.3368 157.717 100.834
126.934 34.2328 219.05
137.237 84.9365 209.582
118.291 78.5224 203.945
21.0693 151.344 139.381
41.9509 134.254 48.3947
13.2421 71.4209 42.8238
59.1194 186.745 104.386
49.701 187.773 102.055
5.74612 108.543 106.568
13.4185 69.6591 78.6799
39.1792 188.461 96.3394
9.49267 114.131 92.8034
20.1107 103.471 90.209
68.4583 221.694 60.4284
13.0106 210.955 199.952
3.89411 135.847 34.6313
4.37353 118.383 117.624
63.0184 177.087 238.257
72.7684 6.83795 169.407
3.61277 80.2952 76.4124
135.495 55.0069 219.222
53.984 120.499 150.558
59.4394 163.42 85.8356
43.7175 110.961 151.076
17.899 131.204 82.9722
16.1469 112.187 88.9402
10.8158 101.267 106.39
29.3398 138.533 147.797
16.5194 151.263 268.956
17.0011 202.71 207.824
34.2978 90.3716 107.021
43.1444 127.438 51.2556
134.575 63.3794 220.104
25.9966 163.489 114.168
27.175 109.625 138.278
58.2835 152.197 247.773
27.4477 199.298 14.4655
8.64004 147.176 98.2434
3.4221 126.079 32.0602
39.0783 194.239 193.121
46.3632 103.206 152.203
15.8415 5.46598 134.929
97.114 119.07 10.4766
132.517 73.6947 216.463
10.7914 133.896 90.4475
5.96259 142.785 114.018
3.9098 115.564 108.145
14.1565 169.715 221.267
39.9366 130.713 57.7984
16.5577 174.217 104.394
24.8323 178.324 121.258
38.6705 177.634 76.2274
59.39 93.3255 150.442
7.92191 108.585 119.287
51.7317 10.8023 143.346
25.0702 140.773 2.41748
15.5029 116.162 135.965
21.0459 219.448 176.875
4.70581 89.4574 74.6088
29.8239 66.2424 83.0474
5.48719 73.8819 48.3897
16.6345 98.0324 115.781
96.5549 55.7017 161.919
55.3207 84.3067 131.071
39.9659 197.24 226.871
14.443 192.977 186.555
5.88482 147.57 33.4027
11.5108 124.679 91.276
116.782 57.5876 185.102
55.8684 108.485 153.851
30.5932 178.04 80.1422
127.718 27.3846 118.994
6.19995 111.904 99.3629
32.6651 179.514 98.7324
12.9846 158.428 121.481
15.6339 17.6921 245.481
24.9885 170.6 76.2774
10.6446 122.665 136.862
9.23996 147.929 46.1596
53.0763 154.504 89.9663
6.52687 119.514 20.0942
41.8665 91.4602 102.675
56.1248 100.038 153.084
35.9781 146.403 214.602
123.296 5.55784 119.313
17.9055 101.055 97.0193
139.551 41.9625 138.356
31.8857 68.6118 43.39
28.7058 134.638 246.137
14.9382 165.44 85.512
18.5705 155.794 34.2845
93.1212 62.2789 151.612
54.7014 23.1391 139.728
27.0246 82.0073 35.6905
12.4368 111.152 129.309
141.052 31.1753 126.272
65.9608 88.881 147.675
12.886 181.121 216.944
11.1412 153.121 238.286
12.4584 106.008 96.3624
19.4624 159.766 77.2784
7.36136 10.2024 242.463
4.5427 129.482 21.7497
77.4668 7.24034 163.736
25.7022 174.306 88.773
27.5496 127.756 19.2385
11.9167 225.878 214.365
112.712 63.7156 206.483
11.8395 65.9174 47.6195
20.4141 132.491 69.8643
9.02764 167.156 4.02457
21.8443 161.17 136.185
51.2281 143.216 230.948
13.9664 7.3645 171.35
10.236 104.86 113.447
15.0582 8.97383 245.878
49.2208 16.4577 161.68
7.11181 151.534 12.9998
127.201 52.5257 216.341
32.6725 191.815 183.408
21.7856 163.713 105.04
58.5587 168.559 75.0449
6.73867 18.1626 226.157
38.691 93.4594 78.8232
43.0277 137.521 240.625
27.728 200.082 232.848
19.5815 203.977 3.59064
64.1798 85.6265 125.259
111.42 19.1286 119.94
164.103 94.142 195.521
10.6141 98.2766 71.9913
5.41211 149.795 248.219
147.07 77.749 215.901
35.701 124.086 145.003
117.563 53.0927 194.493
7.67036 172.658 18.8721
4.33855 11.3166 233.177
6.14842 104.185 70.6868
3.88318 122.91 108.181
77.4818 198.874 125.613
35.9688 133.424 62.3309
46.1918 110.849 44.9816
14.0704 156.423 130.928
41.8749 187.449 117.393
29.6316 94.9209 98.3357
113.319 40.6153 126.214
2.8174 78.9133 57.5557
11.8313 181.54 19.6805
32.8211 135.684 231.481
145.381 81.5348 208.442
47.6665 186.115 110.392
29.5442 220.862 28.6352
57.7318 178.669 225.744
26.6303 5.82337 181.726
23.3003 119.509 25.0249
22.7601 102.734 128.948
126.373 63.4003 218.781
11.3876 149.083 225.635
16.6667 151.596 41.6437
34.508 90.0894 115.842
30.6495 182.626 88.3055
28.1483 15.7358 160.644
36.6555 219.381 21.6606
50.1585 213.321 48.024
146.497 87.8272 204.047
135.966 41.7882 128.016
14.347 110.134 23.2947
107.706 31.668 128.01
5.79649 128.838 65.8065
130.387 29.9878 226.748
56.7162 13.522 156.049
22.5377 2.94971 117.996
24.4055 191.159 269.145
66.2754 173.006 114.773
16.8495 179.921 27.0525
21.7954 111.105 132.679
105.569 61.4981 164.36
37.287 89.0295 71.9974
31.9532 123.115 28.2581
27.1951 93.5076 80.0255
19.8227 184.766 218.548
128.494 90.1293 193.65
35.5789 218.725 3.63547
55.7931 13.7101 166.88
34.4137 12.4852 175.817
89.8776 47.9952 145.601
18.5636 165.029 127.889
2.76702 160.034 249.024
2.6309 126.176 41.6501
114.564 68.8753 197.245
122.136 53.615 160.506
45.955 176.666 213.882
74.3222 96.2166 141.936
119.575 52.7862 179.51
58.3975 85.8183 116.716
75.5121 12.0343 152.698
40.1571 181.972 131.834
115.224 56.2835 205.269
162.143 61.4687 194.916
38.7539 146.726 151.2
10.594 83.936 41.7813
2.83809 70.263 55.8948
22.971 147.729 73.9975
33.789 145.039 42.0783
15.0864 221.076 199.779
25.8323 202.716 243.95
16.0433 145.486 235.108
19.687 201.542 19.1971
44.1849 8.64738 169.687
33.8091 193.681 174.078
27.9588 92.8332 116.855
54.9257 20.6656 149.604
89.726 120.784 144.658
23.7123 226.49 189.744
42.0418 93.1625 119.022
46.3077 142.932 222.603
113.964 101.154 177.098
5.72308 117.99 29.5229
6.91283 229.28 27.6868
19.7835 143.606 85.4417
4.10665 159.616 4.05764
4.29064 126.236 114.7
115.247 46.6604 135.417
25.9687 127.388 80.371
11.3384 106.527 33.6544
62.39 164.281 156.166
54.5862 89.6365 142.801
38.2549 70.5417 82.0116
44.3487 199.454 199.809
121.966 40.911 118.889
33.6111 131.479 149.827
90.2051 108.438 119.56
76.3952 217.48 44.2214
115.264 71.3192 206.839
115.672 34.7746 120.657
13.203 25.1979 232.328
66.3775 113.495 153.206
26.2095 105.035 29.6067
111.619 109.852 171.502
97.4353 66.3351 159.246
25.6201 92.7399 108.322
118.091 45.2312 225.673
6.0123 171.816 10.3893
61.9401 119.865 157.508
3.92488 165.356 257.177
45.7508 93.9438 96.2244
46.9483 148.915 87.8566
91.9382 195.847 126.209
3.64178 140.768 25.1713
117.045 81.3963 195.811
46.7245 220.512 50.011
107.931 110.79 9.12036
5.50223 136.532 105.614
18.8774 96.9527 104.667
22.7667 142.964 266.537
54.2719 144.812 240.348
109.886 85.2183 174.553
38.6247 139.064 70.0868
52.8588 152.568 222.639
99.9502 119.195 2.6063
32.5058 113.776 68.7098
29.6707 177.939 127.965
59.4347 176.093 81.7245
48.5667 170.679 73.392
52.5207 136.137 156.036
19.7901 177.728 96.9087
86.8931 52.3014 164.009
31.5726 119.313 79.4782
13.2243 163.795 109.11
4.92549 72.1507 77.1802
56.5465 156.272 259.349
58.6582 9.05942 174.505
103.89 19.4967 133.973
32.4948 224.084 186.717
24.8348 158.325 270.453
2.90264 81.8543 68.9969
27.0157 135.771 78.3715
141.022 70.0707 217.548
103.061 50.7475 158.184
9.71578 140.676 94.3463
34.6007 150.407 107.563
61.8468 94.4796 102.173
13.6679 213.024 187.009
47.1681 82.8987 45.8026
120.389 39.6077 217.513
81.0935 61.553 158.539
57.7284 12.2808 127.238
40.053 97.088 138.637
143.73 94.6354 168.882
21.1706 69.8252 83.9565
104.454 75.1951 167.237
35.1174 9.06659 128.678
36.3383 174.702 210.289
66.8259 145.452 159.168
43.7719 117.085 139.529
149.128 47.6509 204.374
134.723 60.3757 180.908
94.2055 84.968 159.091
26.4141 96.2751 32.9537
51.555 180.901 220.489
50.2111 155.402 152.56
104.549 167.589 144.519
12.0465 187.292 225.299
135.561 67.1934 174.215
23.3884 210.67 18.9014
119.028 79.3571 163.542
51.6583 146.233 17.1853
43.5677 118.54 76.7928
86.6883 178.363 92.3695
18.4654 133.562 3.89019
65.9669 88.7861 110.245
37.2512 179.605 272.116
94.3835 169.193 150.451
49.5622 227.603 67.7987
68.9108 192.057 129.773
139.395 96.4859 178.433
2.97152 72.0726 67.766
33.4837 155.294 207.723
15.4206 140.619 14.3577
61.452 164.385 243.258
128.93 79.9139 211.437
46.9199 17.8992 154.24
86.5725 104.062 109.794
38.9527 183.85 87.3098
23.2431 15.0058 211.242
50.3385 187.899 117.418
6.02983 204.215 185.931
129.774 36.7762 119.922
7.62918 111.845 26.4698
23.4319 157.908 69.8474
76.1829 5.86702 155.654
42.4791 96.3042 89.3946
60.7258 10.5745 161.659
5.03107 202.736 175.269
82.9391 63.7136 147.005
22.661 229.434 40.0921
130.087 35.8268 233.692
14.7911 187.438 17.1532
26.4516 11.6796 174.734
22.077 178.229 111.802
25.0312 141.474 217.684
49.3865 151.534 262.69
59.4915 184.219 116.799
9.60701 147.532 122.24
129.717 42.5609 171.54
64.7779 186.613 135.268
66.7519 99.744 148.916
47.4679 141.411 257.017
153.67 94.6714 196.224
29.4416 203.92 3.79191
19.6742 101.477 122.002
7.17848 181.616 4.48936
12.5473 179.301 269.335
36.7827 197.88 210.87
31.9629 191.03 200.524
2.96939 110.868 38.3533
27.9671 150.123 40.095
154.809 77.6535 210.512
5.13086 128.872 104.574
17.6758 150.095 80.4609
109.153 26.4981 135.717
13.1354 162.271 93.3561
19.1488 98.3714 31.7916
26.9852 100.202 89.8676
68.976 15.7695 151.572
12.6143 207.49 191.976
44.193 120.426 152.052
128.627 84.4796 205.667
45.9025 120.867 50.4649
6.6041 66.1785 72.4448
117.705 79.0104 184.542
23.0816 146.406 228.579
124.144 28.0186 174.636
32.1358 229.393 33.8022
24.2524 118.003 82.0108
8.74229 176.486 235.884
27.374 169.437 211.08
39.265 137.365 79.6021
70.9257 196.227 120.14
71.0765 7.24672 131.988
65.6863 116.623 94.5686
52.7703 172.93 218.536
19.0763 213.106 208.596
53.5957 181.935 95.0006
34.7392 4.95899 114.301
19.5206 140.351 140.278
132.825 84.9801 172.214
12.7469 193.477 16.5414
35.5918 142.274 266.009
101.333 50.4272 146.528
6.78252 18.8182 238.364
42.9439 215.204 184.082
72.7854 187.387 143.274
56.1931 18.1776 131.299
8.19959 151.858 111.811
73.2303 191.247 136.853
50.8167 140.615 7.42339
14.531 227.776 35.5285
125.679 59.0563 152.559
33.6237 62.2326 57.512
33.1827 201.121 176.46
40.4024 130.422 152.077
18.5126 11.0602 216.135
121.335 103.468 169.129
10.1856 125.972 124.356
43.6923 100.55 65.7245
58.0811 165.664 237.462
70.275 165.388 159.495
32.8671 62.1873 77.3555
4.16425 121.267 98.3143
47.7412 93.8338 57.6055
16.8697 127.13 15.1298
38.8431 189.267 218.852
11.4944 191.364 6.73124
88.5035 150.669 153.957
140.468 94.5152 197.061
133.45 20.738 118.703
166.052 96.9203 187.697
29.8806 13.103 167.838
10.9243 150.232 88.8164
119.769 44.2659 131.274
73.9815 228.851 69.4466
113.927 75.2502 190.854
77.8759 227.396 33.5591
61.7931 182.775 233.831
37.4316 188.34 104.731
41.6291 226.23 205.982
96.52 90.2704 162.946
108.714 44.1336 151.004
3.68162 165.344 233.018
76.1882 182.533 94.2096
72.735 91.9707 119.076
4.27998 139.707 41.8532
111.118 27.6567 121.625
37.7671 218.951 12.1072
32.652 211.948 14.6283
120.181 53.6537 210.312
33.7024 229.775 209.468
24.246 188.36 190.343
65.0951 6.09432 127.148
39.2342 205.417 237.594
94.7795 192.59 134.986
32.9944 87.5673 34.9437
40.7259 145.499 260.114
44.6785 133.885 73.8465
146.696 45.8331 182.269
32.2057 181.832 212.254
12.7168 2.66803 178.011
153.692 90.2968 186.751
36.5937 114.186 151.685
29.1779 110.455 32.6527
32.3022 101.54 74.4812
47.8314 182.587 272.473
14.1039 124.838 75.0118
30.1285 193.212 26.7628
48.0037 75.4974 62.7534
38.7811 175.041 29.7991
16.0504 62.3745 53.2335
19.8889 62.5755 79.0078
9.70951 132.002 98.2451
64.4576 177.356 90.1407
153.738 42.6789 188.07
112.375 69.0441 136.215
25.7847 10.2657 135.316
18.0126 185.344 265.269
58.0916 162.55 250.348
105.077 33.1048 153.588
42.2862 156.416 210.969
12.1086 76.2029 82.4813
3.94056 175.044 250.96
121.493 23.8683 225.156
90.2747 130.552 15.9449
9.25771 137.453 130.133
30.131 187.318 25.8972
39.8891 137.747 152.95
41.8704 2.54299 111.894
104.467 19.7679 126.266
37.3022 148.599 270.284
63.0651 171.523 233.327
114.329 60.0549 194.839
5.27846 7.10671 223.378
24.761 197.986 25.9516
30.3128 145.703 69.0391
28.9727 104.761 133.211
15.1195 132.468 134.657
71.8632 175.066 153.793
13.7656 88.0259 37.0482
59.0709 212.311 43.3951
3.01765 229.757 16.3743
76.6136 2.98063 176.802
40.8147 111.187 37.5155
4.90575 82.9727 48.4611
81.1127 2.72593 169.873
123.631 84.0013 200.792
28.7661 75.8649 39.5985
98.2892 76.6747 143.046
6.92219 129.851 120.957
62.3883 180.247 143.431
80.9077 189.667 143.012
52.13 158.641 217.283
95.462 82.1355 150.912
41.8287 92.2644 39.6308
28.0474 136.024 254.076
155.229 90.1801 203.231
30.7257 108.208 82.8088
21.6869 191.784 23.5215
121.499 17.5734 117.493
29.27 187.565 216.419
59.5582 187.357 252.15
19.3056 171.403 210.303
27.0357 136.667 239.306
144.549 40.9102 205.514
37.9261 224.248 42.1155
68.8608 181.14 147.747
50.2298 158.543 17.3516
15.3367 23.729 240.897
23.5297 191.996 222.676
70.1555 121.769 154.831
5.61095 101.575 41.6527
5.41995 136.897 119.461
40.5872 149.891 22.6879
38.1969 194.489 241.111
42.1952 138.231 229.631
13.0601 197.155 162.919
41.2824 84.1234 39.4698
39.3231 190.363 272.412
14.755 140.524 65.231
103.247 108.116 170.364
43.8812 133.276 4.62397
23.3273 184.382 26.5505
8.96182 140.253 248.517
14.4352 145.618 262.323
132.911 44.6624 213.38
94.4727 90.1198 150.768
10.7706 115.448 75.0005
8.56864 141.179 104.012
66.3033 136.004 158.55
77.4973 185.237 101.569
37.3015 130.259 30.2646
10.8648 10.0605 155.354
155.778 83.6975 208.3
24.939 10.0914 145.734
41.071 198.385 185.348
37.7599 104.449 81.568
87.086 194.67 111.441
49.3443 3.13087 117.285
130.947 42.2908 206.207
23.5545 96.6776 119.414
35.7642 182.465 29.5985
18.8103 197.871 8.8331
38.0333 108.341 142.86
47.5547 188.316 250.308
3.4366 155.678 238.287
33.6899 142.676 28.1472
73.8014 195.54 112.202
140.302 45.2581 213.838
54.0252 191.303 235.151
141.511 25.6446 175.023
140.147 78.8243 215.881
48.16 89.7741 127.778
130.002 88.198 159.152
52.9444 173.921 271.659
2.35863 125.122 52.3027
36.8443 113.823 78.8451
29.918 140.316 73.558
95.5534 189.464 109.993
38.5213 81.5436 81.9687
36.9374 203.25 8.41037
39.5361 122.683 63.8611
48.6552 19.1539 131.736
106.286 57.723 136.966
39.5518 138.484 41.6283
20.3287 139.148 256.506
97.2392 190.43 119.981
3.31318 87.814 64.7567
32.4959 100.554 34.1725
28.9728 196.407 169.13
71.3522 213.881 59.1115
31.5835 116.664 31.2011
18.8104 126.412 128.901
40.3322 15.9349 157.448
22.0435 59.35 56.4447
82.2853 198.785 116.267
63.14 3.52108 181.361
53.6732 180.523 267.703
19.9928 138.76 81.8526
37.5192 125.661 76.2005
144.112 34.9481 134.708
64.9474 228.381 26.6258
16.9596 61.5017 61.7243
18.6253 172.239 92.2059
105.405 99.8205 176.746
46.7824 10.2532 127.483
46.4237 170.623 17.7184
120.968 71.0569 137.748
25.7511 169.213 132.71
7.69509 135.069 14.8961
15.7025 105.129 77.8944
48.0511 179.967 138.649
61.9762 176.255 252.729
17.0121 206.948 170.003
5.066 85.6792 81.7005
116.278 114.147 163.331
5.15561 228.493 193.58
55.3981 154.854 11.2552
42.9122 188.356 27.8258
120.165 63.9144 213.79
31.8961 192.66 270.314
136.167 50.0512 190.111
21.7114 152.997 210.076
127.015 92.1339 166.097
44.2346 16.9903 147.742
34.3957 5.54588 123.515
25.535 13.3459 152.96
32.0053 189.798 239.066
38.9245 139.507 49.733
94.2895 51.9462 152.393
20.191 217.074 26.6934
5.92579 3.9693 152.406
33.748 98.6769 132.696
121.174 74.4038 213.327
45.2179 142.927 156.441
24.0442 173.146 34.5547
23.1448 135.829 226.833
57.4084 177.005 137.231
27.5423 96.596 127.517
46.1788 199.573 241.365
27.4084 185.716 177.704
73.2168 187.195 111.201
3.17376 2.1206 232.554
46.0349 149.256 218.895
34.5737 154.987 138.805
28.0806 218.194 178.938
13.4713 158.513 27.5049
142.38 51.5019 217.355
23.1658 4.85397 131.709
39.9961 103.009 41.2788
64.3417 84.8285 135.531
13.7559 3.05813 126.649
92.1834 196.291 116.908
108.455 25.2352 173.61
126.467 49.9971 136.307
155.766 73.6973 171.911
43.1698 166.542 211.303
13.7179 199.218 195.381
41.3015 160.767 19.2207
26.8542 149.763 213.626
123.531 108.593 16.8729
42.4151 71.7494 49.5979
42.1133 75.2722 44.2369
67.4654 6.18578 175.055
106.327 38.2619 145.527
78.3347 7.89728 146.46
34.4117 163.708 209.195
73.8726 130.626 157.009
42.7518 90.0476 111.072
28.355 128.89 5.28286
21.7707 162.191 208.512
38.6985 196.107 267.348
7.40153 185.693 248.512
125.468 21.2004 181.092
25.9098 201.285 212.455
66.0409 217.843 66.3056
20.1408 7.3373 176.742
23.986 130.529 11.5562
108.49 177.109 118.574
48.3531 197.887 231.064
10.8828 2.29575 216.549
70.1148 8.95744 143.774
12.4944 4.75914 160.619
72.2658 93.0405 112.065
26.9795 149.011 145.865
120.875 88.1521 173.533
29.2259 3.29866 212.145
47.6951 129.569 151.83
112.94 82.7937 167.461
19.4266 221.271 205.734
37.2427 230.006 3.365
121.992 46.8979 207.442
5.85731 63.9389 61.7947
30.1852 146.185 270.793
61.2075 157.381 235.601
35.6006 2.61531 217.853
16.7769 10.3597 147.555
33.5279 210.52 177.381
61.6255 170.726 256.998
39.199 63.9248 74.0221
44.0604 217.263 39.0454
39.0132 124.143 34.112
22.0117 196.54 240.434
34.0048 167.488 137.933
106.074 47.7607 139.484
44.9832 4.4451 124.648
53.6488 127.311 159.415
106.273 172.522 136.273
15.4328 105.467 125.512
113.362 31.2199 220.349
8.65674 153.635 2.5504
45.8792 228.173 13.849
71.7448 101.182 96.6016
23.6785 109.644 85.3112
126.411 42.8395 189.751
45.9827 72.7416 55.1534
37.8959 97.554 42.9733
21.251 230.302 14.2113
12.2659 206.047 165.552
116.657 22.9912 178.773
79.1537 101.274 123.279
63.3586 183.979 246.088
122.13 110.165 6.4663
80.8494 166.064 159.607
11.888 96.2341 35.8844
32.1681 175.429 32.0677
121.701 60.2528 175.084
162.03 53.1458 187.834
81.9121 181.431 95.9627
38.7117 226.654 12.6998
20.2121 12.6168 155.15
33.6137 65.8642 50.3099
34.5511 106.698 33.554
35.0404 96.2412 90.8619
6.29626 162.293 12.9294
126.584 80.2333 142.603
8.61491 145.224 237.857
136.329 89.5391 201.955
66.2095 185.358 109.407
28.5044 4.88916 122.319
26.2925 2.42094 186.958
9.32079 63.4075 55.3762
36.1181 168.197 31.8233
17.222 171.745 32.6923
125.323 44.4944 198.705
38.0814 11.4503 228.33
22.1204 3.60051 142.755
30.8476 160.817 67.83
69.4888 174.617 95.2882
102.836 122.361 122.441
54.3296 166.855 17.6198
56.9343 175.363 145.108
129.572 81.6563 180.103
55.0634 172.036 132.069
122.313 97.2388 173.26
91.2896 190.677 142.559
137.033 42.5471 198.872
44.8008 65.9571 63.6381
120.608 83.517 156.184
19.0227 82.0745 41.5709
8.38485 179.427 13.2767
84.1134 152.012 162.666
4.80371 221.994 11.3917
81.8797 195.077 137.126
16.4978 164.385 30.7096
3.57918 2.27204 165.159
99.6006 84.2392 171.181
7.33215 2.7684 239.115
3.03225 230.191 199.484
56.7486 163.377 152.719
167.238 87.5295 193.211
6.75323 167.724 222.527
72.9509 151.749 161.438
21.3948 195.731 250.763
21.9977 198.808 161.047
111.947 88.3378 134.577
24.5822 179.294 211.785
130.11 48.6175 130.289
37.2117 140.971 34.3745
2.63998 113.373 64.8667
48.8835 174.889 25.5147
62.1629 2.54472 122.616
11.9721 173.922 26.7301
46.5681 89.8393 137.007
40.2854 159.585 29.3915
50.3597 119.687 75.0906
35.7516 132.311 79.7569
101.877 183.236 121.61
4.95548 175.167 258.832
101.254 83.6764 139.206
110.089 35.2722 160.683
156.3 72.3043 204.977
142.31 60.9099 218.192
67.0943 172.118 86.8842
41.4068 227.14 59.9531
56.2799 159.318 72.115
56.2845 85.719 123.322
15.8687 142.866 4.37725
49.4209 78.0895 50.4003
9.02422 170.857 267.135
49.5139 91.5824 109.146
11.1342 216.439 4.80484
15.4747 187.587 183.391
54.1502 2.19516 184.174
44.1181 224.845 33.566
37.1785 15.0018 165.784
27.9932 3.17364 112.51
59.2253 188.012 240.533
16.6214 156.466 83.7888
103.742 83.8104 167.308
50.8321 229.11 32.5094
132.484 31.8528 177.114
118.23 116.923 8.58533
35.678 217.167 181.407
123.816 79.3578 180.937
81.887 118.151 143.382
63.1516 173.533 151.315
39.9427 145.179 86.2907
50.1704 200.901 253.617
45.7385 196.569 18.8633
50.7856 165.996 218.506
39.7727 183.106 213.002
112.08 10.0224 117.998
29.2285 181.367 113.475
18.7187 156.971 89.8133
95.9236 183.28 144.881
29.8119 163.44 33.8596
23.9064 190.621 166.533
38.0167 106.909 47.9064
46.2439 192.31 267.065
103.353 158.246 121.215
72.1927 184.573 102.748
47.6609 86.3923 120.276
21.7235 149.692 50.005
71.0403 9.73136 159.995
161.616 59.9276 211.359
44.7794 7.69352 162.316
18.354 90.7234 80.761
118.019 62.9623 162.506
53.7421 4.65947 121.641
76.8764 93.16 128.067
40.8064 12.0863 133.983
13.1602 174.654 245.913
68.2466 104.698 153.972
86.0614 197.178 132.196
163.704 56.8423 171.61
78.1429 175.733 90.1956
116.705 50.3474 141.611
159.956 82.7731 202.39
54.8685 89.7364 111.007
113.34 160.191 140.2
98.9459 100.615 143.499
29.1597 204.294 21.8171
20.9024 211.813 8.15406
45.5254 185.456 218.876
38.5759 92.3111 51.874
11.3629 222.076 205.995
89.9737 165.122 81.5093
32.8921 94.3885 34.593
92.7793 182.15 100.989
166.3 56.1276 197.969
13.6009 62.1525 73.4024
27.4977 223.47 221.635
35.9045 168.089 130.033
135.565 95.3994 189.173
57.6738 4.98659 127.822
26.7421 203.336 167.362
36.0807 154.186 32.8445
8.58702 227.597 203.753
42.2395 113.592 59.7153
63.5242 170.16 246.616
24.8246 178.793 32.3282
168 80.5255 201.035
80.6737 167.52 88.854
33.9954 104.618 69.3778
138.853 13.0163 125.562
35.4839 186.135 113.088
23.7091 163.213 97.4209
133.215 21.7831 176.381
52.5049 193.766 11.4495
87.051 126.904 149.118
82.4218 220.678 56.4983
20.0722 222.389 185.89
42.339 146.221 67.6003
58.9384 170.585 225.033
37.0156 214.77 217.261
143.649 20.4733 129.446
38.6192 116.759 45.6636
54.4042 194.824 257.586
99.5972 119.318 114.451
54.6386 135.327 73.2734
94.425 131.786 2.18439
26.978 211.689 170.622
49.4667 178.273 79.0502
32.6916 94.2581 122.896
152.742 69.9574 215.556
37.5869 198.514 21.381
47.8226 150.715 11.1902
19.6936 12.1646 170.206
158.534 48.517 202.469
121.827 47.6315 185.743
93.6864 60.7018 140.943
165.322 69.3394 202.912
45.5734 208.451 206.847
55.6763 181.587 254.856
108.988 38.7989 133.814
118.09 57.9765 137.168
35.6901 175.483 135.244
152.476 61.6924 217.37
15.1053 162.793 115.904
37.9108 176.3 126.996
22.4797 70.9561 46.2811
91.4255 167.441 28.6393
27.2969 59.796 62.5489
39.7412 205.452 180.218
58.8359 149.935 236.469
60.6221 106.311 81.6863
113.242 52.8056 163.766
32.5468 12.6903 134.543
53.5983 144.363 156.134
157.487 43.018 194.756
7.68344 141.153 122.634
117.013 39.644 163.611
77.2209 158.794 161.027
46.6373 19.2041 141.88
34.6616 138.928 256.368
116.058 157.555 118.407
46.154 207.092 190.147
135.29 50.9249 144.528
27.2695 17.658 239.061
126.036 73.992 151.269
20.1947 137.073 248.118
2.7627 88.4486 55.4839
34.3161 104.101 138.042
122.496 46.1181 125.215
114.828 72.4418 166.607
25.0044 215.767 2.90223
13.864 142.784 133.246
59.5866 136.256 157.944
17.315 144.83 221.512
20.7085 1.7844 110.265
59.919 97.002 94.501
44.0607 167.483 27.9904
54.9191 154.661 253.465
41.5468 8.98678 177.768
30.0289 7.09753 130.635
48.3032 141.053 74.7989
88.1665 59.019 143.6
8.80877 162.336 20.3057
43.2847 144.091 246.923
113.104 67.2683 186.616
127.002 101.415 162.473
22.7779 13.0269 164.202
38.668 230.656 55.1594
26.5273 76.6223 86.721
101.489 11.0325 141.191
19.8677 168.95 120.468
147.96 42.2606 194.911
88.1199 130.129 6.14308
20.5263 116.26 75.0738
7.82188 134.258 113.699
106.171 153.021 144.555
48.7403 159.376 267.741
45.1459 150.059 152.778
66.7392 128.486 158.102
135.367 56.2903 165.166
36.3736 135.084 27.0537
120.241 86.1542 141.693
51.2285 186.248 125.608
101.109 21.6335 141.249
103.872 183.54 113.262
87.999 64.0426 154.341
48.8664 171.922 145.549
86.8023 185.363 147.96
21.4799 74.3362 39.9984
77.1725 182.686 148.789
15.2664 154.576 214.511
96.6899 145.234 8.06678
73.2854 100.176 106.101
33.7595 13.5108 142.544
31.4297 209.117 214.93
28.1939 139.449 262.358
41.3694 202.942 262.618
59.4344 164.815 5.84642
127.028 61.6047 181.878
66.063 13.9047 132.353
42.2666 196.519 249.331
48.6532 76.1673 70.718
141.794 38.5187 191.832
118.591 78.3696 144.779
9.76498 189.343 255.389
55.2542 157.007 241.914
121.846 36.7617 171.374
111.007 127.971 132.152
102.203 122.137 133.524
28.9921 86.341 85.8064
20.6337 230.461 214.929
32.3825 218.066 212.819
41.6496 224.335 187.061
102.071 148.625 152.201
119.337 108.257 166.624
32.2539 12.8896 148.877
103.551 28.2795 145.585
50.5537 86.0008 62.8094
8.52815 1.85576 144.336
37.5736 18.0716 139.573
50.4538 147.606 76.1203
27.8511 134.647 66.9865
18.0166 126.426 140.462
142.452 40.8905 164.856
47.4331 163.482 24.078
39.1834 132.501 10.8032
101.188 143.492 143.962
74.986 154.464 73.7637
49.4584 146.29 252.099
66.8223 216.249 36.8899
137.258 46.7196 158.348
110.263 173.53 125.944
11.3872 77.6335 42.7213
17.2154 3.34769 210.657
128.201 97.1033 149.872
78.5933 137.929 158.763
43.3866 68.752 74.1902
46.9818 140.157 15.1896
29.0929 125.299 69.7717
40.5708 7.78435 126.403
46.8943 5.7365 183.722
55.1536 114.764 81.3846
46.3535 102.518 82.4925
121.738 71.7553 175.055
152.9 18.5857 163.455
133.818 44.5544 164.624
79.219 51.6691 150.632
105.875 10.1592 124.172
24.4895 229.705 229.575
44.7143 161.441 149.485
99.0824 65.2366 140.32
9.80786 182.329 261.823
123.463 84.4471 189.092
60.0897 91.5761 109.503
41.1385 112.722 54.4102
34.6013 132.631 2.09106
18.097 136.862 238.378
22.5976 90.8128 39.287
10.9829 6.73186 146.971
81.0169 163.795 80.1721
45.7678 185.906 91.0255
40.5866 92.7901 130.517
59.6489 155.063 157.232
83.6348 142.555 159.071
55.2828 169.466 148
72.0208 141.152 158.806
159.438 69.2348 210.986
65.8405 182.66 98.1501
38.0393 2.90715 229.421
36.2076 116.338 36.5659
90.9662 100.219 157.374
76.0234 121.892 150.097
113.371 108.947 20.0523
101.907 114.12 12.5623
16.8342 225.556 191.219
9.16667 1.89411 133.249
39.7524 3.59019 120.58
101.953 23.2878 149.939
20.1657 192.405 259.594
16.9726 197.562 169.284
114.4 93.7331 180.02
76.5293 6.8368 137.376
32.8216 182.082 120.905
61.3147 160.452 226.794
9.91944 88.7 48.0508
77.849 221.852 63.1686
71.7112 1.90595 127.33
95.002 103.559 161.87
27.0569 61.8919 53.323
56.604 173.953 265.525
14.058 189.658 243.582
13.8171 3.63691 141.715
50.971 10.4752 177.619
29.8335 164.984 273.785
119.784 12.5135 180.804
19.3828 6.59787 161.02
140.781 12.8046 174.777
60.7284 150.635 75.1695
100.473 187.484 129.032
5.43983 224.887 1.81927
17.0892 173.215 117.961
108.263 169.647 106.308
27.9633 140.33 230.348
93.6979 116.181 134.129
45.5867 99.275 54.8638
34.7468 132.454 37.9664
102.094 92.3026 176.389
69.7773 166.936 78.5605
12.6177 136.545 245.378
53.2796 164.56 8.73077
101.075 179.162 99.8762
107.443 116.979 160.973
32.5655 116.535 142.97
140.294 41.2181 182.408
102.73 176.762 147.284
87.959 142.14 26.5156
52.3692 148.583 3.06343
156.737 66.4426 171.34
90.1013 166.222 21.2631
15.8954 186.299 257.239
13.6498 16.6802 215.673
155.519 58.8008 204.808
64.8892 154.616 81.2275
127.405 69.7008 177.218
7.47015 155.536 259.809
45.5198 207.697 244.189
61.326 17.1981 135.353
24.3153 167.294 35.5607
54.741 104.078 83.8697
97.8932 100.433 168.699
123.402 43.1393 166.487
27.6195 159.725 208.161
123.679 63.0217 141.262
34.4602 148.342 147.008
150.234 53.6864 215.483
34.5451 230.784 232.148
51.4998 159.127 3.33623
123.239 39.5937 236.725
62.6561 177.81 246.575
57.9545 219.598 58.4149
97.4484 140.189 154.347
9.74078 191.674 170.415
73.4165 176.2 86.9944
52.8151 228.359 201.623
91.2258 90.925 164.703
128.853 41.5313 225.9
166.971 79.0305 188.183
57.5308 154.333 228.236
46.3608 89.4149 51.7983
51.4757 162.798 148.64
137.267 84.9917 164.012
56.3022 185.173 229.387
84.4068 132.095 154.707
44.5183 220.816 63.1416
90.3227 120.509 93.5753
44.0708 167.397 144.515
62.1676 225.376 70.3017
86.5706 109.984 102.965
38.3056 64.6386 64.9127
150.005 94.4058 178.99
39.081 66.3131 55.1466
33.1737 162.278 144.537
81.1424 189.365 109.241
83.5197 228.091 52.7372
63.4294 187.732 123.762
51.5294 150.734 230.179
15.2518 192.203 233.542
139.167 35.2505 174.383
46.0902 183.83 128.498
33.0896 61.0304 65.803
36.5212 16.9181 149.962
85.2057 102.88 119.243
126.226 26.0674 233.023
7.01004 156.92 227.507
51.1085 127.828 75.7972
34.4586 225.331 51.6935
128.886 48.3315 181.501
10.5282 209.085 176.227
163.85 46.3914 188.1
109.547 77.7251 135.675
110.806 43.0852 159.221
30.7351 193.134 225.263
117.193 32.8707 166.5
91.5517 170.578 95.6502
31.8106 183.802 271.174
23.8024 185.369 273.067
36.3144 78.6353 39.0352
152.147 19.2612 153.367
115.999 29.7689 235.564
42.6476 106.511 61.8399
107.634 110.608 159.006
94.6948 47.5534 160.746
151.156 35.2827 162.369
91.7232 124.43 16.9757
41.8825 172.683 139.45
14.4105 60.6983 67.3844
43.9207 149.181 268.064
109.215 16.2185 173.95
87.3232 172.345 156.316
117.661 68.1668 180.731
13.1935 139.21 255.955
32.3262 84.2429 83.616
131.999 91.7706 185.705
34.1143 134.989 20.3994
17.7736 166.16 273.348
48.0577 214.136 197.263
18.0094 229.875 226.104
19.1614 63.6617 46.5484
95.2318 174.867 23.6133
47.8863 206.674 248.378
37.8084 6.53158 183.668
20.3651 193.383 233.775
46.6959 109.616 76.0742
89.8514 186.921 105.714
133.346 113.599 5.96249
46.4735 93.8832 67.1295
59.6906 129.319 153.081
21.6842 191.325 199.43
103.978 20.238 166.045
14.6153 196.919 1.83314
103.915 21.8311 157.503
62.3166 160.156 75.9179
58.352 166.779 264.612
54.3067 216.655 62.9039
77.4758 100.156 135.357
41.8552 161.288 271.573
83.264 178.98 151.794
126.971 101.693 155.68
22.4164 99.1331 78.549
92.2414 160.148 34.0718
75.8317 114.82 148.384
37.1778 134.96 236.936
89.1145 43.7537 155.332
11.7835 159.644 268.164
82.3228 102.295 127.621
142.194 97.9173 186.724
44.6529 228.405 192.823
154.382 98.733 187.826
47.2391 218.337 190.599
39.2502 183.762 123.834
37.1552 136.688 245.534
112.727 168.368 121.962
55.3243 162.703 261.427
90.0749 163.693 158.706
32.6943 4.58544 242.785
134.875 90.0938 180.823
106.966 180.476 128.629
36.6033 1.47149 167.561
107.651 158.486 149.921
24.3012 200.582 254.627
109.537 23.151 165.627
146.384 19.2097 170.293
118.512 107.77 154.527
54.6548 187.381 10.0388
104.36 89.9907 134.488
88.1494 150.194 28.9757
42.5295 137.613 252.977
20.3637 108.129 28.1538
133.697 7.28534 125.411
115.739 124.076 8.40275
40.6637 98.2896 74.5853
11.3433 165.714 25.7342
139.254 49.1064 173.13
82.796 229.739 41.6591
78.8475 175.175 155.105
113.02 27.1535 162.133
74.6499 160.018 79.2244
166.104 49.6598 171.122
63.4582 102.267 89.9293
107.252 100.245 143.119
14.6815 136.173 113.612
39.3958 140.168 19.8581
167.228 75.5718 177.9
32.5874 15.7928 155.232
11.9817 219.047 25.3431
81.9709 2.75334 160.721
154.29 52.1492 196.538
103.813 136.365 146.598
110.922 150.106 107.682
12.9897 1.88563 245.586
62.4416 125.362 75.6484
78.9851 105.279 93.4652
149.392 12.7346 146.596
78.5995 105.585 111.161
122.785 101.521 148.809
109.247 155.495 97.2175
25.0876 1.38972 105.376
92.2996 178.451 151.219
48.9665 222.226 201.875
92.1175 128.393 28.0437
112.421 112.01 2.24056
16.2444 193.079 250.524
154.38 60.4679 198.495
168.566 49.499 179.571
13.2302 221.36 191.394
76.5915 110.893 98.9199
151.121 46.1354 172.028
21.2251 151.539 23.8328
11.8725 151.271 29.2163
89.7028 115.177 124.223
90.9497 171.012 87.8937
115.282 29.3712 172.317
26.86 171.365 125.128
142.29 81.7793 155.14
50.4764 81.2714 57.2825
127.955 92.9039 154.653
34.0314 140.411 238.597
127.938 69.425 168.875
49.5289 215.618 35.0972
106.557 33.3774 140.374
38.4199 155.597 147.31
34.9217 229.195 191.12
127.701 89.8594 147.573
37.8673 166.613 144.748
61.4084 102.658 105.279
10.6533 231.183 196.32
45.266 74.7418 76.2497
76.874 102.342 147.926
5.91797 191.858 183.469
105.123 128.993 140.948
104.752 113.055 18.5076
70.6492 90.7504 131.33
36.8213 94.3565 126.287
78.3269 105.842 151.751
60.0558 165.901 230.788
133.86 78.0383 186.012
90.9243 2.09316 154.308
96.3341 117.678 124.628
58.7061 193.005 247.757
103.672 135.601 99.5611
26.2315 150.791 274.361
37.4934 190.125 25.973
102.719 10.8471 132.054
38.5726 231.208 47.0247
97.6661 98.1027 152.108
56.4213 145.06 71.3517
29.6089 229.981 219.687
79.8701 105.453 103.847
55.3272 174.621 5.7586
90.6253 139.505 156.789
109.742 115.089 30.7553
56.2593 162.477 222.412
133.808 40.6296 187.673
22.2665 229.036 207.272
39.7793 231.045 26.5602
93.0311 112.25 110.365
46.9618 143.627 1.73
50.1765 187.309 17.175
94.2043 139.081 37.6216
33.4938 1.71066 108.016
91.7567 121.36 107.655
50.5749 98.2482 98.6341
127.568 51.1151 153.417
91.3568 64.0903 159.247
2.76332 97.2 55.5866
144.212 13.0097 134.988
47.8019 88.0027 72.0315
32.9126 20.3507 228.501
58.4101 119.328 77.7585
62.8646 16.6233 144.375
59.0659 181.908 5.97589
39.0547 205.351 250.252
96.9979 119.283 20.1943
32.6762 153.977 274.468
50.7618 1.45814 168.606
115.362 149.516 141.953
90.0649 92.1175 147.071
126.782 88.8279 181.872
39.5041 224.305 220.234
2.07648 175.4 239.488
158 58.5432 167.689
128.819 66.2899 146.495
101.548 109.639 146.78
25.7431 159.312 33.0681
128.203 53.4968 174.311
82.9189 180.949 104.312
2.00034 107.509 53.9673
100.915 16.1471 149.152
157.88 52.8272 210.292
164.641 90.0327 178.708
97.2175 148.73 85.0661
158.775 46.7122 178.741
34.4075 12.5493 215.824
11.0787 226.582 190.711
7.04891 231.089 213.928
71.2501 108.702 91.6045
96.3627 133.93 142.672
33.6714 207.848 245.335
140.16 4.84014 168.592
45.6483 202.228 8.98443
100.449 110.773 159.217
82.6665 155.805 75.7429
14.0935 179.353 2.30509
87.5024 139.085 150.405
83.092 113.68 123.413
144.691 47.2148 147.582
56.3797 178.343 14.7604
70.1872 115.239 84.4196
132.618 11.4768 177.212
126.546 94.0098 141.822
3.78036 34.9093 155.789
63.9432 231.289 71.6538
81.6294 124.288 152.614
34.7351 231.185 201.213
133.435 74.7801 167.077
113.845 146.166 113.714
40.0202 136.241 1.59569
46.7474 171.046 274.023
16.0569 11.5056 162.86
103.715 168.975 39.1722
103.266 8.93477 150.301
49.5237 142.919 242.989
91.2089 158.093 154.736
122.097 72.2367 157.601
30.1239 137.842 58.1966
43.2169 198.298 13.2499
93.711 129.187 150.249
43.0491 103.084 52.0044
39.5009 181.527 2.83377
90.7893 2.37156 147.122
26.9086 151.21 26.3602
59.8293 1.55632 156.419
66.8452 142.382 75.9963
148.275 33.452 170.751
146.073 95.8045 196.132
75.7984 169.047 82.3422
82.1431 106.358 138.252
51.9729 96.1057 90.8919
62.8513 179.701 135.086
137.715 38.6391 169.502
94.0001 122.248 1.57822
99.9321 127.384 146.999
114.867 158.288 109.531
50.269 167.528 268.561
73.0544 89.6909 126.11
100.077 155.514 89.1484
106.906 182.489 139.586
30.93 158.443 139.896
118.126 89.5642 139.14
111.768 11.9699 178.852
28.3199 16.575 146.696
89.4263 145.444 9.62817
54.4551 163.694 269.833
67.0915 22.6059 163.961
118.812 201.965 26.6381
10.175 231.491 186.246
100.751 178.42 29.3448
48.5877 230.439 187.278
155.722 50.8605 170.993
120.196 5.23414 177.854
60.4793 148.919 159.858
168.018 71.1854 184.403
101.741 177.481 109.678
147.537 11.153 157.094
114.552 6.55411 130.156
85.2779 6.1442 147.538
56.57 188.266 1.89291
43.2423 1.20849 187.532
103.518 10.621 159.704
88.5328 140.486 1.44625
43.8978 231.303 224.276
3.46403 231.309 1.45779
58.7515 182.742 134.311
111.057 134.089 140.249
45.1882 183.407 19.805
108.981 165.318 45.0127
127.157 113.643 23.8983
6.26548 0.937662 174.654
93.8042 124.193 137.865
36.0711 83.4554 87.227
42.796 231.314 5.89778
113.844 142.322 118.603
35.1389 166.33 71.8053
78.7595 177.04 98.3501
3.629 231.367 205.274
91.4209 1.62758 160.782
129.326 54.6669 143.677
112.002 165.893 133.511
120.982 94.7962 136.952
34.5862 230.556 217.549
95.0528 86.1479 140.124
67.6937 222.696 29.9608
44.686 180.622 45.5909
12.0859 1.49765 152.961
111.391 104.637 144.547
78.4699 1.43138 131.308
132.269 3.26995 175.043
113.173 158.579 43.2109
98.1242 168.475 34.6954
60.2489 11.8575 144.122
60.3601 175.529 2.38946
110.272 95.8817 135.519
48.2422 1.23305 110.209
133.431 115.148 17.8446
122.717 125.328 21.8053
7.08457 153.473 25.1522
149.515 49.0844 163.575
89.4566 152.821 18.1178
128.392 102.227 188.14
116.17 135.09 127.911
106.019 131.64 17.4134
117.969 121.267 15.1662
77.6966 126.374 81.7476
123.427 86.6029 160.107
57.1967 231.667 66.1631
120.07 176.781 21.6932
88.7603 224.938 49.6194
98.0862 139.781 18.297
44.0709 156.519 274.426
25.3981 130.691 0.933355
148.785 98.1739 197.518
115.145 159.871 129.399
100.999 160.168 37.144
103.396 114.499 159.858
25.9766 1.00891 128.899
98.6528 121.12 100.015
87.0451 108.281 133.947
110.626 172.699 113.166
40.1046 168.33 72.9173
50.175 182.279 17.4065
116.593 151.507 133.609
88.915 154.425 78.933
