ply
format ascii 1.0
comment Created by Open3D
element vertex 306
property double x
property double y
property double z
end_header
23.4595 14.0944 64.4121
12.9763 118.406 161.3
17.3479 143.615 144.78
7.52547 109.867 122.505
7.23107 10.8788 106.446
23.3823 156.006 117.129
7.64107 129.864 148.739
7.25419 96.1874 96.0548
24.7595 117.916 145.304
14.7887 29.7314 62.0591
24.3609 140.685 127.94
36.1076 108.999 116.525
30.538 106.137 106.1
35.5139 99.0085 102.232
49.0076 80.0994 86.7082
30.2282 121.73 155.017
22.6595 117.697 67.9685
8.0881 118.895 78.6829
22.4905 125.838 160.565
15.789 16.3894 42.3362
7.17985 89.239 115.88
8.92727 99.3566 73.3737
99.3831 210.389 140.208
7.35486 121.489 165.036
17.1075 86.2289 105.113
19.1941 62.9099 37.7695
12.6836 140.702 56.0261
18.1541 110.284 158.32
29.4469 114.685 159.708
52.6883 93.2147 61.7115
38.7356 77.5757 99.0521
58.8504 133.09 87.57
35.8022 148.86 119.407
40.204 119.011 91.0187
7.65662 115.37 90.2011
16.7612 10.0339 88.7878
55.3681 142.048 123.641
40.7009 141.7 92.4031
30.0376 93.0264 108.241
98.7473 214.252 150.413
7.20701 58.8233 71.9205
11.1703 3.91321 29.932
8.64675 126.441 139.316
10.393 5.80978 97.1048
17.5594 91.2694 117.333
16.8834 118.681 54.9547
8.0122 123.829 131.803
7.0265 32.2439 63.2902
46.3395 88.938 79.1728
16.1002 97.7071 99.3932
21.2223 137.657 53.0253
104.911 208.319 146.288
25.2271 41.8494 60.334
47.8868 144.954 94.2227
93.6658 216.518 142.988
30.3254 157.862 124.955
14.5 116.452 143.097
19.5937 165.363 134.015
37.1658 119.058 64.7492
56.5743 86.1343 111.178
7.49623 30.1139 48.2847
13.5611 130.496 156.576
24.0503 60.0019 117.762
14.0166 110.925 64.1593
11.0062 160.64 54.76
11.1027 105.955 91.8295
20.2087 70.6186 111.118
72.6761 24.8503 59.4403
48.7278 75.0464 98.9344
11.9278 138.229 149.328
47.8532 116.354 79.1456
8.18509 66.6179 27.1807
37.1023 79.7152 107.92
20.2021 11.1992 96.1835
31.379 160.002 141.839
41.0961 43.8116 40.8805
20.3311 152.292 45.6658
8.46305 21.9795 66.3837
37.0848 132.682 106.285
25.4877 91.6564 80.9387
12.087 101.716 117.431
8.14336 49.9396 27.3192
17.0239 77.8409 122.531
20.8559 23.9983 67.9477
65.7264 72.4249 85.9754
15.048 50.8877 56.2164
33.3478 117.688 134.882
17.5306 102.543 124.377
13.5968 130.989 86.5997
17.9005 2.61956 101.12
38.4109 38.7308 46.0981
22.3815 130.023 147.605
8.5679 132.933 77.0692
29.1089 27.6519 53.596
34.3519 121.85 93.267
54.0556 83.1584 133.444
45.0611 97.773 65.5077
14.528 42.6576 33.0639
64.7085 63.2216 80.2661
11.8872 116.38 44.992
37.0558 87.1164 83.2151
33.2874 121.269 82.9721
23.6422 122.006 79.8632
39.036 79.7652 90.1435
15.8071 135.048 110.352
26.4559 14.7591 98.8629
35.2869 127.79 85.9064
47.939 96.6644 129.716
48.5064 87.2638 138.297
33.4351 31.9627 47.9031
15.2149 17.4272 55.6612
49.6792 115.711 137.94
9.07218 115.566 103.995
60.5182 91.2082 92.0561
17.9719 118.652 184.214
39.2794 133.229 132.446
42.3391 132.747 96.3214
28.6465 135.478 136.688
29.0362 2.4152 99.6156
60.3156 80.5124 105.192
17.4076 2.44698 79.8669
13.5959 31.256 51.6727
38.1481 126.458 145.853
55.4187 95.0357 141.432
39.364 95.3492 85.9666
24.9237 27.8051 38.7807
12.2249 125.062 98.0668
25.405 68.311 119.3
63.8625 88.798 130.238
57.7566 79.8755 86.5423
8.11787 105.175 101.267
13.0131 119.678 180.67
56.0725 83.0924 124.449
17.5972 25.0163 33.8913
8.78186 42.9659 60.9775
32.7735 133.627 126.057
7.87329 19.3511 55.9462
7.2265 120.507 64.1547
24.4833 134.02 84.5601
20.7624 46.878 43.3681
6.74236 172.071 72.0355
31.0481 112.797 95.4595
12.5823 165.764 28.8925
21.9593 33.8776 40.4729
12.2584 133.727 119.702
10.5173 113.623 75.4874
37.8693 149.973 56.7817
9.58653 140.2 117.507
24.0159 140.154 105.657
60.5549 64.9349 76.228
13.9728 94.9479 109.25
21.7219 117.912 88.358
38.1469 163.175 145.534
16.4584 21.1726 22.4858
9.91191 74.4347 121.316
15.4598 146.039 116.248
26.3895 121.833 92.567
59.4217 142.445 85.1983
9.73342 2.57462 89.1887
57.6363 129.812 138.649
40.677 132.294 151.091
25.6331 106.676 119.079
22.5261 73.62 124.175
24.8109 45.4877 48.5842
58.5886 141.371 105.224
68.0583 131.114 111.879
45.1506 148.108 102.438
39.8723 147.666 48.2734
40.5556 117.684 130.639
19.7653 161.285 43.3489
20.1719 36.6552 67.3259
37.1642 99.0589 116.052
10.245 130.599 53.7831
41.0885 127.533 121.35
63.7951 98.1461 78.8828
72.3353 15.0462 55.3644
22.8347 127.325 134.253
19.4567 226.075 227.133
13.6523 105.915 72.9215
49.9078 80.1207 112.043
28.7984 126.49 119.794
47.6712 152.856 112.281
10.2437 112.992 152.179
57.6711 120.542 94.0358
17.9077 124.945 120.47
58.1635 109.746 131.972
8.14706 37.3898 30.3743
58.9906 125.561 119.811
32.8427 39.0769 52.4995
24.6919 128.237 109.617
11.2715 142.525 124.221
8.82737 138.266 137.743
19.251 67.7381 120.978
25.961 97.4767 88.7695
7.32571 83.0442 106.005
20.8391 86.0611 133.07
19.8412 218.092 220.979
17.8906 151.581 90.1562
19.976 109.097 72.1796
46.0676 91.5239 116.02
35.3511 126.987 118.517
56.1492 75.4627 94.861
19.8554 21.6241 50.7743
34.8885 127.467 151.33
59.8662 99.4866 136.146
46.4274 121.781 95.224
42.9346 110.565 145.036
17.6879 78.071 98.0497
59.7529 92.5759 70.481
48.3808 159.258 118.208
37.1798 106.79 129.877
29.492 31.6657 62.5424
10.9862 146.548 132.869
43.5159 152.116 53.354
32.6901 124.857 164.422
23.4445 125.86 85.0173
66.0597 85.144 98.7039
29.6802 104.341 90.8643
37.3427 109.316 100.212
48.0736 132.345 86.1191
43.4734 99.6484 110.443
34.1672 133.018 90.3805
15.9293 71.4749 121.773
48.6266 106.407 103.103
22.803 49.4069 51.4535
15.8091 88.0812 94.4495
11.3768 137.203 70.5436
59.9082 65.3814 83.1758
22.687 85.3 121.919
30.4465 86.8859 89.3596
77.8793 25.2356 53.2674
20.307 133.266 68.4857
62.3035 82.3299 88.112
7.3988 35.2059 22.6679
59.4415 131.529 78.4215
51.2643 141.44 105.321
41.2629 97.3478 124.123
24.6502 108.883 112.153
32.9535 22.0881 24.5765
36.4608 150.051 129.968
52.8887 121.399 87.9353
53.396 99.3062 137.368
32.6761 85.4281 115.476
60.8195 129.975 115.314
11.7661 37.0396 50.8412
7.35998 36.8398 44.1363
8.0045 119.39 54.3404
49.8365 124.314 131.62
10.2672 7.02366 26.4405
43.1569 157.96 112.411
15.5393 140.795 117.127
47.7465 112.791 126.459
7.54829 43.8865 34.263
29.78 120.921 167.578
13.9967 54.1808 36.4639
41.4883 101.011 78.001
17.1438 128.166 53.8951
56.4736 120.454 103.241
7.05546 126.408 156.241
27.2702 122.217 131.568
13.1074 94.0283 88.6605
37.4693 109.741 76.617
23.0875 79.0726 118.109
44.9836 88.8216 69.3802
10.7484 1.3325 103.691
66.698 94.9158 112.6
50.309 120.42 116.386
19.167 94.6934 79.0521
46.9135 116.142 122.436
13.2413 27.8695 36.2518
15.7656 222.277 217.664
57.0788 92.2033 121.8
19.3295 137.393 74.2916
53.6233 146.737 99.9855
93.3354 60.1536 2.50717
45.4981 92.0003 91.8556
56.6832 107.305 83.2558
38.9331 114.617 76.9488
46.6068 115.937 72.949
14.8761 131.602 65.9294
40.3391 96.89 96.1306
6.97286 125.209 56.787
49.741 108.862 112.839
49.3475 33.9587 42.8651
17.9367 144.307 109.514
8.13771 123.629 77.0971
65.1145 95.4869 102.859
40.2075 113.116 103.208
9.87765 54.2061 40.7817
57.8689 98.2267 100.36
47.0823 107.455 129.788
26.8542 132.929 118.225
9.94197 167.895 70.1011
59.9484 108.208 121.999
40.8176 88.9507 93.3025
65.0912 150.565 93.846
16.0133 1.0554 89.6382
22.4434 135.672 121.751
55.4077 94.0048 84.3285
29.3028 127.8 147.661
59.7979 117.125 82.9185
32.7325 99.7856 92.9398
11.8425 113.215 81.4952
16.1135 51.0929 41.3195
21.5843 147.443 55.9553
13.8981 133.066 73.7896
