ply
format ascii 1.0
comment Created by Open3D
element vertex 1358
property double x
property double y
property double z
end_header
26.0804 148.855 269.39
20.7306 69.2333 95.0845
7.83504 163.132 242.431
40.8316 44.2384 73.148
16.8378 126.822 82.357
44.1183 145.675 104.087
37.69 47.3541 113.055
4.7228 162.702 269.911
25.476 45.9858 95.1099
29.8419 62.9087 104.572
32.9249 147.354 147.976
31.3915 60.8445 114.44
22.7826 161.187 109.234
4.80446 148.891 271.846
15.9769 152.733 257.675
17.5679 182.298 153.443
67.286 67.7227 129.006
39.5818 45.7559 89.174
31.297 79.3194 109.067
27.4131 64.6066 66.5109
72.0882 152.817 71.8851
18.3529 86.4503 81.3354
37.521 146.271 125.909
60.4667 198.97 83.5571
21.0275 136.998 141.029
14.6885 153.537 77.0183
57.4128 141.997 51.8817
12.834 154.551 239.043
22.0162 55.8137 72.6821
21.6691 59.4793 83.7849
25.8116 209.703 140.491
8.60312 185.522 269.92
80.6864 130.343 257.376
14.9978 130.262 88.7914
35.4062 149.905 101.19
22.4998 102.921 90.0917
26.435 54.1156 118.381
23.1166 134.864 272.56
23.908 57.208 96.071
81.7405 127.49 230.295
44.1462 39.0571 62.981
50.9874 32.0634 106.168
37.8741 201.039 110.507
77.7537 69.9998 125.85
72.9231 131.418 232.655
11.3954 104.659 101.536
23.543 185.663 161.287
29.6015 138.968 238.193
76.1903 42.6507 88.9278
20.7705 148.704 150.243
41.2369 47.1975 54.9488
57.6205 118.486 262.719
60.3547 35.3722 68.6134
28.4436 70.2511 72.3599
20.0027 88.2078 72.9649
63.938 123.934 245.053
31.688 154.544 110.861
24.9113 75.2134 79.6251
14.2395 192.009 265.046
4.55686 137.965 102.441
24.334 160.134 265.733
37.9153 76.6704 56.5378
72.9553 123.403 236.128
63.7818 130.534 250.157
18.1095 192.782 155.005
32.1666 94.9439 58.1395
27.7957 175.711 216.957
44.1622 60.521 52.5648
29.2264 161.562 88.1778
48.6927 70.6673 41.9905
12.1558 140.031 71.89
10.4398 166.092 251.523
42.1186 70.9296 52.6125
66.6831 203.891 96.8481
31.2615 216.367 129.723
33.2607 141.448 246.418
20.529 119.49 66.9682
76.1486 30.8808 75.6701
22.5464 147.465 245.24
46.1303 117.601 244.938
9.94717 147.614 86.1151
4.20479 214.028 174.011
91.8269 134.507 233.395
51.625 141.814 268.294
88.3992 60.1454 58.1854
18.7085 206.94 141.317
35.556 37.8169 83.3479
65.5149 210.127 102.484
42.2727 118.576 253.822
32.3519 141.27 270.739
17.7215 132.258 254.709
3.26785 191.319 263.444
33.7614 172.018 163.979
19.4155 79.4211 102.651
30.3654 124.709 125.566
36.9627 79.3094 129.071
23.7804 169.431 80.4006
64.5754 59.3635 122.031
46.5364 63.6464 45.2197
22.9432 70.7664 115.519
11.9461 197.351 262.208
87.0086 121.992 46.4941
39.8185 221.671 232.094
26.2533 166.913 162.315
3.08894 159.415 260.743
12.9467 125.844 71.526
54.142 52.8079 124.762
69.0467 42.3452 74.0247
70.3889 52.7514 113.943
9.57409 202.406 121.265
101.03 66.993 114.133
33.639 86.7752 56.1322
48.0391 149.132 93.3104
56.9455 66.0441 129.708
42.8748 132.317 226.964
34.0689 85.7478 120.254
66.8725 127.378 44.1517
46.0635 35.0924 115.902
20.3384 183.371 142.102
28.3945 220.478 258.097
72.3465 48.9032 50.869
63.4918 27.889 96.6827
18.3849 173.628 263.514
29.5086 150.916 152.673
42.1772 212.826 218.814
36.3411 60.5335 50.2813
8.32698 156.55 209.955
26.1383 187.434 218.876
11.4246 188.678 144.853
21.6088 146.496 77.2711
54.7789 193.463 98.9777
62.1621 37.8449 89.5711
9.43628 145.951 258.27
43.1231 84.6405 58.1393
20.6443 119.147 78.9979
40.392 34.9935 102.253
77.8125 44.8988 116.348
60.7698 124.857 143.037
32.316 81.4522 64.4039
26.0274 54.0268 104.41
14.9876 138.784 263.237
32.0533 186.179 162.926
33.3613 139.194 254.952
23.1545 115.032 63.4483
53.7871 77.8749 46.7384
22.2758 148.28 227.481
21.9392 166.86 147.299
5.94294 157.106 84.8037
8.61464 127.209 91.0024
49.3415 60.9098 122.933
79.9062 130.757 220.21
70.0818 91.0289 46.9792
43.0616 79.5458 45.6457
58.6313 128.266 235.696
66.7631 118.356 154.91
68.835 189.383 96.5646
30.5952 71.8571 117.191
53.1148 190.87 80.1856
83.0328 68.7389 119.065
58.7998 49.7463 48.2187
64.0095 181.545 103.96
8.0856 166.44 262.509
16.0712 144.816 88.7741
45.1009 52.3826 49.5411
76.8499 38.386 63.7226
50.036 59.7674 42.5864
21.3493 81.5571 64.3246
20.1038 61.6217 103.936
27.9719 154.04 99.4681
23.4038 157.116 155.434
90.0932 135.163 47.4706
45.6822 43.4641 112.653
76.5954 182.138 85.2865
13.3979 144.319 126.9
32.5975 113.297 64.3755
62.2986 222.775 257.525
48.9612 144.952 208.751
39.4688 188.381 217.313
17.5093 137.841 245.633
24.7126 126.753 254.809
4.30301 92.2937 102.851
76.6341 137.986 217.919
3.6419 123.859 94.3525
45.6047 49.331 119.733
22.7934 100.181 100.006
44.7594 144.361 269.872
39.3417 148.095 93.9401
20.4277 87.1216 95.0015
14.5253 137.949 255.844
20.671 167.633 248.834
20.2415 146.972 234.571
49.8146 70.8 127.18
25.9067 210.17 107.685
29.5469 74.1487 103.29
3.05317 146.015 120.058
16.2983 161.261 151.375
32.6905 101.855 55.7581
53.2935 166.541 86.0263
56.2893 221.484 267.36
14.4507 209.653 260.692
29.6562 107.224 78.3527
69.1488 211.083 221.402
32.5339 156.979 159.125
26.3077 182.369 79.2369
17.2879 174.656 271.904
59.2211 45.3871 57.7011
22.0564 214.296 124.33
52.4677 196.051 88.8297
50.7888 121.743 257.718
44.6998 88.2521 125.956
88.3192 128.986 244.115
10.1137 193.646 252.517
40.0265 122.647 271.354
54.5527 164.968 160.552
11.1244 146.312 247.936
13.3109 112.921 111.485
35.1773 179.997 210.448
18.088 160.311 81.7339
48.0847 101.955 130.129
17.2475 158.253 270.657
29.0722 167.205 254.88
72.7768 151.424 51.5375
91.0882 137.847 251.142
47.2698 133.233 266.016
45.0668 163.153 97.5962
77.3339 70.2837 46.9018
32.8321 204.45 128.941
35.988 162.24 231.789
15.7823 200.971 129.044
47.821 133.584 72.9656
49.8168 135.624 272.701
55.7928 66.3266 44.3144
30.462 152.373 79.2038
34.7223 107.445 70.3335
29.3283 148.084 255.365
69.1478 137.58 45.5664
66.6919 100.12 146.956
55.8548 91.8842 127.396
60.7162 190.258 108.794
41.4666 93.5384 56.3059
30.4475 134.285 249.912
37.7651 102.292 98.1476
70.6279 199.886 93.7267
44.8744 190.858 79.926
9.80299 204.299 252.976
97.3123 56.0405 114.377
85.8566 150.221 239.629
59.0522 197.741 211.256
15.2267 104.943 83.6735
27.1972 57.4008 59.4432
40.8847 134.885 75.6251
82.1344 81.1223 124.105
70.4558 40.006 66.4811
32.2468 52.2318 81.8719
32.2458 54.1943 111.641
68.9207 122.117 261.88
52.8707 35.0181 82.1319
20.9043 164.235 158.699
24.4066 138.941 255.965
41.4458 137.749 265.409
94.3959 127.906 54.3159
83.5577 64.442 130.966
16.2869 150.562 247.208
9.58967 114.964 102.558
53.5375 153.713 153.999
27.2603 129.988 235.703
14.8206 193.104 97.6106
31.7505 214.359 229.642
99.035 163.464 234.11
57.9855 91.2239 119.247
44.5317 127.643 222.933
5.68355 176.737 140.197
19.0329 190.307 87.0312
11.6536 176.66 88.6502
29.2521 99.2153 98.3707
3.15851 125.124 106.798
40.4645 205.471 126.87
52.9003 44.8519 53.3763
64.4768 47.6863 108.829
6.32713 181.651 243.152
34.8181 147.751 265.765
47.6279 38.5104 91.3439
48.5652 214.406 218.497
58.2342 119.978 239.274
31.4565 212.256 120.47
57.03 201.427 153.137
82.1198 128.572 43.4722
9.57322 155.658 141.752
50.5955 49.9746 46.6017
97.1131 43.3409 90.9595
76.3084 147.994 239.114
65.2835 40.0668 81.9547
87.0659 40.1437 89.6962
36.3642 137.845 229.109
25.2659 204.107 99.3288
27.2023 101.653 63.788
38.3076 137.839 121.293
31.9079 35.3696 93.4943
35.6302 49.7917 122.014
66.4751 224.941 234.18
11.0704 179.53 253.37
64.004 189.654 80.8382
67.9854 132.701 155.073
29.8586 160.839 100.171
81.2497 58.9232 46.2693
13.0945 177.193 108.483
17.3306 77.453 89.0453
59.9399 181.993 210.095
42.7483 215.313 138.797
80.3471 73.6599 133.89
19.47 218.5 262.064
13.8596 164.557 131.5
40.1014 80.5269 116.557
15.3591 138.237 128.209
16.9108 162.634 141.48
49.7368 128.655 52.5278
67.042 126.679 230.766
26.7755 210.639 241.689
73.3067 120.7 254.273
73.6469 45.2916 106.972
43.3459 60.2062 122.403
45.4783 174.431 72.0034
16.7907 169.725 113.064
29.222 86.2355 108.408
50.9501 136.098 210.795
3.95136 134.438 112.374
73.9836 122.47 262.341
59.416 58.5968 133.703
38.3357 52.7434 52.2117
22.624 142.515 70.959
68.1736 183.972 80.0745
13.1334 153.752 230.058
74.1989 34.7727 94.8715
7.29767 181.227 124.08
39.5277 194.373 211.128
43.4209 216.954 258.743
20.1451 142.089 253.467
32.2563 103.062 81.5698
31.8179 127.934 249.861
31.4544 128.1 243.687
57.652 120.34 246.107
34.1304 161.793 243.955
67.3862 106.725 121.564
36.8932 114.65 139.691
63.2253 119.16 257.571
39.6863 229.067 266.36
54.0199 145.888 108.802
74.3812 165.678 108.549
33.7153 213.734 221.591
53.1447 131.359 64.7862
41.5895 101.901 79.4375
13.3907 179.466 270.439
43.0272 182.213 213.627
5.87854 182.818 104.874
63.4552 213.98 142.39
16.6213 170.631 157.756
10.1845 173.67 97.673
3.36226 184.045 118.598
69.0448 190.863 152.494
54.5373 118.908 52.1547
5.25051 218.756 157.584
30.9443 158.087 238.686
88.9881 52.3512 104.571
66.522 30.7056 75.6066
43.2384 201.731 210.095
23.0762 134.465 262.04
51.3599 124.188 263.503
27.9104 194.322 160.034
10.5703 125.352 100.444
15.079 185.438 227.954
43.7362 34.8053 83.9741
15.3287 176.939 116.58
91.0942 46.6726 116.59
4.18631 174.487 112.2
43.0487 187.631 226.101
13.2619 196.135 242.516
42.7957 224.23 247.802
9.61171 176.999 262.342
25.3535 81.9751 120.733
48.8144 174.826 165.839
66.7181 190.466 114.036
23.4002 210.817 254.966
31.2337 180.781 236.777
33.0728 132.346 258.88
71.8106 74.0405 61.4295
33.3292 50.6669 97.2418
37.6444 149.646 82.1357
86.4103 76.707 129.335
53.3826 105.798 55.9998
13.5962 150.904 266.223
52.1572 186.741 151.104
66.9572 121.147 79.5498
58.9833 131.109 258.576
27.9486 147.037 141.915
51.8648 223.526 228.07
22.0541 61.9213 111.154
55.4773 195.372 108.714
70.055 199.708 140.903
3.55452 143.313 106.857
45.5851 196.386 227.76
65.5457 73.4749 42.0701
32.0898 197.885 85.1312
40.6028 183.479 231.665
3.88143 156.365 106.525
3.14112 181.816 130.235
25.3895 198.936 89.6409
57.3825 56.158 43.2927
27.6548 151.086 218.318
41.5231 70.2796 126.531
48.8959 65.0766 132.214
60.7138 131.284 45.6082
20.701 205.571 245.802
48.0651 149.894 56.6187
58.1942 104.885 48.3468
3.83657 150.4 111.497
80.7323 58.1533 130.667
22.9298 161.516 247.452
16.1592 210.675 121.322
31.8016 53.7871 64.6373
69.4825 130.709 271.056
53.0106 129.201 273.363
80.878 92.4544 135.282
32.0895 94.125 79.2645
22.7639 197.454 228.052
43.8545 187.697 208.845
35.1419 170.614 84.066
71.1486 151.485 85.0534
67.3825 76.8312 132.802
31.3711 138.239 262.685
8.32125 148.477 77.1101
47.079 180.282 220.319
58.7437 174.81 157.682
72.2753 84.8523 123.098
14.0642 159.88 263.925
40.6071 180.418 74.0324
65.1046 31.655 108.414
42.7411 204.919 216.368
69.5891 123.082 243.215
3.02225 191.412 149.304
17.2106 130.962 247.08
75.3552 77.3237 137.573
28.7592 93.3567 68.1878
23.0976 174.38 161.287
38.0828 147.982 115.982
82.2536 186.761 98.8024
68.1187 122.253 269.739
17.0782 161.611 252.331
80.2047 37.9759 102.327
32.5582 147.662 67.565
84.7707 103.151 137.948
47.6297 139.016 77.4709
64.1921 103.565 131.714
67.6386 172.16 103.275
61.8155 175.551 95.1352
33.9707 187.327 227.2
37.8759 195.308 158.991
53.8171 88.0524 49.2638
49.726 124.51 232.66
37.0633 213.693 244.249
33.5018 163.935 212.616
7.95872 131.423 98.8309
56.6873 107.8 142.205
28.035 118.62 63.0937
17.121 118.492 124.124
4.04878 147.61 83.4418
23.7471 163.153 100.479
72.8596 39.8957 78.0479
84.1309 126.729 251.689
96.4751 51.1709 108.176
81.4615 170.559 80.879
3.55321 155.714 119.879
40.9167 218.284 223.933
72.6471 131.064 244.269
17.4387 76.4651 75.0698
10.8454 161.84 230.531
10.4997 144.283 100.49
75.9776 128.802 157.489
80.127 34.7756 81.3601
90.8414 148.334 63.8596
37.7644 100.4 129.448
16.7566 171.446 152.157
79.5928 41.2283 79.093
36.8521 209.552 219.577
87.768 128.723 259.851
70.4835 144.508 222.86
19.8721 157.024 201.537
18.9664 189.139 146.771
43.3234 94.3022 133.176
67.2038 193.193 145.2
52.2999 96.4911 109.442
72.1231 32.6099 106.674
29.6507 154.456 261.221
25.7573 139.26 130.029
20.7323 111.048 67.9945
61.0152 220.236 116.15
90.8255 75.5065 119.43
53.9033 186.665 162.901
7.82393 116.128 90.1783
5.15256 120.59 87.278
73.3961 218.268 265.671
29.7921 44.2316 84.1069
35.0018 173.187 78.0265
59.569 46.589 120.63
46.7254 164.64 158.615
58.7521 140.992 267.464
31.1239 151.062 121.81
77.4469 133.197 240.278
62.674 35.962 115.689
43.9668 138.955 128.233
31.8882 121.544 266.133
36.5226 122.289 244.73
61.7421 186.427 147.946
41.9732 192.777 232.502
57.2164 110.391 128.071
42.2742 146.273 148.677
26.1393 69.2234 84.82
52.5691 159.012 60.03
13.6637 116.118 82.2985
37.5884 60.0973 124.507
32.4873 143.021 84.8996
18.3675 204.462 265.416
49.2966 225.846 245.761
7.99788 140.97 125.476
7.82891 164.025 84.7532
7.66448 171.875 118.941
49.7606 104.268 72.1462
74.9464 176.189 78.1258
51.6726 122.969 238.91
56.4734 44.9649 109.269
26.4517 89.1809 91.4811
41.7964 171.762 215.357
55.6447 109.166 77.1961
56.5467 120.958 252.909
85.0809 42.2746 79.2285
40.3635 215.186 113.667
47.0196 121.239 144.506
62.0488 123.564 153.661
20.1583 128.73 266.083
72.4865 204.457 117.178
88.4826 41.6363 103.912
9.10312 174.582 146.132
8.56117 160.975 137.651
66.6753 182.063 216.737
92.304 110.363 142.551
65.7211 193.818 216.441
40.7819 102.011 64.9036
11.2128 138.136 93.5854
24.5422 141.389 85.4712
66.5295 131.143 237.919
68.9704 78.7824 50.1319
51.9511 161.013 152.252
42.6845 218.157 240.342
30.2322 121.965 257.717
68.6898 53.7157 53.1503
34.1305 131.224 128.997
42.3891 167.113 221.735
76.8537 52.9262 114.883
69.6579 140.407 236.464
74.2994 67.6895 134.876
45.241 212.824 105.588
40.8551 111.806 66.7114
87.8003 55.205 69.7476
39.6834 142.064 67.1471
89.0004 41.9298 72.0524
4.59534 148.968 205.13
45.4826 218.004 119.544
16.7842 131.365 123.174
33.6913 156.749 216.556
42.7035 134.011 272.571
51.0883 189.365 226.222
37.211 126.92 237.845
8.45832 177.154 269.651
47.3118 45.8701 53.1675
82.0771 150.92 68.6086
54.8437 216.92 133.863
44.8059 227.652 237.655
78.4626 108.953 147.103
60.1421 132.333 264.998
73.1923 195.613 91.7852
62.0352 122.257 230.664
37.6855 192.878 79.3212
9.9711 176.649 115.715
26.4256 155.102 134.963
57.8677 120.203 271.178
30.7864 44.0891 70.7232
31.5765 116.704 131.56
80.5634 134.256 249.139
23.8408 201.413 145.903
72.753 185.711 215.328
76.7549 146.144 266.679
63.4782 101.737 112.742
45.3187 152.763 116.65
53.0041 43.0748 85.0274
47.9215 101.871 116.529
6.47955 152.85 263.685
36.9656 132.547 224.829
70.6808 53.1884 67.6446
72.5404 154.115 60.6384
41.1913 217.246 249.988
81.3525 66.7608 69.7915
35.3663 179.432 163.663
66.3321 187.599 226.229
73.1389 57.4774 44.7347
23.9569 108.97 115.196
52.1088 99.3236 57.436
41.6467 165.844 164.61
76.5531 206.08 130.072
7.5354 119.059 108.449
7.80627 120.673 116.767
39.3566 168.004 93.5098
48.8387 146.821 136.034
85.5722 50.2288 116.854
23.0833 216.112 270.339
84.4988 152.046 57.2914
80.5624 54.554 52.1169
16.6433 211.749 253.574
27.3918 158.932 256.301
17.8167 99.2176 101.5
83.5076 48.6211 61.1392
40.0162 109.112 138.882
18.6001 189.762 255.312
27.368 131.609 79.4451
63.5203 139.884 208.609
59.2795 194.627 157.536
71.5042 183.154 225.726
57.68 153.615 205.023
82.1063 147.798 214.475
40.6505 154.705 157.961
32.741 43.0653 100.975
45.0154 181 162.596
6.98118 146.07 95.2575
66.4789 174.138 162.956
38.0625 175.663 227.515
23.0073 98.8804 82.5181
35.9481 148.174 225.522
37.797 209.819 137.108
74.4823 124.98 43.9691
28.5147 174.159 94.0945
34.7961 43.9541 61.7594
51.5143 104.512 79.8011
62.8656 172.783 213.709
18.2999 65.872 73.5075
67.0496 110.422 88.3682
17.0553 170.81 220.041
23.1229 127.343 66.6047
70.4482 55.8339 125.916
14.5904 173.635 143.911
78.6048 47.7652 76.9022
60.5517 125.841 70.3566
43.6068 122.733 261.243
105.689 57.5161 92.5998
40.8747 166.335 228.437
61.0112 29.5481 85.4857
76.2985 87.446 56.9949
29.9454 44.744 105.479
60.4753 196.933 139.774
38.0376 213.045 236.091
51.1429 103.606 139.824
68.936 134.286 214.131
59.6646 184.25 87.6658
12.8848 123.532 120.664
18.4189 131.367 70.0771
66.416 197.061 98.3588
49.6166 181.397 87.5862
62.7138 139.985 262.532
18.4923 151.822 213.632
8.4453 205.789 271.517
64.7253 220.036 125.736
55.3511 133.442 48.0724
48.5643 109.759 68.0813
36.754 149.895 154.499
59.0195 32.1894 108.525
38.3524 147.41 272.402
50.6735 207.545 91.2867
47.3676 135.583 59.453
88.8658 86.101 114.544
33.5876 207.142 111.451
34.9722 168.047 222.296
53.4959 122.674 61.8054
94.332 152.811 34.4433
67.0647 70.9962 138.827
73.6486 190.646 131.602
100.112 47.7433 80.6687
56.4899 134.236 144.503
50.0669 168.057 77.3537
67.5042 82.6456 133.713
42.3216 176.736 205.254
38.8482 220.218 264
78.0963 128.156 249.477
8.12677 187.201 256.843
90.2871 176.639 216.618
68.3799 204.563 147.153
81.8143 48.4884 102.616
66.4694 167.759 273.862
16.979 104.089 94.2262
30.0448 145.137 225.464
82.1307 100.947 143.777
57.121 73.0015 40.6813
2.52037 151.232 91.2042
92.1517 67.4394 121.44
44.2182 144.717 113.452
10.6171 225.562 167.305
88.2336 145.232 248.721
37.5962 167.677 156.522
22.1356 192.532 225.017
23.6504 225.284 268.856
54.7881 128.46 149.305
66.8114 48.7622 123.821
16.4399 216.902 268.371
80.0391 125.579 263.668
42.3122 168.531 79.7849
56.5511 100.663 130.186
75.3693 125.112 270.556
29.7764 129.704 65.1233
36.5211 216.149 108.807
70.5866 214.597 122.561
62.409 147.529 209.155
5.05986 142.151 229.53
60.7355 149.007 96.4418
48.9684 202.367 209.798
23.614 146.933 146.413
53.1918 43.385 63.2824
52.952 175.851 221.703
34.405 180.728 77.152
40.099 154.868 76.6116
80.3453 162.25 208.358
69.6494 67.5679 44.5751
50.8339 220 113.668
76.2809 44.773 58.4925
33.7384 150.967 90.4817
62.1566 86.7997 46.6767
65.6707 102.019 52.2092
61.2184 181.708 160.806
57.691 94.292 52.2921
81.0527 155.679 76.3197
18.4387 111.111 125.21
10.268 173.606 127.984
87.0612 132.229 268.773
42.9744 96.3244 107.779
57.7798 200.863 129.327
59.3657 157.543 114.342
54.6866 174.215 212.785
35.7371 203.667 214.115
48.0057 127.837 140.732
51.1206 31.19 99.3827
66.7575 110.394 144.111
26.7468 124.951 64.0104
63.8555 135.092 218.757
39.0588 149.184 106.561
5.26994 184.921 134.783
66.2388 94.0907 60.4663
56.8237 81.8857 127.182
88.3919 54.6653 122.484
30.1693 203.838 220.72
30.8391 137.706 224.026
46.0448 155.335 157.101
21.7558 151.259 264.254
14.9422 112.198 96.726
65.5444 62.1309 42.9838
22.457 60.5118 62.7479
29.2209 227.446 270.729
52.4828 151.735 85.8992
22.9334 124.2 127.119
60.5795 126.869 273.197
15.7917 160.902 118.883
21.0531 192.428 239.058
51.9933 168.62 68.8231
58.0048 111.401 48.2725
34.0012 166.655 237.387
32.021 105.233 115.297
46.1925 88.1432 51.2334
26.5251 162.269 150.625
64.0366 218.189 111.855
55.3943 97.1698 136.544
45.6363 160.02 66.9629
50.5315 80.1357 132.63
56.773 216.478 224.932
55.3382 177.507 82.3929
78.2748 95.8364 51.9036
82.1282 213.435 264.548
43.9639 83.8031 132.15
57.3298 197.467 219.233
36.3245 171.946 241.792
22.3418 199.421 237.119
93.98 44.6965 95.7998
80.1623 214.329 272.615
67.5909 107.224 73.5309
16.8498 177.766 83.6534
73.2064 70.4655 55.026
32.1117 190.081 79.7793
59.0145 132.892 213.872
57.2754 205.27 215.441
43.7018 126.459 55.9215
37.2668 47.5751 103.452
15.7252 198.427 139.826
3.07698 155.661 248.027
63.156 108.293 150.348
33.0467 135.006 232.487
3.51211 137.195 95.1026
19.9012 107.659 75.4657
3.36652 161.943 114.816
23.11 140.859 236.975
66.1683 131.739 261.953
19.5433 101.7 78.2746
19.446 135.548 132.656
11.3078 191.34 238.688
50.3511 112.51 56.5206
72.7576 106.444 128.623
57.8346 146.11 272.932
40.406 202.188 86.5588
14.0479 220.544 158.672
27.7229 43.4762 78.6978
94.9554 43.1082 101.607
67.9694 175.431 75.1292
4.96014 171.106 103.732
83.9561 129.282 247.097
87.2366 143.705 270.687
81.7938 120.722 147.95
47.1815 218.662 224.222
31.1443 205.625 94.4457
43.0861 151.465 87.1628
79.4436 139.498 235.193
63.1208 77.2028 47.3439
38.6662 38.8981 92.7238
77.7793 139.652 241.001
36.8777 127.153 232.541
11.6885 170.45 135.481
34.6903 96.2858 124.744
48.3162 29.5464 90.0816
5.86663 166.275 127.892
77.9326 61.1991 62.617
56.4269 39.7913 113.727
68.2482 156.527 87.5744
43.6244 39.1434 107.629
79.1673 147.558 223.876
46.7504 220.217 129.314
58.3891 151.006 139.402
38.4297 127.253 67.2496
87.0837 150.807 228.83
19.4705 100.764 109.461
73.0868 177.239 219.604
71.5669 163.158 203.883
81.8838 138.8 249.822
42.1149 158.799 106.168
9.48897 198.666 132.741
70.1973 174.755 154.344
13.4007 97.3038 102.051
37.4541 197.283 222.386
58.367 80.4529 136.834
49.0313 97.2579 138.259
58.1421 160.884 152.094
50.1417 150.562 112.191
70.6865 159.185 272.981
62.1575 190.725 140.071
70.2498 178.094 97.9903
53.6315 217.699 124.581
69.2225 214.886 137.116
67.1459 129.403 79.1029
41.2987 118.197 59.7381
49.4727 179.987 72.7637
15.2866 207.671 272.361
67.9964 109.696 45.5612
27.3336 203.159 229.384
9.07645 197.602 271.116
84.5143 64.8045 48.8481
57.6605 225.821 235.593
30.5247 211.969 274.012
69.5675 223.291 252.959
71.0708 125.273 250.853
93.7266 70.0572 113.393
75.7727 103.643 124.253
26.3471 208.65 230.3
30.286 190.064 242.266
54.0247 136.748 72.7537
74.8876 105.87 55.4957
36.2717 153.379 68.7698
8.7225 154.669 252.504
68.9152 41.9857 115.277
47.2858 208.713 219.128
3.07098 133.195 85.3153
54.9399 126.834 221.446
21.4375 196.078 136.56
27.0079 105.014 126.983
85.6297 170.715 150.638
65.8594 131.02 224.082
82.8678 116.697 138.603
60.3557 188.42 219.525
51.1023 216.169 241.15
54.0935 102.12 86.5468
12.8735 101.033 110.571
74.1366 117.045 47.5181
57.5117 163.76 102.906
68.1033 111.741 57.1751
20.6463 92.8611 86.8545
76.2993 134.723 272.739
69.8524 200.113 231.529
79.8564 114.278 56.4973
73.041 135.65 225.179
52.2059 219.009 221.739
15.2594 192.298 233.217
43.4007 129.102 65.0206
13.3811 129.229 270.129
42.4867 198.089 101.596
32.141 146 134.722
55.0366 176.284 132.024
42.039 197.564 93.5233
76.3589 171.335 153.205
30.0458 144.05 260.171
60.2911 204.219 110.842
38.0459 158.401 224.356
72.1254 94.7375 62.7873
77.6549 62.2681 126.79
60.1009 59.6594 127.168
71.5195 147.283 208.802
88.712 171.109 140.757
93.7485 119.576 52.8176
77.706 224.034 263.69
59.6372 114.748 151.843
51.3744 181.816 206.944
62.1788 153.262 125.343
20.3202 207.939 169.25
67.9188 100.021 137.154
95.7794 150.796 248.427
13.8462 111.603 85.5655
36.778 124.46 138.527
50.0178 150.594 141.864
31.0588 100.066 128.797
63.3996 112.845 46.0741
28.836 110.53 129.301
6.09959 168.815 133.429
41.7608 207.374 101.498
61.8258 165.548 154.754
40.0857 125.226 256.114
72.2028 100.214 69.9371
86.5551 130.524 237.722
39.0199 146.034 59.5073
4.53746 202.171 273.089
43.8356 207.541 92.7043
42.5292 210.914 146.477
44.3824 209.942 130.683
55.777 226.683 263.327
47.0464 226.334 257.016
23.43 158.188 274.497
25.866 107.523 65.9251
37.4128 150.943 234.102
6.02231 189.039 273.991
87.4663 157.126 235.841
26.4737 80.9292 60.0457
42.9069 196.618 80.9067
72.8201 204.886 237.105
54.0378 208.422 221.216
100.076 51.9885 90.7417
52.5876 229.36 252.699
41.3778 110.654 131.612
34.5179 91.6135 74.6821
27.6789 134.042 70.0798
104.468 81.2231 102.571
90.3901 154.411 219.586
46.8127 113.551 143.656
86.6291 178.694 95.9691
55.2422 34.1166 94.0606
55.4934 170.137 164.334
76.8189 159.423 66.1764
79.6679 42.2235 71.0895
48.3651 213.767 127.836
12.6862 195.524 113.439
32.6591 121.621 64.6217
60.164 100.568 143.731
109.534 59.8152 119.111
2.05447 164.906 101.775
27.3316 97.2011 107.712
7.64164 200.574 167.273
68.781 139.576 264.965
23.5274 133.111 73.3919
72.286 185.936 90.5318
10.8157 108.2 87.7991
61.3471 205.716 146.191
7.73074 123.437 82.1254
12.113 190.199 136.931
6.66706 150.135 125.146
65.8536 155.558 140.294
45.3739 98.4719 91.6302
66.7243 114.42 93.3764
90.2746 90.6438 129.395
53.8197 214.613 142.925
20.9922 85.0621 115.81
22.8339 216.646 252.354
72.0241 99.5172 55.2108
23.5739 111.801 126.789
62.394 151.132 76.1993
81.8547 136.654 264.29
64.2074 120.197 239.215
38.9891 218.35 123.104
79.9362 169.757 262.792
27.1838 38.9335 85.4072
39.1894 103.867 136.387
48.024 220.491 265.769
58.8791 184.247 76.7686
69.7631 151.729 271.384
68.0023 106.862 65.4957
22.0888 89.5657 105.292
72.2849 110.848 151.183
87.691 127.509 151.579
49.3699 113.885 134.2
78.6172 50.5321 124.719
85.8055 184.725 269.632
57.5044 219.311 233.453
64.4519 87.646 58.5782
66.2997 154.758 61.5448
44.3101 99.4383 56.8971
2.18932 172.327 119.221
19.2792 193.461 246.598
56.7732 220.343 108.239
54.1087 201.647 113.62
23.9383 146.751 64.7569
65.5415 221.558 265.051
45.7888 150.638 211.166
22.1085 165.04 92.7567
7.69363 151.697 195.601
39.6987 131.483 141.602
2.6064 174.897 253.902
34.435 215.669 138.394
2.39357 183.9 255.793
47.2922 115.99 126.968
21.9721 131.778 241.58
26.0081 99.6866 117.612
51.4836 98.8313 76.1786
24.7955 71.0376 105.181
54.3363 147.405 102.078
6.70118 202.997 260.93
48.5804 209.978 136.276
44.751 183.141 79.8758
27.7483 90.5747 112.797
73.9991 218.452 258.543
34.1024 180.407 219.859
45.0141 103.921 139.26
5.5846 192.982 131.05
54.9004 194.728 142.889
20.6964 176.613 103.555
11.5289 199.439 256.959
100.378 68.3226 98.8008
58.3567 100.799 65.4911
40.6501 175.921 165.151
45.4503 131.94 132.356
55.4875 119.32 149.707
61.3092 139.998 78.5167
28.7687 94.7689 119.099
59.6665 71.591 139.335
73.2168 64.9158 58.023
51.8508 205.589 126.393
39.821 221.946 274.019
67.3386 160.925 106.249
77.3741 143.814 211.328
89.9375 177.249 269.475
44.5368 123.798 134.791
24.5694 194.448 243.306
3.52719 176.698 272.279
15.4797 178.715 240.422
23.3913 154.471 76.8077
25.2921 187.564 244.275
83.8505 86.2223 133.989
35.0147 121.278 260.883
33.0196 136.87 70.4717
78.1566 100.018 133.41
47.7854 230.341 248.552
66.1644 147.656 153.412
61.9364 227.114 242.696
55.565 72.8622 87.5591
27.3638 215.052 249.515
101.288 116.894 142.249
33.9222 223.851 269.666
47.251 119.45 60.398
48.0906 192.233 261.484
88.0408 48.1834 100.594
26.5027 138.255 246.892
70.0378 143.156 274.096
16.5082 119.392 72.7155
97.842 103.807 118.696
53.8534 34.8132 112.065
30.5563 196.83 228.539
47.4694 134.022 139.658
80.5043 144.056 273.91
26.9171 194.238 154.961
17.3738 190.002 123.784
95.3752 112.653 149.535
62.724 143.709 72.6807
75.1422 115.234 71.1805
77.9499 189.423 216.366
45.9423 174.181 209.807
56.1679 27.1943 94.6052
21.4194 185.811 92.6981
79.9197 172.884 103.589
102.154 109.924 123.847
52.2953 195.54 229.871
58.8222 35.2324 101.77
46.8195 198.919 86.2372
47.5248 230.073 261.4
19.1557 187.172 103.919
53.9863 149.144 148.476
17.1999 154.567 153.032
50.9896 204.453 227.336
11.9309 170.633 270.9
35.2191 223.109 248.267
94.8324 158.153 228.325
74.6009 199.035 125.033
98.4812 147.222 254.206
60.3637 194.587 224.741
74.8045 212.548 249.712
85.9107 165.591 236.615
57.1279 182.872 154.243
73.547 154.761 207.054
101.437 116.288 134.806
35.4236 203.036 98.325
65.2867 198.263 117.17
40.4324 143.125 76.1629
74.2642 133.011 262.579
64.3025 92.3815 134.127
59.2843 100.626 56.8758
69.4986 207.898 128.139
69.4261 62.4507 134.598
98.2357 136.209 57.2456
43.9873 36.0637 74.8394
34.8405 110.044 133.693
26.7138 101.511 85.4923
27.9821 132.048 125.429
64.2306 152.741 149.185
78.6617 175.306 265.807
19.015 137.876 236.826
69.1647 117.735 45.8109
33.7151 127.473 59.421
62.3249 194.068 147.754
53.8106 167.508 213.08
81.664 137.965 273.241
5.77744 162.907 122.956
60.5606 228.428 260.694
46.9235 170.237 127.418
80.4035 216.005 241.619
53.2079 116.478 248.715
1.29437 155.632 97.541
28.3367 175.214 248.789
38.8544 139.166 215.883
42.6963 161.586 206.939
66.3913 205.739 221.207
45.5342 127.485 265.937
33.917 120.363 253.711
36.1565 76.549 122.406
46.2367 219.1 232.78
38.8296 162.742 160.822
56.8337 200.981 230.175
33.6711 170.997 211.296
74.1003 166.312 274.439
45.2606 223.517 269.045
28.1362 145.334 76.1843
50.6468 166.287 201.986
36.3057 230.813 273.224
86.8668 97.1213 105.999
51.4976 109.607 145.261
70.4244 125.686 226.327
98.6036 60.79 105.353
76.7349 145.156 230.675
57.2193 156.012 94.3223
38.7077 147.2 215.621
3.17555 185.341 260.568
67.2686 205.077 136.455
21.9673 159.947 117.431
33.9553 198.745 217.978
51.3641 177.119 156.218
72.465 86.2784 133.904
51.5048 82.3034 124.916
84.2463 211.357 260.254
65.6413 90.8816 53.209
64.2504 204.588 235.052
87.5857 142.534 241.454
43.8165 130.242 247.154
88.7969 49.0639 75.9027
20.3029 150.132 116.333
25.0822 189.072 103.803
29.7926 126.964 136.605
47.7731 192.97 102.371
58.2296 140.693 73.6273
67.6503 117.96 87.6403
91.1028 144.425 55.8342
82.3416 75.4443 59.3568
56.4357 105.656 106.404
42.0532 189.571 155.874
66.8659 191.397 128.356
16.9708 143.847 247.03
7.05868 134.622 138.758
65.4659 162.384 145.909
18.5842 153.412 121.67
31.699 181.501 93.6679
46.5836 149.137 123.315
8.25529 109.43 94.0543
63.1423 64.9887 135.12
24.3632 131.416 136.884
22.8185 95.1025 108.895
83.2448 164.034 212.848
45.749 199.101 120.183
86.0173 191.808 138.283
99.6824 153.12 244.898
44.8946 137.259 53.8465
44.8828 147.734 274.61
74.1397 203.576 221.486
30.5952 147.089 234.223
55.5811 131.179 56.2875
81.3921 161.939 155.894
60.817 168.376 85.7333
41.3757 221.67 256.129
59.0916 219.474 273.58
58.6929 167.676 71.8719
68.4343 118.06 56.9053
29.0965 192.585 224.473
74.5204 112.596 83.1815
50.3722 139.134 125.45
48.3213 204.57 214.305
14.6631 163.798 91.9645
82.2328 211.932 224.844
85.5466 107.68 146.056
4.81243 148.743 101.694
49.1328 37.3204 109.456
79.1734 194.127 144.881
60.2625 158.429 70.2755
20.801 210.555 273.318
56.4675 230.949 265.143
22.0705 195.148 122.334
67.2068 112.998 75.7626
55.953 229.088 245.167
51.3683 133.031 225.338
64.3021 132.586 233.046
87.7325 114.774 150.641
10.1756 159.322 119.302
59.394 153.217 80.2081
13.4473 161.129 98.273
84.0098 134.384 84.2923
70.3264 194.753 229.575
67.2727 72.8142 56.4765
56.6887 195.407 126.362
11.3676 132.187 127.626
36.7833 149.642 134.207
80.6102 124.105 88.4177
62.2344 95.8618 124.294
87.4101 114.292 130.747
88.8512 152.684 272.114
69.059 47.4255 65.0614
18.6956 104.476 118.166
64.1027 177.032 227.651
55.7005 136.94 230.149
68.1277 32.1454 99.1071
22.1809 178.55 237.86
89.0752 170.778 227.744
59.5537 231.137 251.716
64.6556 212.769 232.196
31.8669 139.091 63.501
70.175 200.267 108.354
104.42 76.7622 112.845
9.30597 157.344 91.8453
25.558 193.624 230.4
47.4109 198.907 107.182
35.1592 169.393 230.019
3.99979 132.877 118.562
83.4446 180.155 149.979
42.456 191.738 257.568
95.6143 169.289 252.288
32.7824 193.045 229.284
91.3043 186.964 227.147
8.44189 168.506 274.712
83.3016 85.5459 53.5956
82.306 188.005 230.901
24.4095 122.819 274.641
39.6346 178.437 80.6112
78.8103 64.3692 51.6328
61.3888 53.9473 130.586
42.1479 157.131 214.945
49.8539 122.19 56.431
54.7217 178.247 151.1
40.4967 207.929 108.716
83.6018 187.544 220.309
33.8256 187.019 234.889
60.5471 147.902 131.574
87.0315 194.415 266.665
73.9326 193.226 220.126
6.92866 117.988 98.9668
23.777 180.449 107.867
69.5609 58.3793 57.0702
21.9282 179.036 250.524
34.7863 229.122 260.127
90.5385 211.219 269.259
64.3195 197.034 106.162
69.425 96.2923 123.351
82.2875 174.913 89.2005
79.416 150.924 274.608
66.1181 150.577 204.364
96.4126 47.4744 74.8257
70.6445 166.248 141.071
76.2713 188.289 145.8
103.234 86.4406 93.9231
97.3421 146.488 231.748
49.2332 206.949 143.454
59.9993 206.733 229.544
101.893 52.444 100.441
83.4588 138.041 237.417
80.8861 173.98 273.367
41.0071 93.86 116.773
33.3527 142.203 141.504
72.5109 111.677 49.1627
86.7367 88.9716 58.5407
21.0962 199.393 119.058
73.7559 125.404 147.714
28.5199 188.584 231.613
23.7275 104.212 79.9823
36.2211 200.745 137.945
42.5112 230.209 260.5
93.2132 150.213 233.386
29.6027 198.044 137.58
24.5597 152.7 121.03
83.9414 171.448 97.7977
73.5018 218.689 226.355
82.8023 98.1668 57.4597
2.26608 31.7424 185.45
59.8418 135.235 228.834
97.4275 111.612 133.308
28.1173 136.261 255.345
87.6827 178.368 87.5155
24.8759 197.73 151.441
78.3439 189.276 138.23
54.6814 181.969 228.179
91.0272 164.183 225.04
15.4827 206.467 173.628
17.9176 182.643 99.1996
2.48346 87.3511 99.4831
69.8667 179.743 106.743
77.6867 112.258 74.9411
44.3446 159.01 224.076
81.9222 46.919 110.046
12.0557 181.501 147.518
62.2585 230.548 246.666
24.7807 139.572 231.937
100.941 178.643 236.805
105.053 85.8791 86.6285
54.0156 152.416 68.0678
67.1182 145.055 133.93
73.931 96.9781 108.161
54.4372 164.927 96.5291
56.5388 220.899 242.484
16.1947 90.2105 90.3969
80.0755 170.226 252.921
83.5002 184.267 240.264
29.4562 220.858 274.851
15.3526 158.828 244.92
24.2935 147.831 274.815
60.9899 110.952 89.4566
64.4959 217.037 235.49
16.8989 199.752 116.889
86.1624 202.002 226.535
76.8033 175.117 208.735
57.1776 209.191 92.3773
64.1691 193.969 226.162
71.0846 139.766 82.4594
