ply
format ascii 1.0
comment Created by Open3D
element vertex 127
property double x
property double y
property double z
end_header
32.8389 90.1481 64.1346
9.13261 122.012 57.8082
19.8598 88.3237 107.702
8.58182 140.415 122.117
10.6401 139.942 69.9075
47.7746 110.481 74.9891
11.9856 105.549 50.6109
16.7244 144.065 117.861
7.65039 75.6892 68.9155
11.8542 80.5824 139.155
21.7828 85.7615 130.297
33.2888 85.911 74.5476
14.5583 147.762 90.0711
12.0015 115.582 50.4977
8.00798 108.989 155.922
22.0636 96.6753 101.229
33.8253 108.301 130.519
15.6844 89.788 98.2512
30.5174 96.5002 94.3291
38.6416 81.4136 94.2469
24.8992 95.537 135.699
11.1518 92.3565 133.521
9.47265 73.2077 111.656
37.0758 93.6891 80.4477
34.8563 77.4534 102.416
15.4668 74.7758 106.105
17.1627 128.57 55.4934
32.6131 98.3377 120.716
17.5922 89.3823 123.3
24.4438 70.6476 83.4712
43.8159 102.486 70.1203
5.81136 104.412 139.352
28.99 134.428 58.6339
35.4191 108.554 51.466
6.92545 102.51 92.7591
41.3882 133.188 116.08
37.8183 115.264 56.514
41.8569 113.791 123.18
8.28791 87.5231 113.608
7.98272 106.509 106.835
16.6816 98.4989 118.603
20.3544 111.54 143.73
26.5528 84.0663 57.3382
26.3588 140.025 83.9543
43.2499 133.076 88.9563
23.7057 138.869 69.2825
19.1352 147.151 75.9165
14.0292 70.237 99.7886
49.4991 86.4642 87.4819
30.3842 123.548 140.238
7.23508 108.596 118.815
44.5286 112.014 102.101
25.8223 151.323 84.8304
30.4308 141.844 120.885
13.8687 97.7358 147.207
50.0599 117.1 87.2327
32.9704 97.1395 57.9781
7.14992 123.538 84.5401
8.92111 146.228 106.667
39.5925 89.6222 91.9505
32.1763 129.444 126.419
50.7629 92.4184 93.1595
38.0588 133.952 108.04
6.63008 128.22 105.977
39.8319 94.2371 67.57
43.5567 123.568 118.83
46.6114 123.498 109.283
47.11 121.422 97.5592
14.8975 71.4394 67.8462
20.5534 73.178 73.765
40.5263 91.6504 125.351
32.0982 74.0567 93.4391
31.222 91.374 128.049
8.61702 139.895 86.6884
30.6913 135.877 129.736
5.70188 82.3545 147.352
40.582 123.446 63.2606
24.6119 139.948 61.5135
16.2359 85.0184 133.92
50.3729 119.508 105.31
39.385 78.6419 111.151
28.5111 111.373 49.2886
6.66368 83.8386 121.212
49.7581 111.087 94.6615
9.38769 98.6736 110.839
15.7096 76.5543 121.096
48.6864 107.161 81.8679
31.2412 80.7704 95.8784
47.6505 130.293 98.0274
31.1584 145.141 77.0197
20.8338 137.106 78.878
47.678 80.9269 95.9756
39.3031 102.199 90.4354
6.13984 107.236 77.8642
33.6648 115.092 135.995
16.7949 150.942 108.77
32.4312 145.366 112.505
36.7914 124.162 127.321
48.8005 109.297 116.974
10.2898 70.6293 81.1934
22.919 141.814 128.17
47.6995 111.364 107.193
26.5217 121.544 50.945
40.7367 102.363 124.101
43.5422 137.245 99.9751
52.5185 81.956 102.473
31.8018 90.3162 82.2718
37.381 143.481 88.8416
31.1775 142.923 68.719
11.2231 83.6 125.059
46.8114 83.9941 114.48
5.69974 116.564 104.021
14.7818 103.61 111.339
21.5756 96.4451 49.3584
56.5264 98.2395 91.6287
10.4952 136.167 136.007
11.5481 111.474 147.881
58.8053 105.105 101.624
13.4887 86.1415 51.4543
69.5182 84.7297 136.721
20.965 20.1165 96.3895
7.6072 8.20136 81.045
16.3453 20.3349 150.301
46.5028 135.307 79.1229
10.6749 81.8377 55.9429
8.46019 4.75729 73.767
5.31775 83.2768 142.427
