ply
format ascii 1.0
comment Created by Open3D
element vertex 119
property double x
property double y
property double z
end_header
91.6441 25.5385 189.06
62.8678 31.5903 196.842
137.021 73.8217 91.2448
66.4923 17.3882 194.324
97.8957 51.6099 117.844
21.6344 73.4926 152.314
99.2822 38.5396 168.657
95.1146 18.6553 175.078
24.2786 86.3653 155.11
91.9309 46.5579 162.392
101.056 43.5599 163.307
28.4645 78.0405 161.194
163.052 60.7031 218.194
19.9225 128.103 116.775
34.6606 52.5573 146.184
29.5441 68.4773 177.628
6.62952 64.4205 153.005
25.0617 49.3915 80.3741
27.6297 99.8722 158.663
144.313 214.863 143.661
83.8015 44.4554 171.071
51.5667 112.925 256.915
34.7308 71.6793 103.51
9.85199 66.0979 166.94
94.7029 185.876 213.206
87.4841 30.2167 150.003
117.987 193.908 215.158
28.62 93.7984 144.33
71.1778 108.802 138.503
102.932 21.8071 167.6
97.9291 166.547 79.4973
73.4174 70.2162 116.283
41.9703 55.0103 145.455
138.917 89.5648 77.944
92.8584 196.047 210.913
103.448 32.6869 178.067
160.214 72.9501 226.297
97.7487 168.778 84.2531
29.4227 33.6488 71.4509
119.422 43.376 44.9008
95.001 17.933 165.859
29.5648 155.362 166.619
55.7505 15.867 183.808
68.7166 69.6442 113.247
143.436 57.6725 209.421
91.8762 18.8674 144.25
24.6125 97.8125 150.675
72.5405 15.4187 185.605
22.8694 90.5113 149.374
161.612 56.4047 226.857
81.8533 14.5877 165.14
85.7477 37.729 179.112
27.0278 76.7075 146.156
136.422 158.996 138.441
101.981 36.0311 185.837
111.848 24.6908 163.274
13.719 69.3061 153.34
13.8874 55.3407 167.327
105.578 31.7844 166.988
20.0036 62.823 171.173
112.609 197.06 214.106
82.7931 10.538 164.034
22.26 74.4844 170.791
66.2572 25.329 175.17
97.899 27.1608 167.965
9.91654 62.2188 159.452
162.289 78.9382 227.394
71.543 66.0153 119.727
167.53 79.1379 237.409
37.5092 62.1973 178.885
31.0652 92.5384 159.347
167.177 60.446 233.335
70.2043 107.093 144.705
15.7568 65.3804 174.24
168.259 73.0117 219.04
21.2973 65.775 179.942
34.1885 33.3896 68.3459
23.8734 69.7056 162.019
166.996 78.6688 213.115
103.297 190.538 213.218
167.447 67.823 224.382
17.445 67.1053 158.495
144.687 212.865 138.402
138.296 137.866 235.088
82.7335 23.1824 186.248
14.8309 73.2807 167.908
92.577 29.5709 169.872
108.988 231.133 257.69
59.9302 24.8007 186.556
86.0191 35.0962 167.908
52.8675 108.595 253.434
89.2438 23.6219 177.182
21.7693 44.3865 77.7315
105.608 108.793 246.324
89.8365 39.0436 172.124
94.16 29.257 180.444
75.1349 25.9131 185.523
73.992 35.0553 189.793
38.9815 70.1391 101.435
68.722 28.6873 183.033
168.872 75.4088 230.132
111.782 191.255 212.504
94.9435 50.6608 112.263
169.103 56.4633 204.17
167.621 60.0455 222.659
25.0191 93.8802 161.305
12.7228 71.9379 161.092
169.359 68.5046 238.537
100.58 194.994 217.19
169.22 51.3007 233.934
154.572 65.6791 221.254
84.7563 28.5176 181.131
31.2588 151.044 165.221
144.549 59.5253 202.731
136.243 141.96 239.663
94.4457 35.1985 163.334
169.463 73.4994 241.928
64.7658 30.3528 184.109
155.32 61.0972 226.862
