ply
format ascii 1.0
comment Created by Open3D
element vertex 1832
property double x
property double y
property double z
end_header
40.7995 86.3654 114.827
46.758 96.0008 214.176
22.0645 12.8007 135.98
10.192 95.1584 240.944
32.2134 43.5341 263.925
25.4389 7.31722 107.56
46.287 76.8069 128.77
61.8469 93.6707 238.156
12.7567 28.654 256.093
32.0712 37.1447 169.357
38.9825 6.4142 73.6971
46.7172 204.801 43.548
65.8622 166.995 100.378
15.8724 19.2758 76.0094
17.031 5.03838 189.854
55.0521 66.1879 104.12
38.1189 16.1165 201.706
16.0519 42.6423 189.308
17.706 25.0096 265.075
49.3467 145.866 240.429
28.5491 19.3062 36.3632
20.5192 88.6522 221.477
45.89 10.16 90.3357
19.1059 194.515 172.159
10.9403 113.53 171.721
61.6886 62.7038 93.6314
14.5176 90.5715 189.059
46.2642 80.7558 121.498
50.6614 202.403 51.6911
49.5668 180.724 51.18
29.9135 119.708 272.131
42.6998 65.7094 243.102
40.6974 165.464 160.04
20.3774 127.029 82.5115
19.8752 34.7345 191.328
18.5771 123.276 249.914
44.5095 119.632 148.028
76.3323 169.677 123.39
12.793 105.403 257.932
36.5327 128.311 93.848
11.7514 81.3253 94.0156
16.5191 3.7876 75.4991
54.2229 67.4998 137.792
10.9972 103.661 242.82
9.27797 43.1467 132.881
62.02 220.968 6.11752
17.1333 95.5898 223.877
10.2293 118.114 180.519
63.9161 64.9415 103.042
62.5461 146.922 63.5923
13.9129 83.0268 247.57
23.7185 95.2126 215.621
20.9143 117.693 87.9143
62.8498 79.8574 70.0651
77.8583 135.68 39.9441
53.2914 161.604 19.9701
68.5788 89.7968 208.549
48.7413 122.513 174.698
33.2555 91.0094 215.056
24.815 13.6587 193.027
16.6793 182.746 171.16
37.0357 105.344 110.483
34.9433 31.3579 79.1598
21.9754 72.454 249.775
48.8874 164.812 32.7713
19.9686 94.7558 198.821
24.2774 5.41426 175.789
90.1107 94.8227 50.124
53.2495 163.339 38.4808
17.0717 89.9976 267.382
49.8933 68.6912 109.192
12.1281 131.31 93.4937
32.9189 213.985 87.7826
63.5056 82.6351 77.8598
51.7715 85.0759 226.499
53.9424 142.678 76.6045
38.7956 5.73311 240.074
46.5087 206.751 73.9728
15.284 45.1984 173.213
53.7546 91.4873 87.3599
19.8594 6.72934 200.333
11.6968 13.5349 92.894
71.9515 128.956 51.354
31.4893 229.477 190.567
15.4879 23.5362 96.8969
75.0788 55.6897 121.653
56.0026 224.921 70.2524
54.4076 201.981 60.3871
20.2576 108.261 268.261
27.6658 69.2028 244.618
68.7753 70.3775 82.351
34.8048 116.963 89.5001
15.5534 125.898 182.321
25.7143 200.277 168.358
69.0641 62.0406 90.4107
27.9468 115.671 212.089
17.665 14.0024 258.881
69.7076 135.15 53.4822
38.6606 39.9637 267.02
63.2538 101.902 249.467
59.2098 152.367 131.118
17.5607 114.075 260.373
52.0163 146.808 82.2891
49.2981 18.5209 252.244
35.0452 32.9093 227.993
31.0464 96.948 211.527
35.808 168.537 170.725
42.2194 86.1839 102.759
48.1675 73.1447 116.44
33.3006 4.4725 173.482
20.0296 13.5908 234.68
64.9195 67.8202 88.2274
32.6359 19.6055 68.2788
52.4218 66.636 116.361
16.7098 97.6225 162.89
40.0664 12.4723 190.439
44.1785 87.8399 139.364
55.3185 172.507 45.0512
47.0527 70.0521 238.526
10.6294 100.867 234.189
11.6241 97.2158 257.752
46.5344 115.805 266.751
22.1327 92.1596 162.515
22.625 109.906 215.218
60.3975 143.381 143.994
18.924 29.0345 33.5386
54.07 172.191 53.6443
26.3428 29.5868 193.585
85.8674 155.795 175.171
43.3184 142.06 119.22
16.0772 113.453 220.159
45.1793 92.5303 86.9866
72.2929 165.825 130.3
32.4081 114.385 100.609
62.7165 100.917 63.6968
12.2492 97.6768 194.683
67.1345 75.5672 68.065
37.9663 129.456 224.363
55.1804 202.945 26.0127
13.1763 113.265 253.572
40.5757 67.3918 259.866
64.6756 89.7943 249.545
39.7985 178.123 139.206
86.229 55.1703 117.757
36.7682 110.293 159.91
72.5846 57.6574 104.153
34.6382 164.532 153.561
25.513 73.2184 234.193
57.2189 179.56 15.8417
58.4303 70.936 147.76
32.2773 113.453 123.569
73.3634 171.817 117.013
33.7103 125.884 216.174
56.8022 161.462 110.919
57.5659 78.1013 158.296
101.52 193.144 101.15
41.3561 207.266 68.4901
30.2894 14.5958 199.873
35.2636 128.839 124.199
35.1755 108.116 134.288
45.4188 87.2243 220.281
48.3916 204.35 180.434
74.5899 151.449 168.507
46.565 207.974 61.8466
13.8242 32.4685 243.854
31.2594 132.29 182.958
28.9662 32.8028 270.639
83.5464 66.5433 168.939
11.5423 22.5003 242.301
29.8068 8.71369 206.783
52.7082 70.9811 97.2463
70.3584 149.361 31.7942
44.5981 14.2131 267.509
82.4619 152.357 31.5966
42.09 40.5303 258.181
60.3733 68.9331 96.8035
48.1334 169.215 23.8619
40.1329 79.8216 225.778
84.2898 60.1558 138.228
52.9377 193.171 18.9707
87.6418 53.1123 139.827
60.1521 112.085 235.428
29.2387 208.775 78.659
29.3659 16.3752 271.111
75.1852 59.6442 142.088
62.816 83.8865 243.782
61.0081 105.452 57.6135
9.44055 100.787 249.555
58.1083 109.692 243.549
68.425 144.951 24.2201
20.5996 31.3046 89.7205
21.6719 41.2527 255.544
68.8772 65.843 114.694
28.4778 87.4411 162.823
65.6863 143.682 34.2483
43.312 37.2688 241.422
43.3413 170.249 168.866
42.9059 169.481 150.127
17.9064 50.3159 182.36
11.1884 3.24054 140.122
14.1355 87.3427 241.488
18.074 133.879 88.0629
18.0981 32.6644 232.319
26.4211 28.3523 225.666
57.9517 203.633 10.6882
53.4924 114.022 262.458
49.0606 222.667 46.7634
17.8457 122.799 196.297
79.316 67.1827 67.3056
10.6207 93.6342 250.036
35.0255 64.7969 247.138
45.6065 186.574 27.2047
17.9478 195.526 164.255
30.8582 9.39335 69.3081
45.8743 209.368 37.1743
63.2438 103.698 181.816
34.6064 122.221 164.955
64.8759 61.6044 122.226
29.3181 27.6374 72.3572
37.6453 126.678 86.9014
26.3286 104.908 157.645
9.80156 112.866 242.042
29.3691 215.266 48.6254
72.0881 161.011 75.9598
69.7045 151.038 39.99
27.9002 157.924 247.315
67.7549 60.4138 98.0583
64.4533 75.7094 75.7791
53.6436 84.6406 82.4978
70.8527 57.3738 126.732
10.744 138.563 8.88732
28.8248 27.5 175.629
75.4123 91.0122 55.8444
37.1049 14.0276 229.738
83.8834 62.0675 70.8617
50.9118 83.5001 156.847
53.3849 102.954 65.0897
87.4125 63.4665 161.626
49.7384 122.258 185.557
17.3218 117.691 162.838
68.5748 76.8773 155.129
29.8019 91.2323 197.856
35.6472 45.7398 248.897
44.8447 114.454 115.939
71.4427 68.2249 164.734
27.7653 10.1435 232.928
59.8127 95.1923 67.9902
38.3209 202.959 178.514
39.0004 124.09 139.939
85.0532 106.254 49.3069
22.5454 88.4434 191.798
37.1541 20.5809 104.796
43.7386 119.849 166.395
65.6117 165.58 108.637
92.4381 143.925 35.9275
58.0859 81.6231 80.891
57.4385 83.9613 233.921
17.8171 81.8643 262.521
31.9472 62.7221 4.07575
23.4229 112.994 158.962
11.4716 119.763 189.346
28.2061 35.5083 90.8086
45.8984 196.367 16.8641
37.4579 223.513 91.1808
70.85 59.4331 110.641
26.1553 182.972 138.338
45.5896 82.3887 135.075
55.3281 114.139 226.839
19.1637 11.1703 2.8843
55.6034 76.6858 86.4653
59.5948 66.1053 110.301
93.74 184.543 91.61
19.7456 115.505 133.119
23.3586 12.8981 154.429
86.4752 136.108 37.3249
103.393 153.962 39.1908
11.6979 93.4665 231.464
49.4546 152.863 93.0608
72.2017 223.635 6.90229
50.0654 204.705 10.4746
44.1817 88.5725 123.164
63.0833 131.871 55.3434
50.7553 123.597 66.1246
77.2576 173.941 5.8816
80.938 83.5819 55.6945
27.2142 32.9933 83.5865
51.5237 183.571 6.59807
44.8003 176.339 145.528
65.0998 91.7873 65.4677
10.7037 8.07162 82.1942
66.6627 70.6728 74.1154
23.5401 35.6531 264.789
51.8101 106.731 182.656
64.3168 125.01 54.7494
35.2747 4.96516 253.975
66.0664 56.3077 105.452
43.0037 222.928 42.4922
21.7861 79.8384 234.824
50.3783 96.5802 186.689
67.7456 104.662 56.2745
24.0801 8.3809 183.211
51.5514 110.628 65.643
14.3784 120.897 244.144
63.9475 87.4877 71.2978
35.5327 87.4793 163.585
26.8707 12.4735 59.1893
22.8055 20.7538 269.952
59.7747 109.425 255.077
43.4033 94.3482 136.936
83.622 154.952 41.6381
93.9706 60.6733 153.024
39.7893 15.5241 73.3765
38.6533 127.344 265.81
56.3427 78.4617 124.367
66.0469 171.196 6.13313
36.7555 114.115 83.1021
47.9895 212.562 25.7055
48.4726 92.5448 159.515
38.8232 72.5472 237.603
33.6953 82.3923 174.078
13.7264 2.63808 86.4807
26.6723 15.8863 3.24153
41.8733 2.30611 57.5965
15.7846 188.746 160.014
97.6044 53.9014 140.45
54.719 97.4652 72.0904
29.3189 9.35096 264.91
34.0634 132.338 116.931
55.2708 212.695 32.5424
36.6429 10.9919 271.223
51.8227 69.7963 123.107
46.5819 213.412 54.4342
33.9863 4.38905 17.6151
71.1415 137.447 20.3377
70.9977 54.9765 95.884
83.5811 147.02 49.2806
98.2799 166.447 40.3473
26.2898 39.4623 195.63
80.1636 112.999 51.2013
18.9697 188.326 174.7
56.344 179.505 58.6075
22.9387 229.087 164.098
91.5937 68.0297 63.04
70.6135 66.158 77.9665
11.1546 93.7984 177.693
46.9467 188.155 44.774
14.2209 7.06974 134.666
59.7853 73.8612 80.0662
35.8357 219.146 199.482
36.1202 108.342 118.873
12.1771 107.686 165.888
20.0312 118.888 213.181
94.3617 157.02 175.661
36.3341 130.369 191.022
29.7424 70.619 264.545
50.2374 105.845 175.293
51.1191 145.926 90.1812
38.1857 213.215 51.7601
17.0202 99.5366 269.003
56.2939 142.271 68.3053
13.3428 127.233 84.7948
41.8263 26.9237 77.2743
58.5047 150.748 21.8351
43.9789 85.0072 174.862
82.2389 59.5388 145.525
20.4046 221.929 84.4482
108.71 160.032 43.3835
12.4173 109.276 196.155
58.2383 165.601 29.0831
77.0579 174.444 104.531
87.5369 122.411 52.155
36.803 33.2653 88.3868
33.2668 75.919 229.309
86.7812 159.472 25.4821
68.165 187.191 2.83124
34.8905 18.4486 191.968
82.7177 154.908 18.6372
21.7457 109.493 201.54
50.5028 84.8381 169.877
27.695 16.8025 228.64
39.2832 130.633 180.716
48.5149 175.597 18.393
80.5242 145.403 35.4897
41.3579 135.014 129.666
32.826 103.253 202.933
19.8249 117.503 96.4764
60.3759 73.8989 89.5623
48.1386 183.955 21.1775
35.7185 104.122 211.409
33.2014 110.125 106.727
30.5163 130.956 221.053
93.0713 159.086 44.9445
36.27 131.22 260.74
38.1535 202.628 74.0005
50.8345 90.1305 165.78
18.9696 169.877 271.732
15.485 85.108 234.554
61.6913 65.7999 145.62
58.3524 82.469 152.459
14.2971 133.185 232.591
65.073 121.062 68.8866
65.6632 159.402 128.457
22.3877 51.3654 170.241
35.2459 114.165 116.641
80.0435 149.574 7.27866
90.3607 79.6312 179.193
52.9089 97.8564 168.231
37.3333 135.658 234.967
45.0056 4.03179 187.6
104.221 57.5171 146.326
30.5768 222.715 89.6774
56.8696 154.061 96.52
56.9429 173.016 36.0662
26.1695 128.438 92.4449
33.9582 207.479 74.3814
88.2255 74.0167 60.9705
59.7634 63.0221 117.18
42.6724 125.696 189.983
37.6365 85.6535 218.872
24.4931 103.306 203.492
46.1574 91.4498 95.712
57.6043 124.23 62.491
12.9741 41.0272 178.565
87.3632 51.8563 96.5207
55.9946 121.565 255.805
48.3665 180.771 162.108
52.8864 133.271 69.5279
77.3889 155.542 54.7787
38.8607 91.4886 168.108
64.4572 152.425 31.9322
96.0306 112.831 54.0048
16.8652 115.586 197.483
56.93 79.2221 97.9269
17.6167 40.4467 46.8376
68.1237 97.3625 61.5968
81.8668 91.5096 52.3574
66.2437 151.676 135.237
50.8261 74.5358 139.644
25.981 201.133 159.903
14.2393 100.992 264.048
45.152 196.6 186.932
30.4643 160.436 241.3
46.2256 188.897 14.7305
49.1369 174.217 35.2694
91.6304 152.761 19.5387
66.6467 163.347 13.7453
46.3487 13.4602 242.049
61.5014 72.1186 162.357
105.625 106.838 59.5378
23.4042 4.64422 14.4455
52.5095 119.941 220.517
29.7699 134.675 238.332
84.6375 61.6914 151.87
76.2477 160.201 3.44164
68.3093 64.934 128.854
58.5227 136.487 74.6162
79.9781 50.0047 100.598
71.9791 63.1344 72.7391
26.1996 123.593 86.5915
25.6795 11.5215 11.9632
18.6315 9.07459 240.706
51.2987 67.9743 248.004
19.7564 123.338 218.189
77.8843 147.33 23.4498
67.7113 138.29 28.9907
59.3245 75.9638 133.4
71.7748 149.202 142.652
48.1417 87.2792 148.188
26.4623 83.0338 170.866
63.7641 99.2282 258.298
31.5543 15.4848 171.613
58.4929 192.123 62.4343
23.5023 115.515 267.743
88.2036 70.385 155.764
78.4517 163.201 130.619
74.0736 78.1998 177.714
93.9527 145.765 13.2553
94.5614 55.7555 146.565
36.9539 21.7052 3.13834
59.5789 93.7745 262.273
48.4106 94.3474 76.5901
36.933 114.264 134.722
51.9873 68.2101 256.048
91.9042 65.0148 70.1806
43.9826 99.2851 74.7516
18.2326 15.5034 104.783
81.8291 133.007 54.1874
47.1046 203.732 26.71
59.4287 161.699 99.3053
34.8215 163.197 237.913
36.4511 97.294 109.762
21.0407 27.4086 79.5866
11.3113 143.169 205.811
37.4378 102.346 134.116
44.6743 11.1056 260.321
57.6184 108.995 63.1761
58.7954 154.465 16.8954
42.4399 213.776 82.5013
103.98 168.328 97.6353
25.5568 103.232 212.377
45.9303 109.967 164.993
46.661 142.662 128.609
89.1901 157.713 35.4707
13.8488 208.476 96.2646
53.6155 197.152 9.6375
61.9551 68.1641 131.696
41.9706 100.11 88.6815
48.8857 192.303 50.4879
77.8106 154.185 25.5067
73.9678 61.3802 151.578
40.5066 98.1409 160.369
54.4666 107.133 218.675
27.0466 28.8515 185.212
96.3169 168.554 96.7458
76.0056 60.7835 87.8286
68.165 63.3908 147.405
16.98 216.989 63.4393
52.0145 113.031 218.038
76.4522 72.184 63.3939
19.2705 103.069 218.862
38.9908 129.492 154.438
69.1702 65.8815 153.971
28.0528 124.142 211.686
96.765 197.318 87.5175
86.2535 161.565 17.7007
86.7222 218.012 4.17831
24.7362 51.5121 186.542
36.3299 131.706 243.668
9.65669 97.0806 185.333
70.239 151.074 81.0629
22.7679 126.953 244.553
78.3703 133.581 15.0659
11.9438 21.4534 40.5315
51.9496 102.394 139.458
10.0799 109.141 233.799
50.4461 22.8748 267.403
82.4734 136.065 60.5706
36.6214 99.428 127.297
38.3792 69.8285 267.168
43.176 98.6421 131.035
52.3321 7.23736 195.416
37.4188 135.508 123.343
20.7729 88.6418 273.26
61.9423 174.758 52.8872
77.4553 139.517 14.4997
32.4079 226.024 173.193
50.5718 152.118 124.095
42.2893 8.90407 249.028
12.4435 38.2021 18.7642
68.6044 65.1339 141.704
81.0593 166.975 17.445
47.2998 189.912 156.2
66.9758 64.354 135.876
22.8139 73.1026 263.956
99.3157 148.636 27.8716
36.0687 11.3831 153.753
39.1541 94.8362 198.876
62.0224 70.4652 137.962
24.6876 111.502 122.233
43.3985 122.46 265.915
80.9306 178.065 111.999
52.7752 148.611 130.361
49.0379 75.8386 231.027
45.8687 178.41 171.532
56.3334 152.274 89.0218
26.4605 220.86 176.316
22.6243 22.1164 30.4109
9.72157 116.468 232.939
74.227 151.664 161.417
48.4551 3.11887 46.011
21.5514 125.218 172.948
47.317 171.333 157.93
23.042 2.01051 208.127
66.1193 112.088 53.5712
75.1994 149.018 155.358
63.1969 147.006 25.0589
97.4637 186.376 98.7604
73.7002 110.655 52.3804
80.5535 56.6876 110.195
58.5787 167.376 49.0748
19.0879 4.62853 157.176
67.0489 217.053 13.7958
47.8649 84.648 90.9261
55.7731 115.811 63.1993
57.3103 162.146 14.1372
98.2919 69.276 66.0926
72.2933 57.7468 134.965
34.7139 18.3201 55.7214
31.0542 45.946 256.75
69.1048 80.5 164.604
58.5026 99.9718 223.814
35.1421 83.9606 183.772
74.7309 150.025 13.0592
71.1306 109.367 60.4764
75.289 169.819 96.9607
28.885 13.4785 45.7068
47.8659 204.437 15.3595
50.1903 183.128 32.7922
66.7555 158.934 81.5557
20.8045 80.2474 268.834
18.3738 4.98248 104.371
97.5598 156.341 120.8
50.8213 101.176 161.19
9.62732 112.184 248.543
25.5241 82.0925 224.772
22.0807 122.857 256.346
52.2389 230.256 84.4554
136.109 82.2452 122.046
48.4272 117.733 194.136
90.3255 174.046 110.472
34.4867 187.516 139.017
68.386 157.507 57.909
59.1823 73.2483 247.526
32.9033 9.09388 135.564
42.7017 111.307 89.0462
54.1334 75.0512 103.394
44.3467 190.421 35.576
25.2056 83.198 272.869
25.0777 70.6907 257.582
15.713 10.5662 146.368
82.7725 69.1799 62.1582
74.0795 58.8707 79.9163
43.3153 129.326 257.375
18.7209 77.3543 256.599
18.1199 15.8228 34.2947
84.5014 175.005 104.199
54.3462 121.422 227.678
45.6783 188.243 148.931
47.1039 101.455 80.8052
50.7681 80.68 87.2893
87.0875 51.8496 103.077
60.1569 69.6263 84.015
68.2553 143.327 60.4155
31.4272 21.2333 224.739
26.0313 4.54521 240.316
77.976 117.172 55.6713
34.8535 176.58 175.81
48.5601 91.2954 80.5278
76.0599 158.531 15.6494
57.469 154.179 26.9649
90.4331 154.191 52.0609
45.1368 109.008 198.839
67.5533 153.935 47.7998
13.0584 87.9249 251.973
53.2157 220.967 56.506
37.3167 8.43863 261.287
20.9973 127.576 187.468
87.0684 55.6425 126.372
56.0319 117.222 240.853
34.7433 142.543 191.226
38.9257 89.5675 191.675
57.4445 86.4332 72.4719
43.7873 84.8943 128.814
90.0341 129.631 52.2846
38.8483 200.416 161.27
28.5526 210.437 188.374
81.8568 177.764 61.9296
45.5593 193.999 165.255
46.5455 105.426 71.6389
68.5602 74.3785 140.306
77.5872 141.429 162.13
43.507 98.5026 101.344
38.4196 207.482 60.1084
46.3442 135.941 86.5424
32.3597 70.2055 235.423
96.0594 55.1267 132.534
69.013 148.66 67.4553
11.0189 124.708 235.11
107.444 117.447 52.5128
68.4982 215.385 5.75482
35.8765 3.30032 161.461
41.0757 21.7292 69.8361
98.1193 67.976 73.6875
68.238 156.832 17.2592
21.6742 83.5872 180.578
90.8411 110.809 99.5544
34.7393 120.246 210.648
68.9984 69.9415 158.989
129.134 82.3254 117.653
105.527 124.482 54.3953
78.5442 54.3537 104.432
70.0616 154.236 4.42473
93.9805 66.4731 157.151
92.7964 172.568 119.06
37.4564 119.023 268.848
66.5427 141.395 148.931
50.6668 21.295 5.99397
105.143 66.9167 85.8387
22.4852 21.7036 105.128
33.5291 125.041 116.195
67.9577 84.7201 66.6085
59.4607 79.342 143.765
12.2039 230.779 187.535
51.1876 160.057 26.4014
44.6786 125.024 178.673
38.8177 108.157 125.835
48.3279 109.433 78.5416
23.478 214.041 82.1836
76.0005 167.417 64.8374
44.8677 129.263 85.8099
51.4155 224.263 79.5456
66.3245 159.662 90.1706
80.4971 152.754 48.8122
56.992 64.805 124.452
38.6129 99.2151 103.031
102.069 52.1103 97.756
77.1948 155.786 133.068
41.6874 3.42867 152.479
46.0719 100.261 167.787
101.172 118.192 51.0088
58.45 107.69 174.32
47.4194 80.2083 99.5592
30.2679 218.014 193.403
57.4991 221.453 29.1617
92.8179 106.647 53.3491
51.6254 78.6228 265.546
40.9852 157.797 233.668
67.817 136.336 71.5102
37.4677 123.792 130.045
37.6842 132.524 99.2089
13.4426 7.6403 99.5488
11.5999 98.9994 166.514
49.1521 105.248 191.562
54.0983 73.7953 236.688
63.364 139.709 62.7994
83.9656 163.671 61.2425
50.0932 128.616 257.538
66.1505 145.629 42.7481
15.6782 28.7522 152.064
35.0716 228.858 182.175
18.5722 10.5476 70.6965
80.9734 171.118 111.663
77.4899 160.256 60.0734
18.6258 25.5452 232.408
60.7343 112.665 179.355
133.647 96.9757 89.2912
88.2707 80.4374 61.1397
60.4587 158.981 105.492
57.3585 228.736 78.538
31.291 39.2871 234.621
90.6662 176.108 101.537
45.5143 149.083 118.476
75.3592 81.1849 59.834
77.2749 54.99 93.8616
50.1736 127.257 226.62
136.309 85.9037 116.404
49.9483 214.937 78.4744
111.266 198.583 96.6293
57.7009 134.475 64.1923
129.278 78.4058 89.1298
76.6913 57.7615 114.386
60.1745 148.32 124.369
64.8298 73.0618 170.138
32.7931 116.774 107.999
47.7894 81.8042 105.584
74.7386 150.746 136.263
11.3581 103.201 227.314
52.497 88.6081 74.6801
33.0901 201.867 166.607
70.6896 72.1893 170.943
71.9796 77.9677 64.1517
60.8943 132.899 152.457
79.2555 155.205 76.6867
59.8261 195.125 54.7208
32.2617 206.405 63.2954
82.636 58.6625 81.6667
50.224 85.8594 97.9641
33.8711 43.7223 240.464
41.5479 222.225 193.406
95.7428 123.881 54.5108
94.7504 51.7705 97.8455
92.9494 162.793 27.8832
90.2233 58.8439 74.8358
62.3134 61.034 128.894
20.5225 130.095 99.8667
90.2281 54.138 114.125
32.2171 30.9766 99.1733
22.8999 101.849 273.078
86.1486 56.0028 107.397
44.1682 95.158 113.143
56.5286 191.203 9.8652
45.0933 93.9606 104.117
40.2208 105.366 147.495
82.2728 132.209 32.0343
52.7257 139.877 141.189
79.0049 161.769 91.7638
28.0451 211.587 56.4778
81.5893 152.351 157.359
69.769 84.9985 60.0728
70.0031 121.906 57.074
79.2369 147.053 146.154
45.1827 218.425 89.0405
48.5999 139.192 135.564
55.7573 207.829 40.5028
30.6128 84.9728 221.148
32.9135 71.896 270.717
17.0587 130.093 240.136
101.854 135.611 15.9167
11.4464 40.4428 147.409
54.9611 135.619 147.09
29.139 129.994 247.787
33.3538 69.2591 258.987
46.5512 107.044 213.236
55.6397 203.518 2.62869
51.0797 70.1083 264.307
63.2906 154.415 49.9704
45.7706 131.826 236.183
94.7358 155.793 73.9909
71.896 164.538 56.8939
79.6529 141.187 7.977
17.0726 226.793 51.4938
42.6002 126.231 124.609
41.4287 121.376 200.288
16.7316 34.1199 57.713
88.7443 113.431 52.0463
45.0011 8.81856 81.759
16.9969 85.618 227.966
57.764 214.376 54.4001
72.5231 118.167 52.8268
17.9659 18.4784 230.257
59.2479 215.357 16.9656
65.9047 155.072 95.5941
67.3685 100.85 185.466
65.2716 183.885 59.9946
70.5354 159.7 135.093
90.7767 160.315 133.149
82.0642 168.577 99.9301
81.3228 59.3847 118.944
49.6149 90.197 132.044
32.4003 11.7763 186.843
32.7977 230.187 166.933
45.1191 37.4246 265.898
33.7085 71.2692 4.20215
34.8433 123.998 100.726
67.9493 93.2355 57.8026
43.3042 9.26874 199.656
80.7068 66.96 152.418
60.7565 115.094 248.524
35.5518 124.587 198.961
17.3818 181.303 152.149
54.5478 124.408 142.798
97.9526 54.0711 105.18
60.9895 113.8 59.6232
47.5699 113.129 70.2354
93.7201 150.591 31.8092
40.4806 138.593 102.158
43.9663 142.819 90.4568
65.5427 137.603 58.0669
88.84 58.16 147.541
45.4128 18.8718 80.1385
39.6893 24.9534 90.9574
19.8842 195.231 154.27
26.4607 120.782 263.554
42.1983 121.954 95.0968
37.8247 98.2448 118.362
38.3309 126.615 150.182
63.0005 201.277 57.2926
50.97 117.503 66.8379
64.2684 127.924 64.5995
27.2387 75.9624 271.379
43.5843 29.5374 232.807
18.9215 86.726 171.693
41.8918 74.0663 230.805
34.3197 108.202 95.2247
15.5828 126.039 222.626
45.295 71.4958 267.311
104.093 201.821 92.5105
60.5477 227.016 17.8828
71.4323 69.9254 67.894
52.3375 78.5215 92.8813
54.1103 176.213 6.58814
64.4036 61.2846 110.724
72.6538 102.221 53.0874
39.0175 73.3172 272.727
76.2031 69.8052 157.62
21.9378 230.504 119.773
100.394 126.215 54.6889
54.6195 100.095 218.13
93.8041 117.672 49.6083
47.6588 133.406 127.102
36.8134 207.966 204.003
101.186 151.056 178.355
71.2838 144.955 172.856
57.7321 181.789 5.55968
53.0959 155.92 102.324
33.9326 200.642 155.421
32.0578 132.921 229.817
15.4512 223.912 173.2
19.2319 115.313 117.1
17.1286 77.6285 249.073
81.3069 163.875 116.243
55.1614 105.313 167.921
48.2257 118.385 88.0428
110.713 57.8029 141.07
79.0646 219.914 5.16173
88.7289 148.289 38.0727
81.627 125.809 53.5683
90.354 99.5713 56.1626
82.2968 76.847 61.3549
13.3846 20.3004 85.0442
54.3733 185.508 39.6664
76.1439 122.384 59.1178
119.947 205.039 60.5333
78.219 69.9247 168.062
76.4832 133.033 24.5331
61.8507 229.615 64.5243
43.8787 95.8753 151.316
78.0652 98.2229 58.5669
90.8585 147.165 45.5938
58.7727 223.396 62.5938
104.928 166.8 110.767
38.5715 195.604 173.877
50.4469 77.5525 134.348
12.7796 121.341 88.9196
65.6225 177.98 57.8631
51.4731 134.504 77.9572
57.8581 115.269 256.161
33.2741 150.972 231.951
43.9629 211.207 177.926
42.8663 113.192 211.709
62.6395 85.3507 264.911
28.3176 16.4318 144.609
50.2382 153.617 249.339
136.981 102.854 107.37
24.1703 62.7049 3.66322
51.1467 108.232 159.962
34.5884 67.8292 240.705
49.0027 24.2541 243.439
113.104 202.314 88.6858
80.9171 186.508 65.5066
73.7161 226.828 13.1795
31.2821 129.374 173.613
17.6659 40.8429 166.255
65.6779 191.753 66.4262
42.9679 19.9147 97.3531
50.8568 128.094 73.4584
9.12878 107.737 185.944
49.4738 86.8482 127.013
48.6022 179.915 12.979
14.9686 106.598 223.465
31.8532 154.614 252.11
77.5201 165.039 10.0071
59.5552 165.211 54.5618
17.1885 214.843 74.7003
21.2535 32.3542 170.61
63.6256 145.658 166.563
90.4117 57.5477 92.1731
37.7626 206.949 82.522
26.3795 167.525 148.178
119.122 190.187 35.614
22.2734 4.56811 131
48.8951 31.3448 253.277
53.5225 155.782 109.044
10.2168 13.234 23.1012
63.0299 148.274 76.0418
46.3318 137.008 107.629
91.3998 169.222 85.3884
74.3755 146.48 72.1164
54.2577 87.9015 140.069
51.2774 8.45896 52.0937
52.0527 219.523 25.2154
93.0196 151.811 130.325
70.1751 180.817 62.1286
93.3709 134.544 29.1853
70.9646 59.8353 118.001
114.621 137.483 23.1846
41.9533 162.123 250.99
22.2615 223.295 170.222
81.4727 64.2827 159.464
47.805 113.083 273.324
101.651 170.053 58.6823
80.533 142.627 56.779
76.4624 128.426 60.2787
13.9781 14.4548 247.678
53.7751 92.7278 221.038
65.2163 220.96 20.7838
43.5466 115.462 191.669
27.6004 127.485 226.064
57.8367 118.1 234.032
60.5253 158.112 89.7976
23.4565 131.679 240.594
80.8441 162.161 124.772
36.4944 39.6165 178.525
48.2895 195.759 25.6797
34.3375 86.5141 193.262
49.9556 126.859 234.876
58.5858 97.0331 230.59
11.7212 224.059 201.141
86.2602 142.505 59.9278
58.5614 107.984 226.155
55.8869 84.953 176.404
50.0003 9.84689 204.011
35.4485 32.9141 184.703
49.462 105.623 129.827
43.578 129.017 138.926
75.8979 207.834 4.30748
69.9707 163.85 119.697
41.0621 100.291 211.642
91.491 53.3063 106.819
72.5793 168.786 102.747
85.0887 72.9041 172.205
50.4609 88.9843 273.107
38.7271 143.973 250.743
46.2311 2.72198 211.886
104.199 130.382 57.0387
86.7157 151.619 146.779
54.4581 93.2242 174.035
73.4019 139.105 35.8709
88.5064 168.264 58.3761
35.5409 110.34 211.066
86.6766 86.5342 60.6995
63.853 120.094 60.5105
55.9125 72.421 128.178
27.993 196.127 173.885
99.9251 141.173 35.8186
58.8723 150.094 80.7483
88.7465 156.226 78.5728
90.9185 59.9243 83.3275
49.3432 94.1643 127.801
101.116 190.513 67.7609
43.0005 103.639 113.917
12.7505 25.3751 273.199
99.2988 197.216 67.866
10.8034 192.254 254.393
73.5624 144.547 16.4772
51.39 81.9724 272.589
34.1521 103.987 101.513
65.555 163.569 54.2448
127.243 96.4235 88.1207
51.3682 154.674 116.023
81.8882 165.718 83.8222
17.8877 12.5637 45.4325
34.5008 8.06177 107.994
66.1792 157.248 115.569
42.207 189.07 178.203
13.1743 87.2925 258.893
14.5813 30.6297 26.1954
110.127 66.154 75.2459
16.1429 229.348 120.549
47.4729 126.368 246.485
14.6725 34.2768 38.3999
98.4162 191.461 79.2758
26.2778 151.346 238.316
100.904 51.8876 112.046
104.174 55.3181 137.632
90.9502 225.691 10.9351
40.8592 11.0321 105.896
25.8693 131.565 191.661
103.933 109.949 51.1063
22.5136 230.468 42.3362
90.3773 131.161 24.9144
42.3712 80.0885 274.137
61.6393 145.633 71.0843
99.5258 164.593 124.991
44.09 40.6349 249.21
13.0507 195.178 97.8883
25.5913 124.431 218.204
33.7344 126.239 109.225
106.219 82.8466 62.9778
33.6083 173.393 135.529
56.1648 147.425 101.786
94.7466 75.3864 61.1578
51.2966 120.41 155.392
51.7205 95.6197 138.792
62.9477 151.802 86.1921
46.3478 31.8172 258.817
39.4387 92.5061 119.847
82.7119 59.6637 131.337
93.1304 74.4674 171.807
42.0045 145.728 107.536
115.194 159.4 34.393
41.5749 4.92549 178.673
93.6334 153.234 180.469
101.947 135.98 21.7037
54.1065 176.178 24.1105
33.2283 6.65516 235.757
56.3152 220.335 12.0357
78.1471 74.9408 169.569
84.4582 171.338 65.6091
39.7213 103.631 139.978
63.5987 147.08 16.1063
46.5946 10.8442 101.126
42.134 64.1313 250.942
14.3096 226.876 65.9212
23.2367 209.43 71.5257
92.8574 151.957 63.8043
60.7933 199.045 6.39018
51.0506 192.034 31.9383
71.5333 175.629 64.4761
63.7224 69.7177 153.05
105.341 161.774 34.2572
112.939 111.921 56.3647
18.3245 226.778 186.721
55.4402 80.3162 131.841
48.9539 130.885 241.545
49.4724 75.7685 108.173
24.4796 3.8404 61.0581
59.6407 172.673 17.4459
49.2495 6.23948 58.3774
110.411 129.382 61.776
57.1914 79.7546 168.931
42.4035 121.108 216.125
20.6079 176.553 143.35
56.4246 2.2786 43.1152
24.088 26.7011 159.07
48.8325 213.225 70.0904
110.218 155.069 38.4981
58.8922 143.042 134.766
79.914 99.1643 50.7177
53.5607 223.37 34.0003
36.6783 130.79 110.568
52.0775 16.1956 13.3884
94.3622 156.126 168.866
39.4944 119.18 112.236
41.7409 11.8564 18.4433
54.7239 182.002 45.6633
49.6593 218.773 35.5586
51.3757 176.164 40.6747
66.3341 178.634 3.97166
70.8876 153.527 73.4445
51.9666 211.784 13.6066
94.4688 189.016 85.7999
65.1493 4.06654 74.7555
99.0287 158.261 42.1911
65.1254 171.425 58.3182
81.6371 141.28 44.5616
65.4986 229.508 42.3935
56.8945 198.74 49.2163
41.4445 90.3757 108.877
94.8272 168.031 55.4835
94.5819 157.997 24.8769
46.208 119.246 77.3246
81.6642 154.091 64.8797
104.338 62.6715 79.1996
82.2787 55.9273 90.4248
104.473 182.486 79.602
36.9993 115.926 95.6186
66.3273 228.713 15.0838
55.1384 155.892 121.423
40.1801 21.5257 230.576
46.3019 75.7983 271.714
116.34 192.82 93.3621
70.4438 136.335 143.446
43.3164 105.051 129.3
142.551 95.966 108.755
45.3132 147.281 99.975
41.4237 121.554 84.5712
26.2255 5.82961 255.748
20.63 84.2489 2.33224
55.7565 208.782 20.2448
100.72 153.329 31.7842
48.0901 212.206 201.811
84.8113 145.509 42.2527
71.6653 169.149 2.43244
69.984 185.703 68.3285
57.3616 78.9965 250.286
115.299 85.8544 65.2513
48.8558 116.701 142.72
24.6648 124.938 198.757
119.25 84.4866 82.0141
60.5488 76.4942 151.786
102.903 168.381 119.119
91.3921 69.7989 166.998
54.7547 113.23 165.144
56.7375 229.56 52.1504
20.6005 130.446 222.732
60.1011 157.347 118.462
30.0676 129.44 198.841
100.748 65.582 155.436
89.9589 196.86 68.2716
75.7401 145.213 47.5377
58.3561 219.406 22.2105
66.6096 144.037 161.301
48.8089 208.939 32.6257
66.8522 202.773 4.8428
12.1116 22.0281 56.1719
101.373 55.4252 90.9283
21.4959 223.053 47.543
52.3307 201.417 39.5454
101.986 58.7414 129.331
30.9482 82.591 274.038
39.8145 134.882 90.6084
26.6788 129.537 186.214
73.4355 163.882 85.4472
45.2354 126.205 144.07
89.0453 163.345 54.2499
37.1733 120.918 118.539
97.7442 171.058 114.221
39.8109 103.371 93.9523
85.0329 201.869 67.6118
92.7136 173.698 93.7634
106.429 179.312 99.0123
71.4711 145.211 164.883
56.0779 216.069 5.85638
110.808 190.071 101.059
50.9 20.3598 260.571
104.609 69.015 70.8951
62.6653 216.498 29.7623
89.6519 53.1041 132.372
130.163 91.9424 92.5694
54.3723 162.732 45.0785
64.4136 159.585 4.9068
21.0694 75.1582 240.587
71.968 157.232 50.4935
42.2501 139.831 112.715
108.6 172.021 105.733
44.7448 25.9421 87.6412
25.8565 28.7664 100.923
77.9601 153.112 71.0437
96.3637 83.5328 57.1662
22.3626 123.788 166.261
15.5701 4.80148 57.2173
51.475 1.46027 184.236
100.198 99.5078 51.4158
71.1311 173.933 11.6407
95.1962 142.706 26.438
40.2165 95.2984 125.467
57.7588 71.8057 260.117
105.016 85.8167 55.2035
95.7806 131.194 56.4956
42.9968 182.664 176.811
98.5397 160.383 130.488
27.4879 170.197 140.901
36.7976 16.1278 12.2658
21.3825 211.791 59.7953
51.5477 213.06 192.182
29.2453 126.104 262.81
84.8651 154.851 52.4232
51.0855 55.8278 273.874
93.1409 138.96 60.3977
27.7765 34.4194 38.1029
59.5861 157.81 47.8301
45.1827 24.8835 269.449
16.6814 25.8929 127.118
79.4345 159.973 80.5382
92.8258 202.926 71.0145
106.504 53.2026 103.909
44.7421 18.8917 236.019
82.2844 168.229 91.4951
63.992 161.898 121.568
108.89 202.491 83.8798
87.1253 132.31 13.8738
39.0165 103.689 120.525
45.459 68.2894 251.032
46.9824 187.057 169.998
47.8784 109.376 150.519
59.526 87.6376 146.014
15.1 231.163 165.565
74.1456 138.423 57.8585
54.1458 83.2966 163.887
45.9679 70.8096 257.41
50.0714 122.628 261.243
105.46 74.2973 63.6936
47.1544 8.47634 183.879
13.9676 229.382 59.6018
87.0837 166.491 113.195
73.9138 158.623 124.346
60.6493 157.558 32.2963
43.3799 116.032 139.909
51.5462 159.763 254.445
130.623 103.772 76.7782
48.6754 90.5772 179.599
64.8277 133.676 62.9753
112.034 182.377 45.9254
41.762 186.837 142.002
57.2234 90.2269 151.127
77.6085 4.6542 2.38855
92.2028 164.099 121.884
62.462 79.0618 163.758
49.0456 75.7753 97.4884
61.5082 79.4126 172.498
65.5987 139.67 155.284
71.0008 160.859 11.6199
109.816 164.055 30.5393
56.1976 120.187 162.035
30.384 73.294 7.82483
60.9032 175.479 7.74167
71.8614 92.5201 240.261
28.0737 224.233 42.3322
62.1442 152.835 41.6531
60.3961 88.844 202.525
135.592 94.1149 83.5448
86.5926 162.233 126.038
35.389 197.086 188.071
37.0485 136.838 109.313
44.9295 110.785 135.978
63.1532 168.325 13.8968
49.1578 199.006 33.4261
76.9323 143.772 152.391
104.136 76.0686 161.474
59.2384 77.7122 239.48
102.837 183.638 65.9841
94.9214 71.0337 161.518
95.1711 51.679 111.686
20.3223 16.453 62.2355
78.9473 105.961 55.9273
64.6995 117.758 54.6541
45.6378 94.1401 118.823
57.4224 94.6081 268.82
58.1855 91.8493 163.195
67.6831 197.466 61.2266
91.05 134.385 19.9866
84.0854 140.082 139.094
86.7149 58.1476 87.0836
17.8863 102.38 122.726
41.8763 132.62 230.041
36.9954 27.3531 273.681
25.5292 193.152 145.095
54.9315 128.011 67.2991
25.1022 45.3853 272.11
30.9003 25.2077 273.302
98.6002 138.019 26.9341
69.7045 81.79 179.6
32.6379 109.078 1.73695
65.7853 150.582 123.726
89.5824 153.785 137.373
14.9378 121.609 230.648
85.4993 184.864 70.7272
90.6273 86.3588 53.0998
115.448 56.5417 129.497
28.6183 66.1012 253.747
14.6324 117.659 225.473
32.8831 132.26 253.494
69.2351 148.107 13.8709
84.6505 160.685 55.1331
51.1663 81.6811 140.054
75.2354 166.289 108.65
62.4195 162.187 23.6941
34.9549 227.95 40.3576
27.1936 188.893 178.789
136.433 78.2803 115.296
108.107 150.402 33.8968
111.031 123.052 60.7007
18.481 176.657 161.434
39.0789 166.647 18.6298
12.1978 110.779 118.729
37.5948 121.299 105.011
104.254 96.6167 58.4616
68.8855 140.937 75.6278
82.6129 159.762 4.5299
25.0292 19.4059 69.3861
42.781 98.5384 194.812
41.6401 150.196 257.645
40.9797 134.004 115.161
35.7921 66.7268 253.906
53.4753 130.679 140.829
82.0308 135.124 26.066
45.3363 14.6012 194.796
117.061 195.518 85.75
82.1081 224.687 12.0651
41.4981 132.875 246.182
99.8004 160.064 29.3407
127.153 186.566 26.032
92.4729 160.412 126.067
49.1976 32.3005 267.378
109.943 90.0805 59.7094
52.6082 122.091 237.071
39.4723 120.045 134.801
113.305 119.665 53.3526
74.1854 190.23 69.9824
61.244 82.6208 252.462
88.5389 153.162 156.908
78.4899 63.5036 135.417
57.4782 125.044 72.5839
78.2421 59.3248 127.413
41.2242 196.949 149.76
88.4912 138.2 54.2358
95.7012 148.261 164.164
52.3549 195.414 43.7944
12.2068 30.6582 127.891
95.4347 171.186 107.444
52.561 210.615 5.95468
35.9576 79.8245 273.938
29.5146 206.879 197.667
106.258 135.309 59.8097
131.032 78.0948 109.361
102.803 163.719 56.4779
106.93 164.245 121.807
27.8428 229.272 86.4175
54.9661 127.997 151.304
28.8997 82.2077 5.15934
134.588 108.94 86.4203
52.2148 95.9936 151.204
88.6817 151.983 11.1174
58.4192 140.041 88.7092
71.0835 194.32 65.387
99.3098 79.3322 63.5196
115.411 103.351 55.8722
24.2573 1.53784 73.7452
95.1482 60.1824 90.8373
15.501 222.285 196.64
98.3335 107.115 56.1161
12.5161 230.513 53.059
104.196 200.686 80.1084
108.785 157.339 28.5933
48.0286 126.412 80.6277
59.7176 124.806 156.971
54.8032 112.649 270.469
45.0064 7.73793 53.9587
49.8505 144.072 123.45
88.2562 152.51 161.992
28.1874 179.309 178.343
97.1479 60.1022 79.0059
95.8974 89.3246 57.3697
62.2978 99.2318 174.133
11.0919 222.631 73.7563
42.9296 126.061 102.926
55.7184 109.75 142.672
12.5195 2.96042 6.35431
68.469 209.976 3.43297
23.3105 24.5181 63.7369
81.8798 84.9349 180.353
88.2178 191.06 72.6847
43.1527 89.1239 182.691
82.8763 151.668 167.904
114.622 188.18 57.2398
100.805 69.0328 160.919
79.1238 199.924 68.2009
69.9615 213.256 58.7067
69.0075 171.192 63.1807
37.7551 93.4222 114.378
54.5352 140.997 132.726
27.8942 1.63417 162.143
62.2328 128.5 171.052
85.7846 161.905 80.8782
116.701 183.504 37.0669
33.043 95.0152 156.991
101.018 171.807 106.928
61.7603 78.7531 262.09
36.9581 17.3191 272.929
65.1437 92.0749 256.336
94.8937 53.6281 121.573
110.629 59.9626 86.1854
71.2636 162.654 112.866
62.0101 152.66 10.4499
16.6817 121.223 126.205
56.7278 119.58 168.644
116.717 65.5349 100.475
45.2075 224.04 84.9493
110.212 79.5938 66.1078
95.6132 161.9 50.8926
118.807 189.437 40.7746
38.4833 6.33057 142.777
78.2292 176.222 68.3681
126.291 201.557 33.1257
53.3031 125.698 245.854
57.9415 208.166 55.7909
108.373 206.705 65.7737
52.2578 144.218 104.519
53.6992 129.729 85.0927
46.8222 145.765 111.166
59.5434 103.336 232.882
62.4962 19.0975 2.38887
50.7308 159.325 240.519
61.8218 86.814 257.399
70.9096 164.439 92.6613
11.013 103.384 129.101
34.4457 108.537 273.293
47.9184 123.017 134.575
119.334 195.809 37.9482
23.7225 110.452 129.665
48.3699 132.912 140.715
125.408 196.529 26.9848
46.8274 129.562 131.189
19.8087 219.654 56.7044
107.929 193.401 66.0348
29.4925 13.6433 181.378
87.2694 165.734 120.191
54.1455 17.1113 52.7871
51.8363 217.334 65.1015
72.37 148.384 2.59516
56.4965 99.2759 175.57
95.2336 164.518 76.6404
97.883 54.73 116.701
41.9162 119.489 123.908
83.5742 150.319 138.861
58.7467 185.203 57.3712
61.7386 189.192 4.413
79.2458 153.844 162.806
61.9824 103.67 240.439
132.818 86.4226 127.853
34.0194 113.569 203.888
42.1828 22.2859 273.614
89.3351 59.5919 123.023
46.4409 206.838 19.005
55.4517 212.949 26.0893
63.215 10.1489 48.9728
42.2144 2.55381 84.4098
61.2374 209.58 5.37343
99.7426 59.9385 150.932
30.5966 49.1269 172.448
123.024 84.8143 91.5803
61.451 223.324 36.5509
24.4499 39.9925 53.6352
49.9552 136.68 122.177
87.4936 148.875 182.223
127.158 91.1283 83.2728
29.1921 127.801 255.905
50.0158 83.1335 113.142
22.5003 229.466 87.0674
28.8696 149.357 246.445
30.7432 31.7664 57.9292
62.0186 87.2616 178.395
110.933 98.4565 62.7169
94.3766 185.548 64.7358
88.3174 153.102 168.061
47.2047 136.711 113.847
48.7426 104.273 90.0023
68.7108 206.71 65.6545
109.029 56.6237 133.374
104.598 146.746 38.8779
92.071 146.032 60.874
60.5845 127.151 163.307
97.4597 179.157 96.0421
67.4976 130.238 157.948
55.2446 105.592 264.659
11.8447 15.8924 161.545
23.1552 176.085 172.451
89.9252 178.237 61.3982
73.4191 3.84227 67.552
48.3755 175.599 29.6578
64.7398 129.833 145.177
40.8127 33.8579 273.599
17.2789 3.51514 9.6273
124.374 84.756 97.4169
111.153 166.633 110.537
41.6394 114.182 78.9282
9.21878 158.833 193.614
85.341 155.938 128.917
16.0913 226.107 76.6352
46.3713 97.7076 144.552
134.476 92.0249 129.992
112.304 67.5227 85.6318
33.6459 211.309 179.717
58.5776 187.68 53.4535
109.893 105.073 51.2178
51.397 149.248 111.088
38.8829 142.903 241.63
99.5702 60.8498 85.9022
82.7687 118.693 51.5169
130.831 86.2391 92.2911
95.7292 82.8932 171.955
135.413 96.7295 127.315
47.7988 133.687 96.7027
87.5323 154.624 73.8602
25.1816 113.98 205.53
24.1941 93.0536 153.344
43.1755 126.092 222.621
44.8476 59.8065 271.613
38.6764 182.965 190.86
109.717 74.9614 70.4356
55.5555 115.071 149.642
18.3773 221.902 274.282
129.782 100.5 95.9907
140.03 85.3806 111.467
69.0885 222.432 31.9609
99.3815 136.458 61.4462
142.037 103.557 95.5759
26.8785 109.769 274.547
87.2975 87.5082 181.972
89.8464 133.118 60.7987
37.1935 117.68 128.866
39.9853 4.5593 98.2046
57.9757 16.2249 61.7292
55.186 94.4723 273.97
21.8871 33.5288 61.3034
63.2254 92.8275 173.148
56.493 76.0094 266.166
101.171 177.158 59.2457
78.9942 226.959 19.7259
10.0356 229.853 177.244
13.5466 119.898 17.9086
85.3033 172.516 119.202
97.5069 180.208 64.9489
46.8133 1.38031 202.019
68.9199 95.3621 202.303
60.2139 135.265 82.9804
49.4027 2.93402 72.7647
45.7905 103.429 137.303
108.303 189.071 10.7531
19.7116 223.677 178.477
140.511 95.7081 119.132
68.0541 114.606 61.109
80.8987 149.007 177.187
49.2967 104.343 273.342
82.3013 160.456 69.2444
75.0097 98.7869 186.769
110.086 173.386 40.8005
22.7911 230.721 192.636
77.0603 134.604 170.657
106.236 143.695 32.2204
49.9089 201.625 20.6537
61.1926 214.392 8.09223
104.544 63.1437 151.158
92.3153 135.471 8.10924
87.1309 171.954 94.2224
44.2157 184.152 37.1055
100.183 92.8872 54.0005
64.9687 229.138 91.2636
123.111 104.308 66.0352
130.335 89.9415 119.395
84.7899 192.861 66.7845
62.899 137.965 137.495
96.021 137.555 15.6969
40.4838 219.808 181.443
39.8813 105.257 100.609
97.1771 167.803 120.264
115.551 170.774 33.2107
96.7863 144.066 180.723
94.5533 140.379 5.1828
77.1892 215.268 2.07488
46.7894 163.452 242.124
79.1374 190.515 61.8363
56.2016 117.394 70.6668
25.5964 96.4559 274.56
98.6646 203.391 68.7338
135.061 101.912 85.0308
30.2753 37.8124 50.5686
44.8172 84.7637 95.6297
22.3195 129.298 229.739
119.506 72.816 89.2309
27.4404 114.427 1.40833
106.586 52.8357 115.854
85.3168 98.3252 54.2725
56.5328 123.211 249.528
99.2437 160.813 81.5427
134.348 89.3469 98.6842
60.7399 11.6628 16.0386
100.054 111.536 96.1988
123.477 207.367 30.0938
52.9412 117.689 76.1681
78.4084 147.234 132.495
109.197 74.0958 77.852
12.9812 97.7525 30.6923
22.9564 34.383 22.3231
35.5247 1.30018 101.576
33.4233 192.286 175.91
103.065 139.024 28.5211
128.344 79.0424 104.135
38.8478 231.39 87.7354
103.099 155.497 129.178
136.185 91.5784 117.705
104.518 107.767 40.3665
82.3248 151.803 131.215
72.3106 139.545 153.644
37.5191 102.505 115.126
89.6953 168.183 78.9108
42.4304 3.87674 21.6795
67.4703 116.907 180.919
79.1415 145.41 173.828
108.91 53.8132 97.8473
98.2649 145.934 64.6959
62.354 185.269 12.1471
105.467 156.929 120.87
107.477 137.661 23.9827
95.1657 149.366 143.566
82.9876 210.472 2.24634
71.3727 4.51895 11.867
53.001 209.482 47.4243
12.2669 69.4759 272.478
116.219 178.243 35.9014
99.5333 76.3107 169.912
55.0383 170.828 12.3588
108.436 140.188 16.7725
44.7005 105.061 119.982
75.6636 221.811 60.3737
71.1089 220.434 57.1011
23.9069 138.363 192.717
77.2339 132.251 145.366
47.7468 4.6332 63.7049
14.1505 70.2204 1.49413
22.4343 103.788 146.106
75.6714 141.088 137.85
55.9124 8.96578 46.7166
133.622 90.2323 110.204
64.5575 216.448 57.2296
29.5648 90.0994 274.632
77.6943 142.834 63.4993
31.4502 69.3206 250.976
123.048 188.867 31.8575
126.818 78.0421 131.841
75.3207 210.207 66.3533
125.305 92.991 77.8258
111.878 79.717 170.547
40.2287 100.161 274.064
96.2247 152.833 68.7839
79.3901 67.4564 76.0002
51.052 14.874 61.7993
127.548 95.0648 69.0648
67.1018 16.2349 54.2878
69.0019 159.564 105.409
104.281 60.9959 91.5118
48.9295 114.082 156.536
91.3604 143.608 141.336
115.172 146.193 19.7446
98.8593 151.691 130.023
107.652 67.1086 154.91
61.4006 208.934 62.7966
71.3528 106.911 179.241
122.391 198.255 19.0253
54.3724 197.189 36.1255
30.8237 1.85894 23.133
10.571 66.5627 218.773
116.277 76.8347 68.4642
42.5519 51.4271 269.431
115.793 154.724 29.2668
107.013 166.201 45.1954
44.4386 117.296 128.398
115.138 151.87 36.5394
61.1573 75.5029 253.877
45.1113 129.819 252.085
48.828 201.15 196.938
74.5274 201.921 61.95
61.6324 121.822 146.378
76.2679 216.408 64.3134
135.518 95.7785 102.331
123.06 77.9302 95.8194
115.423 74.0275 74.7388
111.187 162.357 118.287
70.7988 93.3601 184.332
68.6483 55.3569 161.387
40.2463 45.4847 274.109
121.564 188.271 23.7959
120.522 205.605 17.4406
102.371 85.5875 178.323
68.5268 157.148 122.081
118.457 60.329 122.354
37.7912 141.537 246.194
82.7143 153.958 12.3213
65.8894 82.6836 176.509
9.79298 180.135 224.038
102.222 55.1169 122.852
122.029 178.597 15.8073
16.818 1.5442 4.64742
133.63 84.1573 133.312
150.263 120.348 86.5114
57.0047 231.469 64.3949
55.6757 92.4768 158.001
71.1645 86.0302 183.483
103.918 57.8481 108.833
66.39 229.275 23.2269
52.7752 10.4443 70.4824
83.4126 139.484 181.318
121.169 162.585 39.9393
54.5 157.124 33.2569
100.468 51.4124 129.682
104.612 160.338 49.9057
106.833 150.769 124.575
109.132 169.019 53.8073
73.2358 229.471 18.3615
119.767 56.5007 101.663
70.2153 177.492 10.0956
38.5529 6.51373 209.957
67.936 227.412 49.404
135.387 107.027 92.633
52.4463 83.4298 144.526
97.4179 176.405 88.8236
109.133 199.855 63.4452
17.9907 109.12 133.28
71.3032 154.955 103.703
37.0001 5.41445 21.9535
56.2997 87.2644 266.55
94.6483 191.265 68.8901
63.1823 116.892 171.862
100.664 154.124 172.274
82.6853 214.885 65.199
106.81 70.1352 160.23
66.6006 88.9459 180.166
66.071 3.20372 44.4272
104.341 142.436 59.9512
65.7269 11.6189 69.1499
66.347 220.587 47.8254
54.1051 72.4051 133.834
27.9206 86.1939 1.06859
10.5968 231.01 107.716
9.19182 125.191 24.8383
85.4477 144.257 2.7913
114.963 169.001 48.6499
110.191 62.3194 94.7312
13.0313 128.588 202.868
29.7385 5.7888 19.529
109.102 169.637 116.559
121.517 174.471 9.87736
16.6475 230.446 75.5302
37.6015 112.799 272.712
26.2051 69.9811 8.01278
8.71635 225.164 195.395
85.8786 81.1887 169.432
74.5734 87.2018 173.21
95.4223 86.7263 180.604
23.1403 28.4014 178.411
90.1983 115.187 105.457
90.518 190.061 64.0891
119.86 204.289 25.1381
136.342 86.6961 104.877
128.817 94.7638 99.3867
120.545 197.293 26.646
31.043 206.479 182.223
140.488 99.8022 99.9209
118.455 164.544 28.8319
74.4832 198.706 68.0672
79.0578 148.174 1.4273
116.151 188.665 49.3068
94.8541 139.746 32.1598
9.26188 229.728 70.5833
27.5934 223.917 274.803
74.5241 115.269 183.801
128.319 176.689 5.8952
85.6826 223.705 6.54038
73.2045 190.387 1.16763
122.179 64.561 89.8969
67.4423 8.88102 14.3036
24.6713 36.6595 230.564
41.7527 133.354 106.342
91.3151 161.745 91.3112
124.687 144.736 29.924
109.94 140.371 28.4311
85.774 42.9521 122.796
42.6192 95.4135 273.514
117.339 162.621 112.589
79.7385 92.9472 179.142
45.112 16.6667 232.652
110.904 56.1348 109.695
74.4736 85.549 180.61
64.2581 222.976 55.5068
48.1273 139 95.9096
33.7746 146.469 246.857
123.1 112.89 61.75
118.453 201.227 46.7254
47.8763 215.83 40.3777
48.7184 215.593 182.297
139.066 104.306 78.1083
