ply
format ascii 1.0
comment Created by Open3D
element vertex 1176
property double x
property double y
property double z
end_header
24.3862 55.5636 90.5263
61.0783 133.646 186.383
96.5065 93.9504 196.772
32.051 104.743 173.054
19.599 69.6873 70.08
5.87776 79.7429 94.4278
30.1567 140.149 137.63
27.3047 154.87 137.917
46.3651 151.724 117.373
50.0524 156.659 127.956
33.6847 76.234 17.8283
23.4517 61.9362 144.593
13.0534 108.968 163.244
46.369 119.363 122.754
45.001 101.062 150.114
36.0584 118.839 53.4294
15.6786 117.295 163.135
22.0061 153.142 145.955
11.0582 64.2441 63.7734
41.1906 104.062 133.279
67.4528 112.065 115.198
18.153 61.4769 33.1687
16.5349 66.9024 42.3629
16.2607 76.1068 152.342
30.366 61.7425 34.7893
19.519 45.4149 123.161
18.9489 39.2473 105.165
31.7487 92.5357 133.32
6.98719 115.443 82.8109
78.0246 11.3868 104.181
25.7163 139.785 150.612
34.4818 95.0939 41.9066
52.2213 152.072 137.252
36.8702 48.1393 137.677
66.777 100.371 196.381
57.4405 152.599 173.507
8.86501 76.4416 150.082
47.6708 66.2275 106.585
42.3728 72.2855 67.519
64.6145 47.4692 121.57
8.76558 119.29 143.579
68.2367 167.142 151.978
21.071 143.441 142.627
35.292 146.477 119.837
115.842 102.683 194.341
47.5122 54.3806 44.9155
37.5073 115.983 171.512
35.2979 91.5871 116.986
23.0119 111.134 42.6855
13.5726 64.1531 144.103
8.36999 53.3825 64.5125
6.73204 149.082 73.0664
15.9744 63.5894 51.8166
25.5626 65.2307 37.7049
14.1779 125.987 161.893
22.5731 90.7771 34.7215
20.6674 71.9365 48.8693
24.325 45.3624 90.5615
73.318 138.959 190.163
6.73623 137.789 42.1102
107.654 98.1726 195.434
64.2064 111.43 198.699
77.2975 167.171 156.15
38.1533 90.7458 148.779
19.5394 106.561 121.986
115.714 73.357 173.541
68.3555 3.95596 104.148
7.19063 49.7871 88.7469
59.604 155.739 150.084
85.7788 89.8089 194.967
43.9473 110.677 27.4843
14.7351 38.1543 90.4366
49.3449 51.1815 146.954
38.9168 50.6303 37.5233
66.8988 110.825 171.714
27.4884 51.7127 138.576
57.8247 54.0832 152.919
5.83926 142.038 57.1954
73.2337 123.495 199.791
34.5842 132.329 169.214
33.1637 141.194 166.361
33.862 77.2754 164.304
21.7789 77.422 31.3601
57.1955 80.3159 27.6439
39.8878 36.6906 63.3519
24.9546 92.7356 157.289
24.8557 147.372 63.58
6.82725 96.0187 96.1226
76.3448 79.0588 179.051
51.6801 128.289 66.9456
89.2168 59.9149 163.789
22.5569 134.488 44.6158
57.1141 16.7749 108.979
52.5459 47.4331 135.974
54.5611 136.692 104.158
86.6146 130.885 198.328
58.1881 144.945 181.231
22.8855 47.4212 18.7944
14.0931 156.531 135.292
58.4357 143.903 136.94
16.2624 53.6089 33.8087
19.3674 139.535 134.807
63.5245 147.01 175.96
58.4034 79.019 37.9658
33.4841 46.2537 130.483
28.3279 91.9186 172.124
69.5631 138.279 128.111
48.1268 41.3975 111.131
92.2949 139.129 189.442
14.5549 77.0326 45.8526
39.8931 116.808 113.122
38.1669 107.842 165.454
49.6276 113.195 167.546
38.3623 66.7715 26.6799
15.7054 58.4138 84.7868
36.2484 72.369 26.9461
51.7823 144.768 102.366
37.3624 34.6494 74.278
29.2394 165.894 52.2378
65.7165 167.916 136.811
33.7193 41.4519 123.566
22.7131 36.9867 49.9716
72.2977 7.49959 91.4294
6.77391 97.246 119.256
28.723 70.8223 66.125
57.6832 95.7787 174.958
122.326 98.9282 188.453
63.7856 85.9778 177.026
7.10594 97.3611 26.8171
7.62761 143.881 77.7215
68.6879 72.2063 177.165
41.5208 97.5084 16.115
12.2522 114.938 132.71
58.9621 73.2361 177.202
25.0716 100.716 128.46
26.7154 60.477 130.563
33.86 166.635 107.437
57.1348 117.816 191.733
48.5863 142.385 132.327
16.3511 165.096 32.8717
65.2437 133.215 71.2763
81.2627 138.634 76.2296
56.7869 68.8373 150.584
22.9669 74.8466 39.4259
36.4854 129.632 177.02
53.7576 145.159 169.384
11.7616 109.207 93.406
16.1777 59.6245 42.2798
6.4931 134.39 20.2852
18.7711 136.997 159.587
79.9344 132.217 83.0502
16.2727 55.2402 24.9776
38.9255 77.6964 53.3444
45.5555 159.716 153.028
54.6932 151.743 70.1391
10.1802 41.1292 20.1117
49.1208 113.693 184.767
32.1943 35.1351 56.2022
19.0729 145.582 87.7583
9.21159 20.7989 36.4569
55.9854 164.323 93.5302
58.1466 79.6424 165.63
38.4928 72.9585 59.7026
44.4714 145.183 84.0276
31.4077 75.529 42.5919
8.08038 15.2071 50.6381
7.69988 45.1277 11.0692
15.2374 125.178 133.847
16.4974 140.657 79.8334
43.9547 112.535 109.291
29.7448 114.581 176.295
8.6489 143.289 118.617
7.58643 51.0212 117.481
85.8034 143.523 187.812
119.833 95.9635 179.551
27.0551 159.372 66.9992
7.66238 67.948 77.8634
51.9871 144.812 64.7654
37.9508 73.1623 96.0497
8.75349 134.892 78.943
83.4063 9.01978 97.3222
65.8685 149.309 184.011
57.3725 82.5576 94.1241
45.8243 91.4381 96.5387
71.7263 122.738 175.282
33.6017 96.3554 159.954
53.3188 52.8249 111.093
52.6929 160.111 159.258
32.4854 137.563 62.2101
55.0993 110.189 190.336
49.2963 165.692 102.653
46.4 41.8109 68.8088
45.3203 136.316 112.915
99.3755 114.225 200.057
16.399 134.301 55.1392
34.184 72.8245 49.5266
15.7733 107.889 43.897
28.4787 156.917 125.778
26.3015 78.5797 130.139
61.5649 60.4851 158.669
60.0711 102.043 193.139
53.2424 137.153 47.2564
29.6664 144.286 52.5959
51.8843 147.513 147.547
45.9165 125.927 45.8498
10.4925 131.666 93.5503
38.3903 123.76 23.2806
50.7949 161.474 136.029
36.4455 40.7909 89.8172
16.9027 126.271 39.2832
34.1864 134.234 25.5262
56.1717 161.712 147.705
44.7355 107.392 20.1047
5.80557 131.994 110.101
40.4094 146.476 146.387
44.4369 99.4039 142.098
46.1425 62.4322 71.2259
10.4168 47.6384 22.8093
13.122 73.6552 140.021
46.3102 121.001 112.276
42.6157 51.5773 126.59
72.5009 101.39 98.3777
47.3721 116.532 35.5577
90.8776 83.292 188.512
34.6794 102.034 180.243
51.7199 59.5177 114.232
57.9084 155.749 80.1925
12.7672 136.578 70.353
25.1526 162.261 102.525
44.1577 160.14 75.0989
62.488 133.758 51.6681
80.8223 99.3985 97.1477
77.5687 156.648 178.655
45.6496 144.564 167.291
56.3446 107.106 125.587
48.6836 133.013 165.766
48.0649 135.913 178.047
32.4183 147.739 134.571
76.0662 97.5255 183.936
69.5494 57.4026 160.925
33.5989 59.7048 117.402
70.1354 49.2722 145.432
43.6861 128.614 131.469
53.4179 56.0363 95.4753
8.90451 58.5481 122.002
30.839 47.2256 41.509
37.835 51.4953 21.8221
10.2145 98.9322 155.682
48.0869 94.4667 116.3
25.641 71.1896 79.8165
6.84568 102.256 10.5698
83.3429 94.3968 182.598
29.6677 90.5632 76.4849
15.6654 179.237 75.8373
9.22235 83.1166 27.8163
85.8921 149.48 179.466
29.2383 157.797 30.9042
38.8303 131.882 67.5358
99.7214 84.6673 189.672
50.4971 132.314 55.0244
19.7101 89.4405 160.063
35.8271 166.064 69.6632
44.2496 100.62 113.122
51.7904 119.493 107.648
49.6708 43.013 96.3549
57.2453 67.7227 88.2874
84.6997 150.107 95.1706
63.7445 160.742 110.736
77.6739 71.403 179.964
40.3471 137.636 73.803
23.8502 57.3374 2.25106
39.4256 86.3586 49.5531
75.095 77.4012 186.357
23.6082 72.3631 144.071
22.7356 153.931 70.1842
40.7184 59.5744 119.069
20.9431 161.118 127.878
31.7401 146.78 150.882
14.0364 68.1421 26.121
59.7722 89.9771 79.0662
37.4933 159.704 79.7072
114.279 88.9364 187.368
23.5395 46.9834 41.3704
9.08026 126.229 37.3228
15.2074 79.0884 38.104
6.13559 101.665 83.994
29.0318 143.259 42.4951
47.5422 91.4259 145.329
59.8842 103.295 119.108
65.665 157.466 88.2397
42.2012 165.839 96.0814
8.51196 82.8281 35.9707
25.0452 136.299 165.377
39.8322 168.257 88.6789
60.6447 29.5003 94.3066
16.4313 39.3505 47.5274
68.0946 164.642 161.053
51.736 63.719 123.968
27.9713 39.8753 111.264
31.8278 82.8943 154.218
47.162 94.8781 184.721
28.437 154.073 107.29
45.884 69.3223 116.827
42.7221 57.0391 154.386
50.5978 115.301 128.7
90.2036 100.74 199.565
105.893 153.8 166.653
44.2277 42.5995 120.085
51.3962 106.645 182.045
7.6113 80.6266 113.708
25.7615 55.1074 12.9009
33.7523 94.0207 8.36171
44.4509 80.1376 122.133
99.1163 75.9968 186.83
65.7277 127.919 56.7577
5.64597 142.459 105.28
86.9625 169.032 139.192
38.6566 90.6905 247.233
23.1518 71.0647 152.867
70.9191 98.0062 172.71
61.6814 86.1034 88.5893
55.5749 139.371 71.1006
15.1294 104.448 152.388
78.0486 143.454 81.1822
11.9014 62.0214 74.8216
37.2513 80.5315 4.2952
71.3067 151.006 84.6378
89.5211 120.635 78.5645
81.9156 87.7489 184.714
49.728 44.4223 124.396
24.4672 119.171 66.5006
65.9681 30.701 107.783
58.46 46.0672 128.349
54.4177 157.669 120.454
8.29822 176.224 84.4888
18.6087 58.0013 15.0883
15.4985 116.045 73.1139
62.5177 97.4855 113.31
51.1413 72.4866 168.117
24.3481 120.107 36.6374
20.3349 65.6741 17.7519
73.7331 92.4642 178.231
8.78398 100.477 126.44
68.5749 103.835 165.55
15.513 35.7805 58.9833
23.5081 78.5866 154.59
43.2415 136.989 125.904
75.4205 109.964 201.166
38.5809 99.372 103.102
65.4959 46.9919 129.887
83.9608 116.569 200.567
82.9507 169.446 149.852
23.3029 163.014 90.3145
22.3641 76.3969 88.6155
33.7106 44.1057 48.7362
19.1866 122.44 91.5585
63.0697 79.8711 182.251
8.77034 112.733 144.073
71.1002 95.1897 165.731
27.0558 101.713 120.478
78.0795 65.8343 175.741
15.0863 139.02 64.3141
15.7225 51.7929 116.657
36.9788 136.085 131.032
31.6136 91.2978 142.244
42.5754 60.5688 34.4544
41.0492 86.9312 124.429
45.7398 57.5161 103.804
46.5736 145.878 126.385
37.9047 65.7999 159.993
8.31137 94.501 40.806
10.4371 130.714 127.957
21.3141 52.2532 29.4439
43.1581 98.6318 98.3001
54.4464 129.863 41.4446
18.6338 44.7913 95.7533
7.85639 100.983 35.8465
59.0315 74.9109 157.774
38.2436 106.809 113.745
25.7263 158.154 114.214
114.048 96.4547 186.822
47.1 108.481 176.917
26.5745 146.332 155.334
81.9667 51.6675 111.35
34.0057 67.8965 73.5808
33.1725 172.255 89.0296
70.8118 163.513 117.103
33.4157 79.2209 75.2312
4.85921 157.447 114.176
50.5698 70.203 49.9843
18.1577 99.8641 29.4738
77.7666 159.158 114.089
39.664 155.41 120.525
39.6266 147.88 65.7716
98.0703 63.649 168.002
50.4041 89.0182 137.434
11.3202 84.0517 155.445
53.3442 65.0867 161.035
15.9849 64.0193 117.161
71.1046 99.9111 115.407
47.5143 144.538 140.64
50.1692 70.9618 61.1366
23.8163 85.3572 45.3712
46.7043 104.438 103.712
62.1299 91.6255 178.611
5.4041 84.4142 149.52
30.287 37.1157 96.926
47.6218 151.642 164.209
45.183 138.86 172.148
32.3854 164.211 40.535
118.29 85.8115 181.198
28.2245 70.4176 97.637
14.1384 68.8905 124.139
27.5117 85.8486 108.559
121.526 71.6925 163.321
53.4968 125.831 159.907
83.0371 81.9719 189.919
81.3666 52.1362 141.645
103.443 106.088 198.731
94.2747 68.8719 174.972
19.9894 139.333 70.8214
23.7075 153.604 51.7255
85.3436 98.7637 106.668
44.2429 125.014 29.8832
71.8561 154.659 94.2998
72.3855 150.539 180.475
87.1938 50.3823 106.719
77.3288 84.5123 89.155
55.3594 122.814 126.215
107.157 89.649 194.758
29.2452 140.382 35.0207
45.384 118.551 170.487
57.0218 53.7776 119.735
14.5335 45.4042 43.0209
6.01236 143.007 134.526
29.4891 71.3723 154.44
46.5168 136.613 225.834
68.0363 141.806 73.2352
77.7486 84.7489 81.051
47.8158 82.511 99.5652
70.4613 65.019 163.911
74.835 76.0766 91.9284
47.2607 125.36 167.848
94.3122 167.946 142.871
10.7305 94.2035 13.6326
52.5997 164.65 117.537
63.8393 108.528 129.819
29.8373 145.717 71.4832
47.5807 61.9765 57.2079
39.3616 150.606 56.7422
76.2661 116.35 164.923
68.7256 83.6956 80.0529
79.017 90.2016 98.6526
57.0645 123.289 44.67
71.4616 85.2317 51.0916
54.4042 97.3763 22.3583
49.7711 120.229 161.546
57.6741 126.077 107.893
6.90606 119.839 106.594
87.9778 158.357 114.573
81.385 152.436 120.093
7.41123 61.8587 56.6185
97.0002 61.3636 147.272
79.2921 128.78 74.1742
77.0054 8.89811 86.3077
42.5651 146.037 156.629
49.3907 83.8436 179.932
70.6576 164.155 139.575
51.57 112.442 43.5604
29.314 150.156 98.9337
62.2027 163.761 102.953
69.7978 87.8733 87.3812
24.3198 97.4545 147.883
7.79583 93.378 18.5081
54.4073 147.341 76.735
10.5887 57.7819 25.0161
72.1451 121.405 133.015
64.3108 124.31 196.371
103.598 68.4549 157.278
75.7808 102.617 200.016
41.0087 156.103 66.7639
57.9088 124.951 188.197
8.71444 169.884 45.0732
6.52797 154.775 137.717
14.5733 129.287 46.9467
90.4581 164.343 132.05
55.4343 116.47 111.386
56.9282 131.625 145.308
69.3521 89.28 97.8441
14.1188 82.5688 102.421
30.5772 161.196 133.212
72.3744 18.3013 81.104
14.0959 123.389 114.819
78.282 145.265 133.795
106.602 85.2181 184.195
64.5583 123.506 179.298
88.0251 140.007 131.161
15.4926 137.356 96.3552
14.3564 34.7375 69.2366
68.5383 100.213 45.7308
82.7137 89.8827 176.03
87.9249 54.3448 135.405
25.7545 179.739 58.2153
10.504 89.3927 30.6015
31.0358 92.0472 148.443
29.7921 63.0417 103.1
93.0529 99.4928 114.416
44.2227 61.7665 25.9689
123.398 118.585 189.489
38.7933 59.7869 21.6538
85.9208 57.0388 148.136
46.6669 85.7426 81.9039
40.1735 36.117 83.5326
18.7692 180.097 66.057
8.13493 133.296 3.22814
69.1516 143.859 81.4076
7.78314 116.369 35.5891
59.1193 87.2346 171.465
57.5956 98.9254 72.7742
11.7804 62.8626 5.33322
39.0646 153.802 133.272
63.8275 106.725 123.543
19.748 158.864 25.6485
16.3176 54.2216 6.57011
35.383 83.5619 98.8593
23.3492 83.2105 95.8911
20.7493 102.165 156.989
7.97653 149.881 7.03322
112.234 66.7236 161.016
72.5256 137.496 76.5041
11.1611 66.2123 16.2122
5.87604 66.8059 114.185
54.4567 127.586 169.102
27.6316 179.436 73.9259
31.5416 129.624 12.5642
66.5416 135.006 63.0762
40.1673 95.5993 181.569
45.7359 50.6365 92.8375
76.8275 126.673 156.62
55.83 61.4368 54.2566
9.31695 139.686 142.518
8.78753 73.6446 83.297
11.8039 112.127 66.2881
83.5691 104.054 199.979
55.9085 101.506 183.82
44.0783 128.977 177.143
7.75365 181.034 66.0077
77.5637 61.4575 165.516
48.1992 129.227 40.909
8.14166 56.6007 2.76684
47.679 113.825 155.804
47.6033 109.188 113.122
57.5257 114.785 175.58
95.2432 125.317 198.951
83.6833 156.662 101.498
8.02235 63.8408 126.997
37.8955 125.472 62.0584
19.0437 67.5883 77.531
92.8487 67.0438 161.748
45.3676 163.381 119.32
110.33 78.6675 185.894
36.4444 155.84 149.844
16.9432 145.923 101.721
64.9086 55.4519 150.031
53.5621 78.9301 49.9579
88.2849 57.0565 155.454
72.9118 108.341 128.703
78.1897 130.777 199.202
96.6635 161.054 127.403
76.2004 2.77543 98.6343
64.2022 62.8984 143.729
18.7699 58.1269 131.717
33.3233 115.283 111.259
5.63697 87.3827 106.668
30.7995 156.066 42.4568
92.4306 151.779 177.292
44.5199 47.0995 54.9884
61.9324 129.634 141.168
72.577 2.64646 42.3977
75.1746 56.2107 97.3178
108.842 145.346 175.178
15.1373 98.189 118.614
42.2008 103.465 31.3685
83.7134 48.1607 117.541
70.2216 158.716 102.309
72.8745 133.262 195.337
74.4218 162.592 171.138
28.6079 54.5566 24.6082
68.3512 109.587 47.3538
66.1871 77.6957 71.552
60.0927 76.7389 171.52
61.5236 127.044 169.287
91.8986 110.24 166.383
84.1416 22.5736 103.535
48.9057 80.2412 93.9692
60.3916 162.371 153.941
15.4857 49.0937 25.6847
26.6818 87.7911 116.934
58.8223 162.86 126.001
38.8804 140.894 33.4827
90.6757 50.925 140.914
74.6324 74.6885 169.966
86.5879 117.96 173.907
77.438 45.9436 125.02
14.3142 12.3695 40.8242
6.85972 71.1078 21.668
53.2361 82.4775 142.98
39.7746 57.5006 113.089
11.7456 177.076 91.1508
97.9689 125.774 165.161
8.37334 122.475 150.95
127.111 83.7114 173.401
87.7201 154.282 132.379
46.8511 161.819 92.7714
9.97687 40.8184 63.5455
99.4905 143.743 178.753
18.1015 137.321 108.946
59.242 105.77 176.354
58.9553 60.5718 133.998
19.8864 141.132 153.164
31.795 124.431 16.4478
105.776 124.023 195.656
104.918 66.3987 166.658
12.5986 119.936 125.479
47.5005 140.529 151.576
70.6727 83.4029 190.118
16.0893 95.4332 48.358
51.4346 76.4571 130.306
26.3603 98.4887 109.302
91.1362 165.306 159.845
49.0639 97.3521 40.5342
23.3028 167.014 111.555
23.8064 44.6994 103.894
22.3857 60.9581 110.078
52.9307 93.3734 101.398
34.7717 66.9896 13.7464
63.4607 124.553 70.7312
7.33137 154.554 20.5681
78.0803 158.663 105.04
10.653 115.444 152.523
65.6598 78.0708 86.4709
35.9894 141.394 157.816
100.98 161.942 148.645
19.9942 166.417 118.953
58.9127 48.6981 144.004
82.1606 129.408 146.406
60.46 140.104 61.4777
47.1538 138.819 49.8796
53.4799 109.945 157.458
25.1232 3.73664 268.423
71.3961 103.235 123.08
36.9454 146.794 44.2461
31.5455 141.02 17.4593
43.9322 113.61 177.503
58.0418 101.012 132.531
48.7433 104.293 138.952
60.3915 4.45321 103.729
18.6314 45.3841 112.178
5.17879 114.215 64.0053
82.8154 109.799 181.027
52.6994 139.674 129.224
61.0709 158.409 165.279
40.7211 102.283 5.95683
41.828 162.73 109.281
45.6219 107.395 158.313
50.8674 51.1688 55.1699
12.5614 74.6605 112.546
40.0198 92.6727 138.673
9.12417 73.9025 124.23
99.9342 59.8081 154.819
41.6314 123.511 176.363
6.74736 67.544 30.6554
68.57 9.26206 110.749
35.2806 93.4716 124.293
87.8674 63.4055 172.548
64.5374 101.662 98.1567
91.4989 56.1737 123.376
67.3941 1.9462 95.4314
10.0407 136.791 110.954
19.0542 131.171 2.38658
80.7941 110.953 128.321
66.6847 149.257 90.6943
22.1079 69.2375 129.043
64.5519 43.6858 109.943
10.2147 123.199 8.0488
36.9932 150.334 85.6203
54.5419 116.179 138.494
31.739 42.9729 32.1981
51.1076 135.361 143.163
67.0302 56.7218 135.195
21.7614 67.486 85.4058
84.6345 100.709 169.413
39.7576 94.2528 129.568
11.1088 89.3242 115.366
82.1685 101.824 184.276
105.827 81.1233 176.544
109.51 155.854 157.196
51.3177 130.023 110.668
116.376 126.351 185.639
20.1058 86.2583 112.13
57.6418 45.1882 114.589
66.3139 100.775 66.7773
59.3529 107.451 148.661
38.6918 152.171 38.9214
75.6288 107.48 179.156
94.6969 129.261 157.93
105.419 79.8131 154.511
14.1414 73.7176 20.8006
12.8683 20.721 30.2352
69.0952 81.7884 176.458
42.7719 101.931 123.148
31.5021 148.183 92.1409
57.2377 127.353 177.86
67.0179 91.3521 190.591
32.8151 162.621 116.665
63.0532 16.8205 80.2401
35.2084 172.74 56.6773
5.60341 110.42 132.606
55.4032 104.006 30.1805
103.761 161.979 156.511
77.487 105.08 160.757
67.6205 132.457 151.42
94.6811 153.759 135.92
82.9326 91.7384 108.732
8.10744 48.8725 107.319
6.9322 134.743 10.7058
62.0088 140.692 72.5312
78.6701 100.508 103.884
101.523 67.76 174.256
41.8489 66.5188 10.3425
74.9388 51.6559 130.291
39.8698 117.968 30.0597
73.8808 147.692 186.627
105.595 75.8899 170.02
61.375 135.36 134.079
25.4696 175.051 85.7782
49.0282 99.6266 131.27
104.496 63.3239 133.206
52.1113 58.9619 75.8187
22.9154 140.346 22.8944
38.107 84.8234 85.5559
28.7654 110.545 51.821
54.3628 82.5865 79.4368
87.8016 108.611 175.109
20.3172 114.988 202.968
22.9047 35.0377 84.4587
21.748 81.1891 161.295
7.6775 120.61 98.6558
55.8664 54.0872 69.7814
33.2605 156.753 119.231
55.8135 120.934 52.0963
63.6941 60.3642 84.1279
58.9565 106.034 141.285
78.1787 59.0472 137.656
40.8924 47.3417 46.3484
55.0404 127.097 132.552
85.7375 103.254 162.449
5.14857 144.524 125.384
13.6783 91.2022 100.315
81.6601 49.4445 130.88
72.4101 50.213 137.624
8.0803 97.7615 52.5508
23.784 53.8497 105.464
93.5535 51.9937 117.586
79.4046 46.1335 101.323
7.25101 87.6095 10.5769
66.2989 117.143 54.739
43.451 161.555 131.779
80.2916 97.7612 114.431
39.9401 77.7672 87.3657
14.4861 6.10725 51.9426
27.041 81.4486 80.9971
61.5661 45.7034 98.173
29.7183 36.3152 69.0123
39.6996 137.419 167.677
75.9527 166.121 124.169
90.163 157.716 123.929
33.9994 164.414 88.4568
51.7438 98.0902 110.27
59.9926 88.7778 43.8637
15.0163 147.331 129.529
50.7975 84.6413 3.57774
42.5923 148.532 73.9471
41.0903 65.9543 106.167
61.9794 96.9389 102.222
5.5227 129.617 48.7751
9.18328 134.502 88.4321
64.9262 66.904 64.9723
75.7723 131.568 148.488
21.1557 83.4726 121.794
33.4941 86.3511 172.922
95.0152 53.0197 130.105
30.0542 94.1356 248.56
9.21143 60.1004 12.8703
110.633 110.64 195.41
72.3941 163.274 110
21.4477 36.5693 67.7162
22.0375 152.204 127.856
51.7032 163.055 84.7327
22.3559 162.915 45.8872
12.3063 130.431 141.441
17.8401 37.9403 37.8339
25.3263 164.871 36.4209
36.5592 161.297 101.644
63.9874 66.9102 172.701
85.4802 127.797 158.724
66.5233 124.108 64.811
53.5884 54.1741 133.369
107.148 72.5172 177.206
40.896 80.0405 111.979
74.0899 110.22 137.129
61.9904 104.948 105.338
78.5234 88.5097 169.361
7.43246 66.2643 138.074
79.8651 107.042 153.707
52.4891 128.014 151.411
14.3749 83.7738 119.831
34.473 70.8197 2.05698
50.1549 140.183 109.709
51.8277 108.518 151.116
96.1211 153.216 171.004
4.62252 143.453 145.306
66.9448 106.539 136.791
105.806 62.9568 147.9
91.756 78.604 178.763
38.4394 47.6993 99.0983
58.2572 70.7495 57.0231
7.97656 55.5254 45.4659
81.9076 166.236 130.323
47.5174 149.456 77.7051
40.2648 154.582 97.9208
54.097 98.7015 189.269
66.3661 157.287 170.691
45.3642 71.9371 76.0408
39.3435 69.2509 37.788
53.0977 44.7862 101.912
92.4881 110.069 200.722
55.39 154.579 159.842
45.8435 67.277 162.134
94.3867 76.1118 127.89
51.4908 73.861 40.9601
53.677 79.0927 155.58
70.0254 129.381 139.72
58.941 51.824 102.721
50.0666 103.936 123.595
15.2483 171.05 101.359
77.4377 113.414 60.0976
32.3625 146.72 26.5841
31.9775 83.593 85.1423
6.41926 111.849 8.76284
18.0264 150.953 138.091
48.0287 48.3317 63.5202
62.8507 64.289 166.806
10.8262 108.477 151.501
92.896 70.0922 92.6337
106.533 156.098 143.515
77.954 20.7527 110.831
15.2799 168.939 3.21407
31.377 77.966 103.602
31.6386 75.1804 90.0048
28.5513 128.78 55.9483
75.8767 125.558 139.384
74.0417 48.833 116.807
26.3257 98.1896 173.823
35.4717 147.715 159.195
76.8603 72.9252 72.6942
82.2514 57.2449 159.139
52.8016 72.2414 154.656
21.837 44.1471 49.2105
92.4616 118.675 163.977
73.2039 53.1277 89.2072
86.0079 52.6291 123.007
17.038 109.064 141.38
73.6561 118.688 159.005
42.1419 90.3225 40.7734
56.9664 127.422 59.6237
77.106 53.5257 103.934
79.6259 144.477 88.944
57.489 69.0337 167.527
47.4973 127.122 117.181
73.0128 116.438 55.9413
76.7889 168.199 142.501
32.5181 106.207 109.849
24.8156 19.4418 45.5912
11.0006 10.4918 56.8868
47.7319 109.54 142.752
57.5511 57.3417 88.4457
35.5698 115.886 23.2027
36.5945 157.218 128.288
108.267 129.021 164.895
7.4725 55.6597 94.0826
44.9519 83.5468 44.7777
15.2258 104.275 24.2085
101.559 160.566 138.97
46.4008 68.0276 38.4632
69.8227 44.8746 99.9661
7.95595 67.9825 2.5341
120.376 142.557 165.279
48.0103 154.178 72.0697
80.4003 118.655 173.671
45.6075 96.7437 126.578
17.3357 149.602 36.9369
113.761 150.825 160.362
64.9581 167.324 126.464
62.2497 149.6 76.5041
49.7727 137.215 134.343
57.6079 112.951 165.604
96.6215 160.374 165.534
73.0134 115.918 124.484
14.1813 55.2388 127.891
75.5089 51.7857 152.598
7.69304 145.754 12.4737
55.7787 160.715 106.448
33.1021 143.781 97.0791
45.0797 157.638 98.6819
65.3934 117.605 166.833
84.134 73.2554 179.569
64.2248 21.3437 112.85
11.9506 100.658 44.8694
52.6977 164.063 142.659
71.2834 142.271 89.6981
35.429 71.8012 106.434
101.763 58.3012 141.672
25.1383 108.668 110.603
55.67 106.165 107.95
7.45567 115.245 120.604
51.2658 64.4673 89.6939
5.31052 135.458 126.8
71.4565 27.8613 85.3883
52.7748 73.453 93.5183
97.6288 157.41 156.448
52.6498 110.974 116.508
9.41102 177.653 45.4962
12.9063 120.612 92.9119
113.021 113.401 188.401
17.0786 107.49 113.71
49.4345 125.753 184.578
95.5788 87.7926 79.896
74.387 95.7682 194.455
66.5765 51.2255 93.6259
21.6211 95.9357 84.8782
23.6092 146.473 34.8362
42.3994 104.428 46.4715
30.4324 35.8828 84.4791
24.4757 56.0595 21.3775
24.0312 132.956 58.4638
31.8093 54.6189 105.137
52.3686 50.2853 122.249
53.8672 102.847 145.569
123.782 88.9232 174.894
44.7164 144.013 33.9792
39.2461 111.062 181.662
80.4268 144.645 124.316
80.4536 94.6901 195.22
16.4443 4.62768 45.6637
119.939 147.239 155.535
81.8961 122.071 72.1084
52.0049 107.091 104.576
91.3446 154.823 100.142
80.0061 56.9325 152.209
30.0115 174.133 68.5982
67.8086 112.426 143.088
60.3503 128.136 156.938
70.6696 71.5864 81.3079
30.1386 96.8596 256.065
34.0126 107.785 49.163
65.7832 56.2752 127.42
31.5345 99.3432 112.129
60.2054 56.8854 142.844
59.8357 79.9034 46.1167
84.3188 58.9366 108.582
39.9854 156.679 91.0462
39.0087 157.59 52.1528
50.5549 130.72 129.065
9.67237 161.341 28.0479
15.0462 116.625 102.978
8.58107 105.466 60.8717
53.1101 140.22 178.383
86.8044 93.3091 91.7182
8.01189 143.401 2.30907
74.4933 58.3147 79.725
46.9522 76.4174 88.4462
80.6503 96.1874 172.559
14.327 71.4376 37.3928
6.29422 115.318 25.3285
35.4856 107.936 41.9411
72.2538 42.9165 111.803
114.11 139.911 176.307
46.5577 43.906 86.4821
41.4744 91.7487 260.913
56.5493 77.1901 65.0362
54.9688 104.542 115.891
11.8064 55.8262 107.913
12.1519 150.905 141.557
79.5507 58.7944 86.5319
64.0687 86.793 51.8383
34.4245 157.879 92.669
120.004 69.7819 148.722
18.1926 68.3925 148.952
110.471 74.5248 162.558
71.2515 73.7498 129.805
97.3124 54.7287 139.559
18.2656 20.1452 49.3656
30.462 58.8537 21.5495
29.4871 154.475 78.3486
49.9674 49.2818 79.0774
58.222 115.298 66.6351
48.2106 51.688 71.575
12.5778 139.882 125.87
115.329 132.2 179.288
87.7954 151.991 110.748
102.032 138.733 167.026
91.3465 61.1569 117.001
23.5057 48.4759 132.16
123.715 76.7237 155.224
72.5795 112.488 154.32
49.754 96.3951 14.2487
60.0726 91.881 64.4606
19.1007 119.861 47.009
87.8914 87.9482 99.0905
35.8519 23.0313 55.3956
94.7353 134.68 169.479
79.4258 67.9184 89.525
82.9767 122.464 78.9649
32.0925 40.6143 104.15
108.612 132.026 183.674
5.54542 111.63 150.043
20.6058 160.757 111.91
96.9654 116.946 158.755
52.1125 82.7878 86.3842
46.3081 150.07 107.411
75.8752 53.4537 144.977
116.624 75.0122 156.774
91.5879 62.0581 108.079
50.3046 97.6143 83.6908
21.3449 120.83 54.4028
53.2631 75.288 72.3449
86.8617 122.652 89.07
73.0955 74.1179 64.0717
62.8068 145.248 67.4334
59.3541 102.882 41.4277
73.4018 113.925 172.378
29.3554 46.7098 114.811
30.7036 60.2776 27.3975
14.5543 119.723 85.4871
32.2326 160.007 48.8264
35.6817 151.556 70.8421
13.0585 34.8635 81.3712
44.4262 83.9155 29.8835
8.78359 125.057 116.1
84.6532 83.4158 67.7447
73.5143 93.6372 47.8855
57.6688 22.1167 86.4309
19.2038 61.7714 1.53109
9.37837 143.239 125.785
78.7129 79.0966 68.6293
66.2268 113.653 148.777
30.4978 58.0809 163.816
127.83 95.59 175.314
60.415 111.012 157.035
13.3278 93.7542 25.8616
91.696 162.564 148.635
20.6248 124.954 1.98032
106.135 129.064 188.549
93.8063 62.2659 129.239
63.6236 149.79 81.1353
84.9966 103.759 115.858
27.5029 135.939 24.1399
108.869 81.6919 92.2328
83.7054 106.586 88.01
108.032 126.325 175.289
46.0035 118.596 46.3518
89.6143 87.0086 71.6863
6.37968 61.702 79.8245
77.3708 125.101 64.1993
35.0891 60.4977 106.98
103.993 81.178 164.046
87.4258 91.4395 81.078
35.1542 87.7424 57.6814
13.7703 108.343 118.119
78.2954 156.14 168.636
64.5272 92.7191 44.451
64.9045 125.998 134.51
36.4223 81.4961 104.954
88.9119 102.886 93.132
27.093 61.7379 161.504
79.0849 65.3913 77.7446
60.1566 99.3001 107.689
58.525 120.372 132.305
18.6182 46.1717 35.7069
71.3952 72.7058 108.698
78.4874 110.553 147.991
82.8746 121.386 63.6117
49.2802 156.891 106.233
114.964 144.486 170.799
107.554 71.6649 143.215
92.4699 105.772 129.82
69.6274 89.8669 182.97
82.7202 108.652 60.1554
128.217 122.469 171.974
72.1646 81.6358 59.2484
88.8616 97.2082 67.4721
22.0819 181.419 71.5658
85.6061 75.6997 69.632
68.3871 105.1 56.9047
88.6503 65.2987 97.5242
46.3189 74.768 1.43123
101.929 96.6555 173.337
37.2389 159.186 70.607
94.0685 93.9366 100.319
72.7916 127.384 61.2655
85.9666 126.17 68.3764
33.0512 84.0342 1.24504
119.384 135.609 170.795
79.1789 98.7218 56.8138
83.1672 89.0493 61.5234
75.5576 101.236 50.5804
122.984 133.133 164.086
84.1164 82.5363 105.978
32.7555 122.945 172.593
93.0925 83.001 99.5679
89.6798 125.617 162.52
128.905 114.203 176.8
103.362 130.093 171.234
78.3475 122.613 128.494
82.2698 160.253 164.08
32.8695 157.23 72.6766
115.679 72.3648 143.246
82.8296 89.0189 88.121
65.0674 133.186 146.196
89.5646 98.1147 101.436
66.4174 111.523 155.943
89.7597 127.541 148.288
91.4392 75.0192 76.7685
125.448 122.865 155.502
45.7686 81.4426 152.247
122.291 118.041 182.244
105.765 138.805 180.569
119.64 126.738 177.179
23.0311 53.8757 113.74
67.3268 90.7994 56.3853
89.9056 62.9572 87.3402
90.0755 109.643 155.192
93.326 57.7522 101.976
7.32915 139.638 78.9978
95.3507 65.3059 98.3434
35.6454 122.409 176.216
33.8488 99.1124 249.862
83.9582 58.8528 97.405
102.322 97.0691 80.3573
29.5088 123.513 150.446
21.9105 152.005 34.2684
92.5633 76.7713 118.455
116.023 124.092 160.028
91.2804 145.261 123.431
67.3884 125.827 164.527
25.3308 34.7303 274.839
78.3505 105.36 130.716
94.2621 106.189 94.42
94.7107 98.2868 125.55
92.5442 92.7082 115.882
93.0424 90.37 127.374
86.8847 77.1913 184.131
88.4692 82.67 137.505
100.858 56.2061 116.157
6.54041 115.662 92.4033
126.318 75.9985 147.47
104.416 75.9692 149.491
87.538 67.869 109.679
76.1923 92.785 189.289
71.4567 123.255 165.601
86.7399 139.348 95.6944
40.7238 79.3315 154.94
20.5684 168.488 97.3711
94.0537 151.253 104.245
90.5674 88.5358 152.55
