ply
format ascii 1.0
comment Created by Open3D
element vertex 890
property double x
property double y
property double z
end_header
28.9933 184.771 25.5859
43.5611 131.482 89.7297
35.2354 202.102 16.0096
40.1376 204.796 24.0334
42.8808 207.197 12.4939
44.7211 97.5029 101.459
34.1673 181.566 34.7988
75.2574 143.547 88.5119
41.5163 109.079 78.3532
22.3036 107.967 93.1913
63.9351 128.878 22.598
59.1101 210.354 12.2137
83.9194 75.5169 91.52
66.5462 61.9937 66.6838
74.2974 118.067 48.2063
71.5289 102.303 58.2343
52.9466 66.7345 69.1759
71.8551 92.547 56.0937
56.0273 67.4702 78.4361
52.3767 83.422 79.6115
58.3646 148.007 82.3882
14.2729 106.233 95.9499
39.0193 175.284 38.008
65.8575 50.8926 99.465
25.1845 179.664 18.0318
54.1567 102.719 108.752
39.1586 163.982 35.3494
44.3626 70.0782 107.74
23.5714 101.483 72.7708
81.4677 132.992 14.4888
27.1117 190.454 14.3653
72.4892 97.7792 51.4897
39.2075 109.108 56.8457
61.6184 125.855 77.7957
55.0449 206.98 21.2891
64.7384 171.401 108.806
32.6913 166.045 28.793
25.9424 174.102 10.0726
58.1107 98.8916 83.4272
80.8161 125.95 3.80111
69.9834 56.5947 90.4973
70.8314 168.605 118.138
26.2505 184.838 5.06566
21.9276 111.055 85.8402
54.0384 73.4817 75.3221
81.818 153.407 83.0718
53.387 151.092 109.825
36.6419 64.6537 95.7781
78.4287 57.6084 79.204
47.9119 148.87 77.5759
24.4464 77.3535 93.4823
69.3006 122.521 3.26468
52.8678 211.152 4.68803
34.2204 54.7417 97.3211
29.0283 192.873 3.51711
40.411 70.9436 65.9878
71.1782 57.3019 74.9483
47.969 198.378 34.5594
70.1435 100.982 119.727
40.536 94.9075 90.1865
32.1436 146.096 92.3285
55.4415 102.394 65.1715
61.2141 106.955 45.0606
73.3557 160.676 98.832
28.0932 171.814 24.0206
77.1733 72.3235 82.9664
21.1891 110.023 100.621
82.8213 160.75 104.03
35.5204 102.985 64.8928
56.3458 123.765 4.06837
58.9237 141.905 79.4219
39.2218 189.532 36.1067
78.9988 163.021 115.155
57.512 125.798 53.7427
16.9323 96.3542 100.174
22.3709 118.621 78.7937
59.0549 48.7691 98.832
30.1774 195.146 21.9954
65.9127 120.999 64.24
25.618 77.6042 86.5545
33.9718 201.212 9.03957
63.8862 139.508 52.0844
32.5278 105.248 90.2591
53.5946 121.972 50.4292
71.3681 170.104 101.858
39.1494 72.8627 73.6018
60.5451 119.361 98.7556
32.998 148.162 73.0803
49.619 72.677 78.3425
45.9374 208.132 6.63835
68.7138 106.306 48.2448
132.62 190.44 170.717
46.6816 85.1065 102.906
76.1587 138.391 25.2255
78.0678 112.605 124.84
37.4834 61.7525 75.3383
30.7815 124.959 82.6579
26.098 70.2821 95.3132
34.8499 121.329 65.6254
31.8868 60.9677 90.1708
47.8393 79.3343 60.8828
72.3704 139.08 104.672
76.6807 51.29 105.179
77.3201 54.5675 96.3703
82.0332 159.681 94.842
39.7496 69.4824 78.4622
38.5008 113.847 92.2502
73.5086 47.2854 94.4932
20.3409 89.3428 117.316
44.7866 150.43 69.4832
41.4567 90.6452 70.9336
70.0277 128.734 49.4186
20.0892 125.587 96.5137
46.6562 128.706 111.069
66.7825 82.7619 67.2962
40.1462 82.4068 67.3908
82.4325 74.6528 98.8914
86.3111 131.493 2.42072
31.2355 76.8204 85.4448
85.6903 69.3747 96.8543
48.0308 98.2592 82.6268
26.4127 140.354 110.175
79.2341 63.6997 69.4571
67.2084 206.878 9.64922
59.4331 137.165 76.4198
40.4998 113.357 67.9937
36.7999 54.6055 88.7072
56.6787 133.539 59.8355
44.2438 162.383 83.0467
20.7344 57.6144 136.547
76.4065 149.827 70.1504
44.5571 52.9936 99.4225
48.0904 76.9956 101.638
54.5753 60.4563 70.7441
70.5859 69.6858 63.9689
32.769 155.801 106.851
49.1816 125.598 86.3179
28.0304 132.401 73.3814
63.9955 136.551 29.3474
65.0433 47.782 107.343
20.1481 124.493 114.724
89.0136 158.08 111.317
47.1 90.6709 124.745
56.4044 63.4704 63.525
40.3865 96.4847 110.169
57.9704 77.6613 60.7148
48.1194 114.743 66.9568
48.0216 64.5384 79.1165
51.498 154.898 68.9257
19.6566 79.1018 96.092
59.7116 193.923 33.8742
79.921 171.813 96.7461
47.3527 206.675 25.1391
80.5386 160.013 88.2227
55.8908 124.092 95.5554
29.2597 159.114 16.5739
42.8071 105.473 125.029
49.0037 78.8867 70.825
56.3382 82.385 54.9658
20.4832 115.948 105.257
62.9095 189.624 59.1783
67.245 119.029 48.3019
23.0006 137.353 105.977
74.3273 160.007 78.314
40.308 159.5 88.2148
80.4857 140.03 80.1956
44.6425 158.135 36.7731
33.0492 115.48 66.4816
46.9187 96.7289 64.4816
41.3642 64.4578 113.61
34.045 86.9921 86.7683
78.3862 148.356 64.066
31.4691 67.5646 85.1394
33.6794 69.4112 78.9816
48.5368 139.483 26.7522
39.6416 196.377 33.6246
54.0699 88.3647 112.099
51.3176 56.4543 84.4236
20.3212 132.142 87.2777
74.3177 62.6727 71.7483
23.0344 118.801 85.444
22.7931 97.4233 84.156
48.0729 106.407 84.62
68.6087 75.3075 75.4678
61.6934 60.5576 87.0682
39.8936 168.374 105.178
77.7832 89.296 98.874
84.832 127.399 109.349
70.7262 202.225 19.003
77.7377 199.776 12.9253
24.9284 99.8166 121.669
91.9367 111.827 105.895
37.7877 164.698 99.4368
28.5449 142.41 75.8454
28.3741 135.415 79.365
25.7235 100.674 91.4392
65.244 120.96 91.2868
54.7159 126.236 15.3942
24.807 138.814 96.8927
51.6909 169.838 86.0972
59.012 105.608 61.3538
53.1666 143.095 77.9031
60.0719 114.189 70.4531
66.3086 144.668 85.9572
62.2213 103.364 89.3404
59.433 110.713 114.795
34.7291 156.051 112.742
41.7291 123.469 57.3532
42.171 135.675 64.7197
93.4774 150.646 5.65848
68.2024 70.634 99.1162
46.5659 109.03 108.949
50.0031 138.947 117.597
64.6185 143.16 79.9161
72.9975 68.5105 77.1221
31.8378 108.635 113.403
56.9994 97.1476 62.2802
35.5567 119.647 74.6374
57.8171 74.4392 65.315
75.8614 169.169 106.055
39.9282 129.153 60.5184
49.3723 56.7678 78.7663
87.5005 156.742 99.9195
68.0484 121.35 56.1682
61.0774 60.1974 104.382
42.8372 113.529 104.783
37.9524 125.991 64.257
24.3056 110.785 67.7278
48.5691 76.1615 109.088
68.4107 124.816 12.4865
67.0463 145.78 66.7233
45.7614 102.564 80.6919
38.3902 162.37 108.217
52.5699 108.834 52.4413
29.8763 156.215 94.6915
67.295 136.351 79.7651
75.0984 80.4001 110.841
27.7086 112.941 85.769
66.7511 60.9244 76.2454
29.1976 129.829 91.7295
59.217 72.6408 99.2968
41.2614 78.5202 71.139
61.12 117.56 52.0366
59.5064 66.2943 101.981
35.5075 91.4118 60.263
75.1891 122.982 51.6518
34.7085 198.55 26.01
95.4285 162.621 4.05701
90.7273 140.115 4.41682
47.4955 92.1327 81.9923
41.3105 78.9735 82.6017
64.9765 57.55 82.2639
54.3752 112.973 46.8354
41.8029 57.7287 83.6668
25.6643 132.266 85.5798
31.0295 133.942 69.4947
38.592 147.622 70.5547
67.8896 157.808 130.685
24.2765 146.853 92.6657
83.2169 152.393 107.933
34.5897 123.584 79.3586
21.8395 117.685 99.054
76.7809 163.536 93.8839
60.0373 87.7166 59.693
54.4691 123.268 59.7008
47.2783 78.635 80.642
82.3565 121.889 107.997
47.1144 132.207 19.0553
31.27 92.788 89.3453
78.9128 136.284 57.6096
82.6594 58.6437 112.426
43.606 94.3268 120.915
35.7574 150.935 83.2183
32.3273 113.991 106.737
65.5004 109.174 68.6868
53.1045 101.719 51.1925
17.806 90.3236 107.529
18.3358 119.899 91.4019
87.1075 46.5676 20.5312
78.719 141.593 63.3554
49.8308 47.593 96.7377
58.2729 123.882 85.3584
16.6261 101.209 104.237
25.1489 86.2569 105.882
72.2052 154.53 76.1792
22.788 132.896 94.1752
60.9661 69.1516 65.2573
77.9859 193.13 22.4746
63.4324 84.9289 101.496
33.3178 126.828 66.0383
53.8186 182.364 56.6003
76.8078 160.3 84.392
34.5683 114.513 83.4046
80.3713 169.326 112.221
72.6394 126.759 100.27
60.4075 168.048 96.3933
72.7379 164.517 89.9693
19.3948 79.1704 100.921
52.3124 102.45 119.049
64.8844 154.145 67.9997
21.5713 101.222 113.855
53.6648 132.39 73.8134
58.9133 61.8651 79.5904
54.1025 170.951 105.843
66.4992 132.135 70.4501
65.7671 108.241 119.946
74.9305 151.112 101.187
76.5418 136.397 51.0778
68.8988 164.576 80.0477
71.1111 169.353 110.766
48.2938 181.656 40.8888
45.0064 137.555 74.8647
90.1684 161.002 18.3281
30.7382 106.236 83.5395
54.7877 164.57 75.2889
30.2948 109.58 62.1152
24.2096 80.2682 110.425
36.9463 82.2374 90.4509
67.4786 176.559 98.3972
62.4204 103.65 128.334
41.5373 79.6872 115.583
56.9151 76.9808 102.966
57.8394 156.835 71.6285
38.0101 137.54 111.35
30.8801 125.7 71.873
42.4619 98.7752 74.4583
72.6309 160.14 116.215
41.0576 110.967 98.6612
17.682 89.9495 98.1768
31.8386 111.108 100.011
23.5486 139.338 87.737
76.955 112.715 51.1818
41.0491 118.608 68.1564
43.5333 99.9272 130.524
8.49281 133.221 149.232
40.2458 54.1907 94.0986
47.8879 86.5522 81.2608
58.1518 105.648 120.038
27.8123 106.67 69.5685
51.3798 69.6207 102.037
71.8 152.492 65.3248
63.4093 115.921 83.3708
23.5823 145.274 97.7044
26.323 151.337 105.726
83.9176 147.724 75.5765
65.1153 104.154 52.5704
62.8392 139.271 119.013
45.5446 85.7203 62.8939
38.0915 125.489 109.175
47.7911 144.627 123.614
27.3787 100.576 68.5325
39.8467 85.6456 83.5357
37.1085 139.394 73.1905
76.6523 118.433 103.338
56.5959 98.5271 123.814
77.3276 62.4111 77.3281
26.6459 144.244 82.8007
65.9753 111.433 79.9043
45.7863 170.018 95.2592
27.3084 137.784 83.8002
36.8176 69.8579 105.019
65.6309 166.324 115.314
60.1769 60.4747 70.5165
62.2959 166.773 87.8735
66.4231 132.444 110.559
54.8791 111.348 106.364
86.7311 116.365 115.086
45.7069 46.5758 235.781
49.7911 209.822 16.3102
46.3821 57.5163 86.0737
22.7744 102.809 84.8804
20.6873 85.2335 89.6114
27.7559 153.242 89.382
64.9186 172.52 90.0541
39.5139 152.576 123.696
46.1097 63.7975 103.247
68.5422 171.023 94.9649
24.6354 108.624 77.7048
49.2283 78.4603 116.913
60.9726 210.807 2.09709
51.8764 159.781 115.174
48.0982 71.6547 68.3201
8.39604 141.847 160.561
30.5136 107.416 124.696
32.2062 134.262 100.304
47.26 171.813 101.353
35.7695 64.8986 83.6805
36.9125 100.074 130.295
63.0444 166.577 76.5876
51.2045 137.97 77.6423
40.784 132.833 70.4109
20.0798 95.5535 115.799
72.0078 111.816 53.6077
22.207 87.1893 95.2666
65.5537 132.697 52.485
44.0408 231.191 137.44
51.1628 172.331 94.5936
39.9498 157.817 115.875
72.2184 154.65 120.46
52.8715 162.552 109.594
55.1628 127.066 80.0894
17.4419 112.405 90.3897
33.4561 141.739 75.4209
28.4749 65.7956 98.611
22.8603 112.816 77.8609
31.3903 68.8833 91.8158
48.4083 121.875 58.5875
60.7156 115.469 104.611
67.7409 142.961 57.8499
62.8686 127.997 64.9133
62.8003 158.304 116.62
62.4913 32.9194 263.641
48.89 108.154 129.866
56.737 166.088 92.0574
32.9931 144.424 83.2089
25.9622 85.7655 89.7397
64.7978 110.218 103.457
39.9045 64.2995 83.5655
18.8179 109.668 110.455
78.0162 150.361 77.3955
52.837 166.897 80.5253
34.8012 140.327 122.13
68.7768 87.8144 64.0506
47.5266 165.985 87.3097
51.2225 193.492 38.4679
47.4883 61.8216 110.955
62.6162 129.24 56.982
78.5003 107.229 118.969
44.9461 165.091 105.825
38.7021 147.889 125.656
64.0115 130.804 99.8362
30.5662 95.537 113.898
34.4603 140.15 101.44
59.8556 153.663 62.0748
65.8958 79.4385 103.019
86.3736 141.957 15.8455
61.6681 54.4918 75.3079
50.5447 130.299 61.1158
62.4773 74.1332 58.4786
29.2241 115.813 74.5032
55.0644 84.9578 61.4317
52.4208 151.736 125.218
77.3038 104.327 101.687
27.0506 104.369 120.292
71.9593 111.879 107.861
84.7072 175.248 24.4646
49.7404 167.518 106.737
41.6768 58.6437 89.8226
35.6562 131.536 76.6846
62.7982 137.069 111.174
38.9003 105.509 81.6742
20.9748 100.388 91.2124
70.0179 136.443 49.9971
40.5867 122.696 99.968
68.2859 118.736 101.11
88.425 97.9804 121.742
52.2779 162.398 123.503
55.2001 130.5 114.141
24.8899 106.16 146.887
49.3426 127.399 7.12332
31.374 151.27 114.905
45.1426 117.673 55.4442
79.7509 100.648 123.667
26.5118 94.4499 92.2217
23.0885 132.025 99.3413
56.9719 106.801 82.5066
41.4944 157.787 107.828
57.3072 42.8954 249.282
57.5086 94.6459 113.303
39.4344 50.6039 233.187
46.0454 113.513 55.3953
34.7837 85.4629 120.818
37.423 92.9006 124.649
27.3382 121.064 93.9669
67.6389 122.435 97.5666
29.789 167.108 175.802
28.968 86.1724 122.914
61.6846 149.598 35.795
31.5618 101.988 125.854
56.3629 91.8609 60.0926
47.6994 88.2569 75.6887
67.4033 197.901 27.6884
60.5644 160.571 74.883
57.6308 162.851 111.054
80.7617 135.28 111.986
76.3946 32.8104 134.669
32.0056 144.258 115.044
37.73 104.906 96.394
55.6033 51.8798 89.1103
77.6002 97.5028 105.323
59.2037 112.189 62.0159
25.1475 119.48 115.772
88.9102 202.163 17.53
60.3905 161.897 83.1813
42.8402 31.5612 272.995
77.9867 75.6547 60.3119
63.9754 141.352 127.982
42.9733 63.1244 77.1149
65.5314 77.7853 96.6999
61.7376 47.8246 111.172
25.5695 130.035 108.527
30.6546 129.042 79.7708
44.8128 155.335 70.0554
40.7448 74.3715 111.665
34.4799 144.614 5.7585
31.4221 62.5672 103.143
65.8932 88.4916 112.754
58.1659 219.352 133.196
53.5485 171.707 100.116
39.893 75.4433 125.101
81.5897 119.384 64.3028
31.6835 129.9 108.486
47.2281 164.776 112.305
31.6171 71.7803 114.695
35.107 131.931 114.483
56.4128 202.805 28.342
52.2685 117.055 53.1606
69.7356 66.7175 91.7229
66.2229 135.978 61.8972
35.5381 77.5024 83.1782
41.3155 155.289 101.009
39.5412 153.996 81.4473
47.6398 123.016 113.665
66.777 112.334 92.4368
90.0403 103.544 119.917
42.7405 142.772 115.354
51.763 159.66 84.5627
76.4056 169.806 113.793
66.8947 157.596 76.0415
47.6408 133.706 60.2192
90.512 148.918 113.347
71.0073 167.079 85.6617
47.9433 82.3539 67.1522
49.2671 89.1631 69.842
41.2029 125.118 95.0644
68.2213 114.348 103.304
39.6527 62.2894 104.798
27.6235 163.09 6.3944
53.8196 95.989 77.9955
52.1935 96.8371 72.4287
23.683 192.293 119.995
67.3597 87.7609 103.853
71.9463 56.9604 83.9129
28.2427 147.124 109.779
30.7669 101.553 163.597
49.2163 96.9319 115.834
34.1591 203.997 105.317
53.6855 52.5659 93.6937
27.6033 76.0909 120.733
74.1728 117.623 95.0963
36.4445 132.43 68.5677
39.2335 111.671 113.826
37.2416 117.19 59.4738
78.7441 113.276 94.647
42.1051 144.196 126.624
17.6026 61.3387 119.28
61.1244 76.1181 115.638
72.113 85.718 57.2409
73.8311 104.568 113.173
72.5433 154.041 133.91
59.3058 55.5653 154.998
49.7985 108.779 116.032
28.0041 109.964 161.108
32.9421 63.5436 110.462
70.6807 137.925 67.4632
69.7959 138.45 122.001
22.9836 94.8597 120.335
70.6261 114.228 56.1857
40.6727 150.859 29.8132
35.5264 148.926 118.277
34.7302 56.8879 107.537
79.7231 166.989 105.338
69.0363 125.993 56.1115
43.6733 163.821 116.636
22.2688 74.8967 105.286
49.0553 134.864 124.038
57.7934 163.353 86.8746
50.8096 50.3867 107.409
34.4948 152.68 22.4445
62.8349 181.222 54.544
57.6538 62.9931 92.0469
66.8754 81.0678 55.2229
52.0722 122.137 99.8808
58.8729 102.38 102.265
59.671 173.077 113.056
34.2052 78.8151 108.243
43.6643 54.1492 108.075
67.0045 69.9835 109.403
33.8303 148.317 87.9887
54.776 144.366 33.4195
63.7693 169.059 122.045
60.0587 115.109 78.2968
60.4662 87.3994 110.919
64.1723 148.926 73.0607
44.2955 132.187 74.1078
48.3562 51.3329 89.761
67.1409 111.635 86.3198
31.5765 148.009 97.6653
61.4317 131.477 127.455
53.6881 130.58 23.0448
42.3845 90.1699 80.0245
37.9401 105.63 118.419
58.0624 143.554 133.72
75.7148 116.78 111.467
56.3158 84.5632 102.313
69.4877 48.9384 29.8005
51.8692 164.225 93.857
71.6572 65.0891 100.365
51.0588 136.074 69.5282
50.1997 113.21 102.902
60.5669 176.977 105.641
26.43 67.3774 106.113
26.9659 159.19 142.814
32.1086 123.723 109.606
51.2945 76.0217 66.5345
46.2623 159.517 120.491
38.7536 152.58 75.0486
37.2529 87.4489 116.384
60.7619 141.283 111.535
23.1947 201.341 112.43
20.5018 114.146 113.208
35.9282 157.075 91.9746
78.3885 130.202 128.613
41.8103 134.347 3.12703
46.3997 163.363 98.9479
29.917 116.898 118.809
48.4394 148.366 119.298
69.5726 122.455 121.02
80.867 160.207 123.405
35.273 93.3298 117.408
55.4169 128.179 65.3167
20.926 91.9453 95.6576
23.7515 77.7131 99.2244
46.26 154.461 121.121
71.1194 205.476 1.6335
31.7335 133.694 76.7489
31.5411 151.076 100.495
62.5868 136.171 103.337
44.551 121.27 63.4964
41.2492 130.297 113.786
27.6503 72.9423 107.537
80.0312 199.753 2.57922
67.6336 29.6773 152.131
40.7578 80.1378 123.406
36.9167 58.6363 82.9672
61.5502 111.543 55.4068
69.3881 116.637 110.146
60.4012 54.2918 236.127
20.1938 129.587 108.339
26.9701 106.236 113.697
34.0108 97.4382 124.106
27.7172 87.1497 114.974
46.8234 162.395 76.692
65.0042 145.803 121.635
82.8632 142.804 103.851
43.4779 162.662 92.8992
74.2087 139.151 60.4998
58.6615 173.646 101.421
26.7106 75.1249 113.566
75.4521 69.0274 64.2208
82.6827 160.131 27.4785
54.3905 62.2811 85.9884
61.0042 107.767 73.0732
76.9901 153.026 46.2597
60.7118 63.1372 43.8787
18.1383 199.322 146.751
71.6874 133.459 71.2807
32.1111 76.8717 117.328
24.1622 120.626 106.771
30.5876 43.1797 118.102
20.3896 105.429 118.251
36.051 160.349 80.2964
35.0355 132.962 123.684
43.3008 88.8269 117.451
79.3431 53.3418 112.11
56.8357 171.785 109.151
59.7987 66.7587 129.867
38.6217 112.636 108.471
53.7906 48.656 103.487
67.3087 60.5522 47.5076
19.1577 87.4549 103.332
60.3327 71.4106 38.9814
66.469 166.264 86.491
30.8583 133.308 87.6392
27.6441 149.141 152.43
39.2392 153.479 118.262
22.2584 80.9218 156.919
19.5573 106.916 105.238
83.8534 101.344 25.5121
36.8714 127.57 70.8774
52.3076 158.151 38.4133
84.3642 107.302 128.166
81.2484 85.3282 104.235
79.4801 149.807 28.3362
85.586 190.807 9.71639
51.3978 109.567 76.6063
35.7758 56.2325 102.11
29.655 132.711 106.573
48.7659 127.127 66.1468
27.5235 162.891 171.815
28.6224 212.854 200.409
60.1629 99.2057 58.3159
37.7624 144.232 117.486
71.4109 78.5675 58.3728
22.488 126.337 103.002
55.6683 156.724 121.149
65.9585 113.58 52.4743
50.7564 91.3894 62.7128
95.2602 166.645 78.1071
84.9653 112.394 103.071
35.1342 114.998 155.097
67.6174 159.039 120.19
41.9041 107.768 118.117
29.141 208.252 113.846
75.8181 130.413 109.939
93.7755 92.613 111.007
32.7062 158.131 100.099
71.7668 112.679 114.827
71.8116 182.943 41.0561
16.6455 143.019 153.334
36.1734 143.128 111.472
54.9096 160.976 68.6527
67.6274 63.7213 33.6225
58.6759 52.5076 85.3406
13.2182 214.155 147.176
13.2129 117.258 145.47
71.189 73.5586 115.221
41.1535 158.467 74.9405
71.294 127.684 108.469
33.2218 145.481 103.748
71.201 82.9903 102.853
30.6234 81.9351 120.463
84.4156 159.354 115.771
47.1357 114.357 98.278
79.4483 127.631 116.72
36.2948 105.48 126.883
31.4005 142.416 183.678
62.0593 47.3977 117.105
82.8955 106.042 97.4834
38.9969 140.925 15.6637
35.0233 199.43 1.49221
42.9224 139.276 128.227
65.7888 116.889 114.203
79.974 188.978 74.9416
85.9702 88.2171 108.942
76.4413 50.6392 22.4289
82.752 54.9666 34.5541
45.1384 84.7609 119.887
84.1573 146.705 112.021
63.8676 170.961 97.3518
47.5763 159.226 71.1793
61.3801 107.997 85.5275
66.8636 60.8832 40.594
17.005 199.046 153.771
22.398 102.333 108.101
62.1638 134.067 58.5524
88.2074 93.2174 105.933
70.3901 95.293 109.882
71.6968 50.2452 111.393
67.2511 80.5385 111.873
65.4355 122.119 86.508
91.9432 180.864 5.11654
108.672 168.074 24.2312
58.5568 147.102 124.598
76.7556 84.8398 106.496
63.5042 95.4646 54.6381
79.6519 80.7752 123.979
74.9335 101.337 100.56
78.6406 97.4879 115.546
62.7659 151.587 127.176
55.3108 157.985 79.7839
44.703 32.9266 253.395
26.6275 120.007 150.394
27.0839 91.2775 150.411
26.5992 93.5648 114.998
77.2255 56.4736 156.558
46.2704 110.065 120.611
89.2748 131.93 172.429
58.4159 203.647 86.1228
8.39745 157.045 177.627
65.7761 93.8395 59.6181
67.4239 98.6968 55.9734
21.2806 85.1045 163.308
60.5238 129.57 120.689
81.5165 76.4877 118.649
25.3512 105.488 103.769
77.6863 171.935 46.9252
84.3337 87.4312 124.004
90.9232 152.34 104.08
32.0693 139.14 155.614
30.7541 137.961 111.268
42.8344 47.1568 245.582
44.9204 98.3373 87.8115
30.994 90.1736 114.867
32.7598 156.5 80.9671
80.3202 115.977 113.162
79.6814 59.7446 117.764
76.973 82.4178 44.4712
31.9618 138.975 92.4529
65.2328 64.5142 111.411
24.6418 125.616 80.64
54.8785 35.982 139.38
33.7726 48.0872 152.069
52.8639 144.924 131.147
55.9337 165.038 104.425
90.5803 144.558 102.205
86.9032 83.8186 34.1564
30.9313 68.433 103.185
42.5963 133.076 127.825
24.1218 111.368 147.3
40.6298 89.2967 122.304
28.4951 88.6834 160.671
43.1443 173.857 135.308
105.102 63.0189 66.585
67.0721 84.1514 58.373
69.1919 161.207 88.2245
77.9911 70.8688 68.27
82.4228 80.8891 108.597
86.2326 150.303 101.585
48.1649 135.106 112.516
62.6517 32.6227 145.906
39.6736 181.986 120.552
28.6926 134.433 95.7216
84.6519 76.1972 111.633
72.4053 84.391 109.043
52.1872 39.9002 137.169
46.2549 108.819 97.1551
62.7339 159.444 127.889
57.7464 157.26 130.126
25.4219 134.21 168.504
33.888 68.6346 164.573
19.8061 150.495 170.152
69.9586 104.222 128.272
77.0307 167.054 121.421
55.4098 98.0018 55.4742
29.8028 109.432 75.1795
24.3427 77.181 143.496
57.308 169.37 121.906
15.4202 128.564 136.633
99.6656 62.1183 67.4295
35.2958 148.966 111.715
50.074 71.2367 235.89
51.9222 130.559 129.856
21.0344 148.865 178.607
71.1545 91.0367 109.252
64.6652 105.795 57.7276
8.70976 76.3214 112.973
23.0229 93.8441 108.517
73.4118 55.6276 117.363
38.6091 85.671 162.463
56.5747 41.1093 144.428
34.3435 82.1513 115.378
29.6885 80.8389 89.2587
29.9788 111.389 69.413
54.2361 61.2752 100.66
50.3678 60.656 247.382
59.4743 54.5667 91.8852
81.8599 120.545 126.461
66.8625 51.4148 119.886
29.9656 84.4637 107.363
45.0385 40.0686 266.305
5.88978 82.4421 126.555
101.868 166.547 86.1561
36.7365 78.6837 112.036
64.8193 37.5186 156.61
29.9594 167.22 136.023
96.1837 151.223 104.756
26.5778 105.47 86.7684
78.3286 156.708 126.787
81.1859 91.1718 103.943
69.1245 65.7499 129.098
48.672 119.748 82.2909
18.746 205.766 118.99
22.9727 114.671 90.179
43.2865 104.231 95.2167
81.7602 171.438 161.079
90.4888 153.198 125.11
37.5476 71.1694 112.926
28.1199 72.3753 165.172
81.6737 137.111 126.295
60.9964 168.7 103.224
109.908 115.817 170.297
33.6542 115.988 77.1416
51.3562 141.118 127.479
26.4282 142.85 172.197
110.012 101.277 71.7524
80.9511 92.1392 121.894
42.0357 146.565 121.145
75.3284 124.323 133.007
13.3487 148.967 139.173
