ply
format ascii 1.0
comment Created by Open3D
element vertex 1166
property double x
property double y
property double z
end_header
34.3638 116.524 35.8105
11.558 18.9457 96.3943
6.04368 112.025 82.6721
20.3795 88.9805 173.547
29.6176 9.02441 36.4206
16.0947 33.761 87.986
5.63165 91.0677 52.5002
6.3969 179.733 222.519
8.6419 173.971 216.924
6.2012 78.9141 57.5887
8.03846 68.4535 100.297
23.1609 111.696 23.5977
11.5225 54.015 163.522
11.5414 42.8203 146.005
6.83471 198.816 210.222
24.3212 53.986 30.5028
4.08652 156.83 141.521
20.2902 3.39683 146.907
20.8443 116.754 156.907
40.3545 46.5987 91.8029
11.9424 12.2123 77.3815
45.8011 19.5182 146.663
5.32696 135.341 103.201
26.5429 83.2407 53.4003
7.99399 57.3217 74.0025
7.0989 84.9904 144.445
33.0904 73.1763 54.8585
8.52661 66.8955 84.6192
33.4796 16.1035 47.6458
8.15718 146.516 26.6995
61.9541 125.589 110.662
38.4684 73.1069 85.7035
11.791 28.7529 72.923
11.2033 37.3366 137.073
5.26327 136.521 94.9754
23.1656 99.1525 42.3985
16.6399 115.651 172.443
5.96302 133.759 73.6956
13.9389 29.1556 104.648
4.8932 142.047 142.575
27.0996 107.076 32.4104
8.29757 86.674 84.0344
5.46996 103.145 102.554
4.83287 109.968 147.581
29.4225 122.056 21.6451
5.40253 102.815 151.627
5.98744 73.6433 112.77
9.05091 65.7328 120.203
5.18911 192.041 164.754
6.24957 90.6578 91.4086
38.8294 41.7331 80.2864
40.1963 36.8968 92.1919
34.537 52.5469 126.568
39.0144 57.0495 95.8158
13.6943 51.9807 79.7948
4.03404 144.822 124.331
4.90742 98.3501 160.54
6.82981 111.3 124.877
5.58622 126.008 82.0216
42.0019 35.5657 146.227
35.1743 121.507 30.4669
10.0505 25.4142 162.746
31.4462 189.111 92.4288
32.9258 77.3612 110.582
6.66235 116.109 75.7032
11.8983 32.7723 157.092
38.5209 108.545 131.097
37.5914 32.0545 157.508
28.8589 88.322 138.612
6.92106 62.4516 54.8388
34.5574 23.3636 132.868
9.96862 61.5741 194.037
8.45796 18.1871 62.8161
35.6294 11.601 57.2487
38.8409 28.4086 153.213
28.2273 39.2761 128.888
15.0844 18.5848 170.297
9.54516 19.9606 73.9932
5.26612 98.0764 44.3983
18.3028 136.832 222.953
38.9868 85.3692 83.8588
28.346 74.4632 179.627
4.78999 189.006 152.333
7.07505 73.038 131.086
34.1503 74.7746 157.689
6.03234 119.188 108.598
53.3959 193.903 91.7818
23.4059 60.6175 170.994
13.4267 117.614 150.155
43.674 106.767 49.9652
37.6299 32.8014 70.7499
6.71379 124.82 74.4968
35.0711 114.515 128.109
41.9993 182.381 131.333
9.21037 106.371 85.2325
6.66509 161.617 211.107
38.2044 183.254 72.3554
32.5655 137.858 122.178
7.07818 110.979 56.1686
28.032 90.6996 178.161
11.2131 215.515 136.705
8.88796 99.1502 68.9925
6.1493 205.111 218.362
42.8994 147.875 47.6537
39.5137 15.0187 167.329
11.6743 36.7434 42.9212
40.9043 15.3776 131.88
33.5047 82.1364 153.85
4.57323 214.553 205.084
5.63175 85.4311 122.284
12.694 98.8454 28.0629
12.9107 78.7198 176.445
5.60471 200.044 179.959
43.3835 180.658 142.925
5.72338 196.398 199.959
5.04667 128.825 134.225
9.85287 54.0906 139.655
51.3124 113.372 53.5468
41.8269 29.8098 132.85
29.9807 32.6614 180.785
62.2989 97.7571 55.4547
31.3162 4.52433 45.583
9.21835 60.9589 165.393
8.30134 76.9268 145.503
6.32531 129.37 91.0232
6.07358 128.031 107.633
5.64164 205.973 202.403
32.279 67.3392 158.682
10.794 25.8832 150.934
10.948 81.4897 111.082
10.4022 12.1935 19.8977
36.746 134.276 42.2508
21.0995 87.522 192.059
35.7449 50.6294 155.251
47.4008 169.955 122.604
17.1647 65.9537 198.436
10.8182 110.11 29.1911
4.39685 116.252 146.138
8.60411 72.4312 179.397
52.7263 128.656 123.309
27.6699 149.439 128.293
41.1776 80.8892 79.4714
22.4615 36.5075 118.597
37.9085 47.2018 125.475
45.2535 150.58 147.923
34.7589 109.473 120.762
44.4619 119.413 40.5962
37.6467 71.4538 114.16
16.204 31.2481 177.57
6.42732 123.124 186.354
6.48594 143.577 46.6322
46.9428 23.1539 134.653
41.6548 109.286 123.847
11.1239 39.1323 65.5987
8.4728 51.1682 55.4112
4.80616 149.852 115.559
24.0917 183.829 52.4615
34.0238 138.272 146.577
9.85479 135.064 64.9327
40.1505 71.7264 101.415
33.3582 37.011 59.0544
52.4924 99.8139 51.4378
32.5899 227.607 157.639
5.02765 81.4793 134.41
34.4808 134.095 54.0291
23.0124 18.5486 175.754
4.79413 118.659 135.714
5.65607 136.128 82.2449
6.23418 169.373 209.707
57.6216 130.188 117.159
32.232 98.1006 138.248
50.1752 134.045 23.8663
22.0004 134.662 14.3136
29.2582 41.5843 26.6714
9.17665 160.116 219.359
54.1767 112.574 35.0783
7.76134 135.919 43.6284
38.8249 137.392 152.926
23.836 38.4191 183.228
15.2949 24.2299 80.9936
7.80847 93.3198 98.8381
26.2861 123.981 142.484
62.0335 129.652 132.782
14.5324 21.1603 110.145
47.2175 143.038 7.39691
40.6771 27.0862 98.1106
4.42703 154.374 176.425
64.0288 164.851 130.918
10.0978 53.7946 126.767
27.2241 75.5462 171.361
8.20095 71.0907 169.364
11.3643 56.2401 184.714
51.8795 123.017 54.7337
10.1739 3.95699 115.531
10.8162 145.392 221.395
4.9344 104.423 129.131
41.9198 188.387 92.485
6.37651 84.558 104.495
5.29469 204.425 188.133
30.357 46.9198 31.2434
38.0541 12.9617 122.107
25.0263 34.4615 175.67
8.3908 118.517 68.8061
54.6539 135.261 58.2104
8.53064 173.443 189.019
24.7759 194.435 95.6604
6.95799 62.1851 65.8308
5.31209 176.416 206.035
8.76004 103.587 35.107
46.1343 144.483 41.0052
25.2708 72.5084 55.0079
24.5461 131.005 135.763
25.399 82.9435 178.868
32.4026 47.1389 165.556
35.3983 31.6305 135.685
6.92901 127.397 115.517
12.7577 24.8946 127.699
41.2902 173.09 150.157
34.6029 9.24399 66.728
6.11151 112.511 101.417
6.14594 188.216 208.361
5.31552 148.334 136.522
35.2505 93.0692 89.0737
15.5491 35.4662 112.322
20.5719 74.6422 192.491
22.8797 133.483 169.697
43.7268 132.224 35.9105
58.1752 104.175 33.1334
41.4801 38.4225 154.507
11.837 58.5553 177.77
15.3181 54.4149 96.4048
37.2469 128.285 37.9627
59.171 169.353 139.051
17.6733 38.7772 102.257
9.92444 148.444 33.5157
44.0086 97.6591 83.9762
7.80506 111.574 92.9079
6.86087 132.076 177.791
29.6763 150.508 16.7128
41.6881 111.986 43.3599
16.8424 44.8753 95.9345
61.9166 205.421 77.989
69.8786 132.405 126.292
5.74527 207.714 226.988
6.47975 193.982 188.835
62.125 148.542 151.162
30.8783 132.941 159.938
48.0829 98.0903 98.0989
5.66973 163.486 203.083
6.39542 97.6842 120.634
5.94346 122.764 101.819
32.5096 68.6686 49.7551
44.3808 193.36 45.4688
31.9858 72.0189 144.698
9.68855 109.157 44.027
6.0555 149.499 65.4868
10.2443 7.72361 130.344
10.6716 50.5747 154.443
7.00466 110.799 156.607
20.913 13.5962 79.1804
10.3318 13.5063 52.5451
51.6124 95.9154 83.8054
7.86686 69.365 144.967
57.0982 196.724 63.4716
9.18314 74.3446 92.5735
53.668 135.468 92.113
33.5944 91.0972 157.921
43.6499 150.083 95.3006
17.9855 45.1835 104.859
54.579 176.519 137.701
6.39042 121.965 89.1029
6.16675 167.094 240.225
11.766 10.153 36.9036
58.3142 197.074 85.6293
4.91805 101.837 140.178
9.02966 4.46322 63.9595
8.5063 179.09 231.03
6.23083 125.256 65.4217
9.81893 65.0621 92.0852
27.7621 139.974 157.937
5.06098 124.693 126.317
12.0189 78.6064 203.146
28.1867 122.92 149.194
40.2054 46.0817 107.839
13.7506 83.8044 184.77
44.5717 19.6808 4.20276
45.584 159.959 150.532
56.3382 162.762 148.974
75.6744 154.182 130.693
36.5764 143.427 105.543
38.3673 52.3351 79.2975
87.2608 139.561 107.399
39.0212 145.397 89.8466
8.1365 215.511 245.445
35.0198 63.2539 94.7715
28.5032 131.152 18.8395
3.64607 169.878 137.859
14.7771 92.6806 203.428
4.91268 183.278 180.392
61.4205 132.619 124.949
9.43133 12.8049 8.91484
53.8161 122.016 118.283
25.8572 136.923 126.628
44.9135 3.60979 161.286
12.6446 27.5963 25.318
4.48755 182.452 129.454
7.56451 207.095 242.478
22.8134 218.414 130.782
17.8344 49.5726 179.985
31.9062 98.052 167.235
41.6263 33.1835 100.781
6.56439 120.107 43.258
6.75045 201.162 19.3686
36.8162 28.6761 75.6164
30.8315 12.7928 93.7805
24.974 27.625 10.6689
42.6321 41.2835 100.741
40.45 40.971 134.307
27.1825 9.11338 162.253
46.7129 134.517 100.26
12.3898 15.8933 29.7741
51.4692 206.624 100.426
20.9151 181.016 87.8795
10.0106 9.1812 47.4627
6.23384 97.2025 106.475
14.9092 148.485 10.8416
9.6856 105.099 175.636
15.7303 144.109 42.5616
37.9063 83.2257 132.012
7.6683 109.852 108.025
54.5822 146.482 81.2721
7.55425 183.446 202.013
40.1574 199.64 51.8497
32.3126 148.449 94.3439
51.466 157.129 148.851
6.76911 115.171 35.6117
9.29686 7.37885 107.608
6.97963 175.363 198.937
47.7517 169.096 152.763
14.9892 152.075 203.422
28.6922 153.844 6.96211
9.6402 81.2233 93.4793
43.4097 139.417 16.078
5.62384 110.117 68.6884
37.5345 3.92444 90.1931
8.37417 85.7009 169.229
39.5265 51.847 86.9494
63.1628 170.673 126.942
63.6926 164.236 140.352
71.7309 135.797 77.8687
38.2634 86.8185 108.599
7.82222 169.905 200.793
39.0488 78.428 97.1462
4.99359 62.6347 130.605
53.383 93.0775 68.2209
36.9792 47.6019 68.4823
40.0418 118.291 120.488
22.9011 183.746 79.6613
37.1535 16.604 152.128
31.4683 150.139 55.0847
6.72786 142.228 74.1485
55.7686 176.111 125.742
11.2426 46.1894 119.712
61.1934 205.757 91.3733
46.7648 177.668 127.311
39.9312 43.3366 145.903
44.0847 22.8981 110.843
31.5591 214.584 106.944
18.4063 223.894 124.157
16.8807 130.652 137.945
13.7935 44.0219 73.5267
34.5883 61.9093 101.549
31.7444 10.0623 176.123
38.5125 164.095 153.023
7.08949 136.437 201.235
43.3097 137.466 67.2521
14.921 139.992 144.798
15.4188 27.0045 6.95387
68.8523 163.166 121.4
33.6159 156.582 115.965
67.1937 143.359 83.632
14.6892 43.1944 132.23
45.7761 4.56136 146.354
22.62 226.275 31.7171
16.8359 123.942 141.757
3.73179 165.873 123.596
10.5704 154.927 241.038
45.7745 129.492 55.8968
38.4993 136.69 105.866
26.6085 114.082 193.22
7.37377 102.492 77.3227
77.4049 150.006 75.1833
18.2668 184.173 62.6733
32.8771 69.0429 67.7193
43.8149 15.8058 108.082
58.8424 8.90873 7.75753
59.8563 114.598 61.1054
53.4526 172.739 143.124
84.402 153.72 62.2747
32.124 21.7665 178.304
7.86842 194.478 222.529
8.06881 161.509 193.188
29.2255 2.25903 150.208
25.1352 5.81563 175.246
4.33313 174.516 154.79
3.50643 154.214 128.282
20.7824 149.935 137.992
4.80119 68.9527 121.649
18.7828 136.881 134.881
61.1224 24.8329 5.16726
48.2844 143.551 91.3715
54.8081 132.512 17.9727
84.2043 154.462 69.9466
40.0486 28.944 85.6433
10.5689 48.5375 143.008
9.09212 142.154 60.3205
92.3526 39.0548 5.03083
30.3045 3.37026 133.506
50.2042 100.807 67.3234
56.2243 152.756 146.363
12.9946 64.426 107.942
70.5132 133.748 110.237
30.6842 67.9848 126.973
50.1315 103.973 56.4678
4.68741 135.66 119.423
60.0441 134.62 138.2
52.7904 146.389 146.406
34.7173 183.311 63.089
15.4681 130.223 19.2929
38.0469 24.7801 62.9229
14.1258 4.34218 166.212
59.0967 190.217 80.3265
6.59378 184.548 9.30604
67.0408 109.452 67.3542
59.0733 129.472 94.1384
6.06167 92.6953 148.6
5.06678 213.251 187.826
4.00072 174.047 181.444
7.93006 197.588 248.374
5.10869 151.086 186.365
32.7941 46.6203 57.0906
21.8839 96.3368 32.0537
71.0507 142.048 76.323
7.43673 136.074 215.672
5.52824 90.5802 111.288
34.9658 51.617 45.3271
8.20028 93.5228 62.7997
29.2695 102.021 159.355
31.577 82.2304 167.391
31.9737 144.027 122.1
34.7227 4.45983 55.8092
17.3089 211.305 57.6797
7.88723 99.3777 54.9249
36.3662 191.94 174.339
34.7107 5.13237 78.6084
8.11555 84.2031 159.426
65.8774 139.849 135.983
87.9438 142.222 97.4718
21.1333 196.975 116.552
4.93336 117.325 93.2785
28.006 210.791 7.2764
6.32974 90.2268 35.7449
12.4785 72.4857 199.132
5.69027 197.341 157.352
5.54139 212.036 32.6509
13.39 57.211 85.9263
7.02761 115.42 115.416
34.4982 142.008 15.9976
34.932 59.5941 78.801
9.67647 97.6195 208.362
29.2735 145.479 75.4026
71.7716 156.462 57.699
86.8626 162.465 79.2666
27.6069 5.94074 55.7173
37.0064 17.0463 68.6968
52.4746 216.66 101.132
4.74447 183.296 140.215
45.793 137.696 88.718
3.42585 165.682 155.508
19.3958 103.609 28.0165
59.8883 92.1131 41.9927
92.4032 161.436 94.1358
20.6897 81.9508 184.907
55.2313 195.482 267.908
4.59216 144.917 99.2353
41.7213 98.0148 107.884
19.9842 137.75 20.4424
28.3603 54.4551 51.6034
29.3361 63.9794 39.7054
38.0477 14.3879 77.8004
5.38335 102.313 89.3947
34.0485 87.931 52.5616
32.136 16.5295 27.0576
44.7633 217.206 88.529
80.9757 102.176 41.2761
26.0617 189.328 86.5156
44.1106 23.348 125.003
6.39666 181.973 246.921
41.3198 136.712 139.87
79.3814 145.583 16.3038
43.1329 127.14 28.0778
35.9035 39.3763 160.304
19.7489 197.375 89.2805
12.813 18.2696 131.843
39.2548 152.763 6.98754
13.3187 228.343 15.2199
24.118 122.66 164.827
66.4802 110.338 39.9372
56.7688 211.916 72.8491
12.1467 84.2899 29.1533
17.3021 51.2233 26.0898
52.6914 127.416 103.699
7.4143 224.261 36.9856
4.53424 121.171 197.437
3.39399 155.087 149.275
42.8498 184.57 55.1281
77.8422 141.595 104.36
14.1897 212.918 129.244
5.36641 105.364 74.2267
4.49798 179.433 147.288
33.5514 10.3073 25.5067
5.06305 157.059 90.7164
68.1084 143.458 145.565
13.0151 2.3833 130.389
3.91251 153.55 105.945
85.2685 158.11 99.4196
35.7719 4.2482 162.52
39.1833 122.649 48.0097
8.02095 30.2525 65.1787
7.27177 86.6253 183.211
27.8456 128.076 165.002
20.4392 2.05547 136.12
47.6838 172.232 145.86
6.76569 167.72 225.873
4.59841 176.064 119.074
5.23013 183.671 215.444
5.91208 101.116 114.971
16.7455 114.622 206.725
53.396 130.984 134.473
27.6104 211.704 79.6424
24.8056 222.371 46.0356
29.0291 50.0352 42.352
4.85531 129.951 166.924
6.34718 78.4226 86.2437
36.64 144.617 69.238
24.5094 214.834 114.644
65.5041 156.098 141.306
38.3735 59.8093 107.524
16.1258 222.199 98.175
38.8806 7.58281 141.393
33.5733 89.5114 147.615
19.3054 71.0175 28.275
37.6881 138.191 79.8418
16.2911 111.054 22.516
45.6368 91.3742 72.761
36.7339 63.5637 151.925
10.951 143.121 208.159
22.7285 146.464 73.9165
41.6647 121.79 127.999
7.57762 191.901 216.683
7.14513 151.013 78.7394
67.9169 134.762 118.974
48.4328 131.752 16.0903
11.391 23.2976 45.2844
53.6346 121.595 27.0086
8.923 5.48172 85.9481
7.05981 159.476 227.732
8.82215 129.585 50.9741
35.2205 35.5575 167.998
31.5772 203.865 58.54
34.568 131.385 131.428
42.1516 127.957 130.595
74.4637 137.004 119.16
5.73538 172.653 228.711
8.07734 99.7851 97.508
57.6452 191.465 68.3161
40.6637 132.319 125.644
55.9188 184.947 74.2955
30.0099 108.343 175.951
17.7514 145.979 164.225
5.02818 134.625 186.41
22.1136 32.94 122.763
33.3202 3.36981 36.3561
4.90127 137.996 130.927
30.4106 79.2481 71.0052
5.46244 205.235 156.739
12.9969 193.976 64.7125
5.42296 136.395 112.618
77.0191 147.399 61.9047
30.1428 12.6606 82.3895
55.5225 106.738 61.5593
9.42618 169.421 63.3654
70.3573 158.051 69.1432
36.5921 189.916 45.7451
23.4173 156.373 128.736
6.30344 180.219 193.948
25.4902 222.049 16.4098
6.78667 79.556 188.485
70.7966 146.196 124.19
48.6772 159.406 112.425
13.498 230.207 26.5559
7.72038 201.636 255.983
33.9518 144.212 156.636
26.9445 143.174 26.4173
54.1638 150.191 96.4286
14.5007 37.4143 78.34
36.2434 180.205 82.7841
6.57392 207.615 14.8636
36.1993 102.069 47.6982
34.1473 84.4513 76.2867
34.0141 59.8216 155.379
34.7476 61.6159 138.784
7.09936 152.034 227.963
43.9044 97.6385 55.9196
5.22472 204.21 172.334
38.6501 52.9608 71.8582
62.537 75.2194 10.7741
38.1247 51.4533 148.267
32.5671 207.89 2.96459
7.58258 2.79736 145.889
54.4176 195.846 56.5057
74.5144 151.699 108.014
51.1245 180.411 133.783
44.162 90.6687 96.1487
4.26995 175.496 165.097
13.8959 58.3015 111.047
10.1215 65.4915 135.129
33.9003 129.849 120.62
18.2579 212.202 97.3362
47.6672 121.196 24.2785
66.0614 125.155 24.6689
77.2081 151.224 119.005
11.1826 111.601 63.2547
85.8244 26.1643 7.52167
6.17955 125.962 58.9873
12.3315 50.8638 111.651
77.3759 157.176 76.9422
97.3161 159.671 86.4219
21.5868 145.878 49.4961
12.0999 78.4122 39.8096
58.0929 189.513 88.0396
13.4075 99.9388 61.5423
10.8307 21.607 135.889
27.1201 202.956 106.936
36.5749 51.9618 118.141
49.1977 98.6623 76.796
21.4864 142.911 133.897
16.1363 2.63722 157.819
3.22369 166.194 172.597
20.5087 230.71 14.8657
13.5633 43.923 182.311
73.0662 105.048 42.1212
28.1273 109.349 186.404
79.2157 134.329 96.8219
42.7229 20.3394 102.566
41.4536 10.3537 88.0648
4.30014 215.804 45.4775
7.40739 143.361 54.8941
65.6242 128.839 172.392
100.655 159.948 70.0482
88.19 132.19 87.6193
31.7141 164.155 121.602
12.9389 18.4278 85.5498
34.7252 208.885 67.3942
6.17797 185.379 231.883
5.82579 121.852 207.782
22.8668 141.333 165.56
14.245 32.4335 125.719
33.6661 21.1777 52.3969
32.6607 26.3715 58.9299
43.5839 9.9367 115.402
52.1751 136.724 33.376
84.7731 163.724 93.951
9.82476 10.0215 160.016
5.75629 206.776 97.793
34.124 91.5145 117.571
32.1841 40.3988 171.937
16.4094 185.86 104.239
40.7264 129.866 51.1976
45.1769 203.524 66.0191
40.7113 12.8688 94.5976
28.5186 6.68991 140.43
56.046 140.825 86.8016
8.00671 150.177 217.429
84.1419 145.904 102.972
7.21445 224.235 134.065
74.1192 129.898 77.2647
36.6606 60.5455 86.2746
10.3179 155.869 19.4961
22.6557 90.0807 40.716
16.2944 121.985 24.7072
40.1861 140.619 94.4423
29.8921 85.7476 62.4556
60.9535 127.275 54.702
3.99625 167.092 192.355
5.20077 148.887 200.324
27.2962 220.527 35.558
53.6869 119.785 18.0981
21.6336 155.734 7.79796
38.1746 48.9553 139.811
9.15592 164.151 233.48
5.72721 178.047 12.9775
6.36533 120.416 51.594
28.8452 163.793 154.319
35.5174 70.8125 94.5302
13.7415 176.869 46.1423
41.5657 21.8376 92.4505
5.67616 190.102 32.1387
90.61 161.878 86.7273
68.7134 151.074 137.578
74.3901 137.873 129.251
28.0888 54.2028 182.697
58.0928 166.401 144.971
8.12826 72.5782 162.021
21.8597 38.4168 19.0148
32.4787 43.5531 132.141
34.9651 132.173 113.104
58.1136 203.607 68.5709
71.1544 123.065 61.3564
88.7112 155.956 106.392
80.7418 151.376 105.943
9.64366 115.454 216.175
6.77497 98.091 187.899
34.4467 155.5 152.417
42.6486 140.782 144.39
3.91232 176.048 173.05
21.8423 99.2072 190.405
28.9554 51.0355 239.531
27.7939 149.065 115.679
54.437 123.076 34.9158
12.1745 147.136 228.353
26.7817 45.3319 173.737
13.477 41.8555 123.653
22.6374 148.621 15.293
91.1734 159.033 68.2361
10.7275 26.6077 141.484
8.23566 3.27784 139.681
19.2231 74.9331 40.9878
4.9283 166.44 89.9396
7.24104 217.786 17.3783
35.0785 66.5988 89.4136
75.0674 145.377 111.617
6.90957 151.695 236.961
6.46439 76.2458 70.1507
55.5682 113.658 26.5853
51.4122 3.55357 153.202
9.56661 64.5569 32.5476
12.9091 10.4548 122.353
43.2277 152.31 107.61
35.6722 194.621 96.4633
54.7153 165.257 120.166
8.03019 172.35 236.473
12.4739 180.288 57.6646
12.4802 58.2628 30.9003
66.0283 127.524 101.665
67.9842 130.997 49.5014
7.61491 123.563 217.458
16.0141 135.116 169.571
28.3328 85.9286 44.2049
41.2814 163.818 118.078
38.8873 92.3646 146.507
75.4016 155.18 116.189
59.2686 201.148 100.834
5.63312 181.36 48.2856
58.18 99.7863 65.3909
55.353 144.241 32.1163
28.0698 136.767 26.0612
11.266 218.434 123.737
58.4056 173.382 132.199
9.10846 4.44522 95.2129
52.4709 6.526 136.026
6.6213 103.519 166.793
33.5561 99.1409 123.566
9.91567 124.627 32.7492
4.88611 222.065 190.557
58.8044 170.138 120.213
24.5914 180.252 67.2968
38.9588 4.19552 102.333
13.3117 228.008 41.0838
77.4815 162.825 94.3652
3.22271 159.913 165.108
39.6696 209.764 107.791
78.4885 160.954 101.6
16.9452 147.95 22.5808
23.8141 166.582 131.642
90.3144 148.323 102.455
15.6049 180.486 77.0534
13.0099 134.012 231.458
71.343 128.875 107.369
60.7275 197.593 69.6132
72.7232 138.088 85.4357
35.0182 76.5198 147.756
18.4255 153.875 15.2076
59.0178 145.384 57.8733
59.9347 159.523 143.493
6.79641 188.891 186.025
51.4045 145.827 55.204
16.3962 187.042 77.4825
60.7021 136.531 88.2852
6.64122 130.692 145.095
25.179 190.255 58.5167
64.9118 104.58 44.6732
3.03283 162.325 109.415
11.2758 50.6287 70.1309
35.7503 148.349 116.326
7.69384 2.73643 74.7891
25.6827 147.118 38.7849
44.568 131.881 108.175
22.636 159.178 141.469
60.8931 147.186 45.3234
15.1947 198.415 119.568
5.72855 229.851 27.5029
30.1418 99.8594 38.4411
6.80759 162.156 47.7989
18.0454 197.248 99.8048
51.0159 196.922 64.0534
64.5762 148.959 78.5396
37.4458 65.2929 143.696
47.585 143.995 63.5252
37.1473 147.287 148.785
54.7875 139.907 147.164
12.1646 84.3813 165.417
32.3006 63.1358 167.209
7.42053 198.209 35.2009
29.8771 175.219 140.192
46.0102 145.668 80.7088
5.42138 217.624 117.169
45.4485 9.22803 105.874
4.74652 192.476 134.102
63.5351 122.023 61.2438
6.97341 148.726 88.7177
93.9897 77.9063 6.04737
47.4418 185.539 86.9245
53.4046 136.12 140.512
39.8114 132.992 22.6083
60.1045 149.79 89.7533
12.8872 35.3767 17.5449
12.2384 230.85 124.361
17.2506 126.472 213.542
7.27677 223.515 147.962
38.1721 130.137 148.072
6.91968 156.211 38.8673
22.9077 201.548 9.93299
15.0658 197.325 109.715
7.98333 223.916 76.2147
18.7228 170.85 4.32252
55.5841 20.0662 6.16219
94.5463 159.945 79.0046
46.3317 131.336 134.405
8.18774 228.786 228.187
51.641 214.775 64.2776
48.6496 11.28 132.148
31.637 168.99 148.553
39.0632 194.473 106.913
35.7026 149.907 103.206
7.98095 125.633 27.4845
14.1865 41.3885 25.5983
12.0648 222.512 87.7399
8.92193 220.015 233.72
30.1163 76.8066 104.574
38.9903 210.708 100.946
33.8799 227.245 6.51512
12.9501 142.876 159.35
10.4941 139.608 227.059
7.83942 189.804 102.061
37.8467 37.7105 119.288
6.11697 150.89 211.332
77.8616 134.997 110.829
32.1396 130.374 153.587
7.0444 143.183 87.1624
65.7541 149.701 143.181
53.7907 186.544 66.1224
20.1092 38.0055 128.187
81.1558 99.8128 49.4754
67.5319 103.989 60.3704
36.7302 54.8606 61.4902
3.31173 143.817 155.269
43.0444 195.999 60.2602
9.59128 203.468 25.9869
33.9004 85.0922 124.043
55.965 144.237 68.4236
26.6104 195.366 5.05753
43.8676 15.5164 137.336
9.61593 155.854 232.461
28.3461 152.205 153.269
61.8418 141.318 143.504
29.4617 60.0646 177.066
53.2391 104.788 45.3354
36.5541 142.795 37.536
20.9367 213.671 108.294
8.18146 4.35821 5.39192
7.6862 151.775 51.4304
5.48002 110.151 211.773
61.8073 155.354 147.965
38.2213 57.0419 144.112
76.9187 148.243 123.13
78.4828 100.617 57.9544
62.9894 138.402 52.0888
17.2687 86.8441 26.7223
34.5355 131.347 26.0259
86.1708 100.941 54.1536
4.25294 89.9768 211.586
47.8517 142.304 149.097
7.655 166.458 32.1042
62.4467 160.917 108.751
7.19777 186.467 192.947
60.092 130.871 35.0645
77.9278 141.595 117.254
43.5584 188.337 64.8902
7.93038 211.641 257.025
75.6838 105.76 62.8893
5.80518 227.658 49.6818
11.9676 194.966 72.8524
63.1377 123.58 193.217
3.14341 149.997 166.63
22.5623 207.058 117.762
34.6397 74.7777 76.3279
51.3921 1.71987 161.436
77.094 149.359 53.4171
34.2054 26.6497 41.7513
21.4102 143.273 26.4774
15.1059 222.737 13.1073
68.3307 138.548 130.08
73.3072 100.852 52.9138
39.8652 55.8078 132.314
77.8346 151.441 67.2613
20.4118 52.2659 185.654
33.5065 222.585 162.195
30.9199 109.314 165.26
38.4162 105.973 161.389
16.0013 189.931 98.0077
83.2315 111.994 36.6731
17.135 226.576 58.662
81.1165 133.349 88.891
6.53903 190.502 244.434
33.1267 1.64243 126.33
86.3998 134.435 102.633
81.9998 163.069 84.6847
5.95456 109.891 187.491
24.7755 168.061 144.096
5.8555 75.2201 42.0795
30.8376 96.043 47.2801
6.63424 144.514 192.421
8.76838 104.92 50.756
70.6502 159.654 129.626
6.37817 215.823 158.305
26.2688 194.788 47.4798
97.6772 114.076 37.0212
7.62927 46.6383 64.8378
14.5208 21.5146 123.079
66.5678 135.456 86.4962
60.2974 192.757 74.4591
30.1111 51.5365 171.536
4.89607 127.551 33.8894
30.4496 170.87 130.125
71.454 128.713 66.4376
67.466 170.202 109.456
32.4991 78.0606 61.15
44.829 201.523 145.779
7.13483 81.6882 116.431
3.3386 145.885 177.109
28.0268 142.144 62.6713
68.7345 153.767 87.9195
72.0053 133.815 90.5106
5.86628 132.136 227.697
85.2069 123.433 35.6722
20.6171 231.065 27.9493
23.2195 16.4235 1.70289
48.3081 218.003 154.369
44.9976 126.41 119.346
48.9182 118.804 123.039
49.3891 129.648 34.1926
40.8056 99.0232 121.984
63.4876 116.803 35.7577
61.7751 126.178 98.2934
49.7427 194.844 99.4893
23.8581 59.2037 188.542
86.9488 162.243 105.037
39.6802 65.9118 127.161
15.1761 154.404 195.39
33.0553 132.605 138.966
33.8935 36.1697 175.002
17.683 181.34 37.4959
7.18925 219.031 57.6573
9.63253 181.25 91.0049
32.382 75.0112 134.305
6.36095 179.659 35.7096
25.9973 74.8542 36.2394
63.8387 140.995 172.87
21.7804 146.638 155.494
71.9108 132.168 99.3025
15.8677 217.184 67.5937
5.90197 132.213 204.759
70.2048 148.609 71.1303
95.3796 158.739 59.4465
47.4745 213.428 80.8928
65.9145 130.442 36.9802
7.12915 121.994 155.821
47.1258 204.253 107.019
11.2477 214.596 108.584
93.7295 137.34 92.5275
38.4761 176.648 201.118
76.6436 112.001 36.7773
36.1664 82.9845 68.5872
5.28128 113.981 174.499
33.3026 12.4935 141.454
31.3111 136.364 132.236
21.8585 121.764 68.2723
69.2849 129.295 42.9245
37.5129 159.052 1.76162
46.3339 130.882 114.083
10.1188 133.652 165.101
93.5822 109.347 41.9452
27.2001 160.069 1.78713
57.8427 154.81 105.249
40.014 87.5623 76.6964
71.6826 145.307 133.356
52.3759 167.795 148.95
20.188 153.674 149.375
4.83844 209.536 143.112
87.0659 134.974 93.9617
9.28161 170.936 39.8005
8.26283 139.17 156.478
15.6463 146.431 150.165
19.823 180.187 2.21759
7.0112 195.884 233.437
70.314 130.257 59.6938
33.0387 217.708 1.92258
54.1688 1.62557 143.603
16.4931 64.1262 26.7572
39.976 4.77662 167.944
35.9663 205.402 113.184
35.2515 212.298 149.401
24.584 1.5155 157.261
13.3181 178.138 3.36583
4.49124 186.398 66.5091
81.8186 107.468 61.7108
22.3243 80.7521 42.094
19.5691 187.612 49.1399
11.5126 122.417 177.04
5.57067 196.954 112.925
72.0474 114.73 34.8863
38.3298 145.805 23.879
67.4017 155.285 127.238
64.3324 155.424 98.4094
5.27829 222.233 122.858
30.8201 193.796 54.3255
10.2346 205.491 132.12
61.9807 144.379 72.3189
7.6586 181.074 80.9426
12.6414 230.219 52.7274
22.2078 184.055 163.757
42.1169 161.59 200.921
23.2164 115.145 64.6863
6.06058 185.555 37.7292
11.4424 210.987 82.0155
30.5596 140.629 39.4758
53.0572 186.659 83.5473
75.6929 158.142 106.796
68.9663 156.925 116.608
68.5862 100.169 48.9724
10.1066 116.372 31.187
100.857 156.905 77.1969
22.8179 209.015 83.6152
4.69452 169.858 79.3831
22.1036 192.632 1.73712
76.9868 134.275 84.2535
10.3971 200.531 117.301
71.1977 166.466 91.7752
104.947 129.076 62.115
43.1849 34.2947 119.947
5.41702 71.2677 196.037
28.2032 221.718 6.21087
35.5035 56.5835 53.8015
29.5534 33.4494 33.8224
72.0229 142.613 49.6508
65.1443 127.825 71.9234
27.7412 213.814 87.8467
76.2537 162.982 85.7038
9.59301 214.186 89.7006
102.609 151.538 85.1841
4.47682 133.099 154.813
5.5281 226.662 63.5186
8.83068 89.5737 136.884
40.1979 92.8092 59.9411
66.5866 140.848 59.7132
43.3456 145.916 73.2775
7.7683 212.908 76.2389
48.637 134.88 144.348
15.4504 226.981 68.798
101.355 154.759 61.4185
36.8291 74.6441 67.6762
55.1517 112.906 43.0903
31.7715 206.413 73.4124
38.7271 88.8639 66.1041
92.398 107.126 59.0606
43.7076 138.764 205.531
83.3986 148.454 48.2787
67.8229 88.4893 2.91058
102.961 130.849 47.2522
61.0223 199.381 75.3118
48.061 221.759 159.361
75.1937 138.485 52.865
24.9776 10.9186 169.81
16.0728 193.523 40.3131
77.0009 130.567 42.962
37.4284 16.2095 142.745
44.5285 165.148 34.6873
17.7902 150.587 154.038
91.0125 151.262 59.3398
43.49 173.059 174.959
6.62864 94.4332 128.626
7.16559 118.166 170.002
11.3915 46.9611 26.6619
71.9812 124.631 35.1081
78.0757 121.544 34.1012
12.3741 230.309 115.58
41.7848 213.049 73.1466
65.7523 157.541 113.281
100.56 23.5515 2.45731
11.7666 1.26176 34.9207
67.4394 121.436 35.341
55.7694 192.858 124.413
73.4507 137.118 69.6395
23.3126 202.673 55.5648
37.177 194.163 56.9167
37.1332 72.0011 130.986
88.8676 152.454 99.0802
29.1188 182.154 191.479
75.0942 130.17 37.2684
27.0237 1.14636 139.548
41.6521 127.247 113.316
16.3579 1.21869 170.444
41.9706 122.504 115.274
12.9704 183.601 41.2925
86.0457 13.1835 2.99833
35.6228 86.8571 60.2393
25.574 203.043 65.3444
73.9147 113.744 63.7047
87.1532 132.049 78.7809
40.1343 209.079 166.371
69.8731 38.4467 2.99786
8.84581 231.28 241.747
99.4828 32.8083 2.54123
9.503 223.68 68.7855
7.16276 1.20171 108.534
38.8793 157.717 189.382
50.7584 187.672 151.664
72.207 159.311 95.3515
96.8958 131.079 35.6812
93.6888 104.041 49.1247
36.3861 212.424 171.383
41.5046 147.937 153.719
55.112 181.041 267.895
32.8978 181.865 186.233
45.0768 1.1311 126.068
80.4311 39.3225 3.12297
86.3998 113.321 64.894
6.50916 231.579 209.346
82.2061 46.9978 1.14698
83.1769 126.755 69.1619
78.1271 133.134 68.5672
36.9856 1.11132 176.324
32.9553 1.47027 1.34127
19.6869 188.453 40.4115
43.4085 217.38 76.692
