ply
format ascii 1.0
comment Created by Open3D
element vertex 463
property double x
property double y
property double z
end_header
17.3352 104.923 196.213
10.2681 109.554 199.199
38.8606 129.255 207.742
37.1799 128.981 195.044
17.464 105.38 57.2965
22.3314 82.0702 163.276
11.2999 56.3031 88.7143
28.2628 171.193 214.069
27.9297 72.4535 129.055
20.8532 121.785 208.505
37.3298 131.159 123.616
12.0608 59.9482 115.852
21.2982 106.479 205.28
43.9397 121.654 93.5878
23.0915 107.569 221.246
48.3709 120.517 134.931
16.9299 99.9065 62.5901
37.9062 138.966 158.539
38.9591 126.174 113.295
18.9027 141.663 105.08
17.5553 64.3392 141.57
25.9364 108.423 197.44
45.6609 83.6591 86.1091
22.4669 118.696 146.942
20.4965 94.9 172.818
39.3437 136.332 149.127
37.2674 115.801 81.6237
16.434 156.524 176.274
38.8069 153.9 179.146
13.5037 60.2018 66.1763
42.267 70.9471 102.331
11.5644 148.149 234.301
11.4325 97.4381 194.137
11.3855 160.231 220.851
24.8703 130.97 69.656
39.9578 128.035 153.812
43.8189 124.686 139.507
39.8989 135.967 108.778
10.9362 173.199 219.128
21.0288 125.522 215.945
12.549 86.2255 82.609
20.9268 155.992 143.19
86.2745 156.559 249.354
36.1542 119.079 238.54
11.3214 68.4468 119.671
44.221 110.661 152.065
14.6669 103.421 67.6088
27.2509 169.449 246.452
32.2285 127.615 219.828
11.6256 89.6688 170.063
22.0045 162.09 242.871
18.2492 105.681 175.262
52.7981 83.6416 105.318
11.3903 115.149 226.24
40.6353 127.994 95.581
32.4339 83.3572 67.274
30.4652 127.76 248.663
35.8595 116.896 206.084
53.5598 99.2003 116.259
33.9851 122.525 212.022
12.4701 149.631 170.201
12.4143 146.248 143.776
15.7121 150.017 181.271
11.1478 90.9237 112.18
12.3112 135.954 100.793
39.8028 73.3462 127.21
18.9668 91.4074 160.555
20.5545 153.882 187.606
16.9503 136.808 255.516
13.1914 124.406 59.0137
52.0618 101.206 105.405
48.2931 80.1053 109.849
20.5929 115.77 54.6528
40.9476 113.047 145.048
39.1371 73.8818 91.3374
33.0942 111.06 211.999
36.974 80.1515 92.0867
49.8767 89.1886 115.244
10.6979 70.5405 110.448
20.9324 96.9276 77.9679
33.3354 151.264 120.147
45.3285 124.964 271.007
12.5022 3.39948 166.159
14.8128 65.046 58.2604
17.7557 123.584 154.575
29.0866 136.595 89.1855
12.3069 63.172 100.189
32.187 141.564 178.798
51.4532 96.8673 96.4231
42.0089 85.1181 145.833
21.2011 121.923 248.874
29.5357 88.9314 49.0067
48.5225 111.247 142.505
40.2437 125.268 162.517
25.0683 98.3343 164.773
16.9882 145.846 96.4196
14.2798 74.2649 65.9095
28.2858 117.896 244.329
29.5082 133.979 100.289
17.0624 154.691 111.676
10.6005 149.952 149.257
35.5415 135.194 188.642
26.249 128.602 155.313
12.0336 151.274 132.452
14.4067 132.099 188.472
48.2364 73.3986 110.883
14.7414 53.6473 107.698
16.2029 101.117 156.057
9.87937 118.288 139.792
16.0483 129.908 67.7639
10.8643 137.296 172.066
37.2283 117.387 121.12
15.8575 142.366 82.9561
32.0746 172.706 222.782
43.749 138.744 210.096
24.6161 139.01 124.222
30.193 65.3179 129.149
37.9338 137.726 174.128
10.9236 57.1155 73.2926
10.8747 81.0744 114.774
25.8146 53.1836 93.4022
26.6787 101.472 69.6207
33.9289 131.165 180.649
36.1849 135.601 166.265
14.0017 104.212 206.107
31.4263 114.555 201.397
20.9968 107.468 125.05
18.0768 123.294 238.952
30.9257 139.849 146.624
10.9888 111.986 105.312
43.6392 111.576 125.351
17.8832 128.388 160.286
14.7241 163.104 17.4733
36.1721 94.6896 81.9495
17.3223 156.978 228.114
10.5262 139.831 211.531
14.849 121.354 147.047
42.7976 148.649 214.541
39.548 130.294 137.569
31.2404 142.981 250.538
14.1971 158.325 164.996
51.0261 116.072 114.924
55.5337 88.0891 113.281
10.5498 48.0865 101.404
23.9325 169.898 220.065
38.2249 75.4309 77.8211
10.4616 122.156 102.379
40.1305 128.737 173.808
23.4317 89.6679 75.0864
13.1564 110.489 52.9042
35.0612 121.923 149.588
41.5357 85.3496 138.295
19.5394 71.213 150.491
20.8887 147.891 148.511
34.0318 61.7719 94.425
11.3181 96.7845 179.859
13.7155 105.875 185.54
13.6434 137.505 110.011
13.8635 106.626 222.144
11.1354 160.624 125.526
41.4037 120.738 86.7052
52.7643 102.84 130.149
40.5602 77.2375 133.392
44.7452 80.1066 99.8605
8.44095 124.701 168.241
10.7703 150.836 214.535
27.3949 137.148 194.134
22.5922 161.235 218.619
26.1412 147.174 240.182
36.3757 144.542 167.923
16.9145 78.1999 158.434
32.7995 141.669 112.41
11.1926 111.463 193.58
26.2616 102.477 180.743
13.4185 112.751 177.228
14.3256 110.189 123.274
29.6768 135.483 227.742
38.1644 138.237 140.18
79.9201 105.329 174.914
9.91294 152.369 112.26
25.1521 171.017 232.194
10.2778 69.5402 77.7289
44.3072 102.883 88.7794
34.7962 124.72 189.288
13.1715 81.2269 66.3815
19.0413 152.205 195.169
41.5582 117.274 265.04
20.8206 131.029 248.711
13.3968 111.261 63.7476
18.0231 159.536 121.163
20.5469 55.4285 116.419
28.2292 83.3739 72.8753
27.8193 150.587 151.873
46.5685 92.5706 127.565
9.26933 154.626 209.189
46.0558 103.722 269.138
15.2235 54.7201 78.5063
25.468 108.297 119.994
9.43602 147.109 125.059
37.2937 108.071 160.659
11.335 97.5341 104.571
43.0562 103.331 68.1863
37.1452 119.707 221.729
33.6534 82.9909 127.377
25.2772 110.037 185.645
42.4234 128.596 216.969
40.6551 144.851 245.137
13.8983 129.489 90.8512
15.6683 109.674 116.076
23.3935 116.473 132.664
33.5427 62.201 108.209
41.3311 109.424 85.1141
26.7917 115.818 124.56
18.0098 125.344 172.573
14.3234 135.79 70.7447
24.7496 125.896 145.768
28.0975 122.263 232.303
23.1609 131.48 183.622
11.9883 54.3753 99.715
48.6248 104.952 148.309
35.4378 130.956 77.8753
17.679 153.597 237.193
10.2461 98.3741 120.592
20.9907 79.402 72.0698
14.3434 106.515 139.372
10.9312 66.5498 143.333
40.9425 99.9933 154.053
21.5418 59.0352 84.9459
15.9319 84.8935 165.59
33.3161 78.8077 146.655
9.0096 137.92 155.793
32.8348 135.91 245.115
12.8437 87.8489 47.1482
14.1625 165.071 197.964
26.7228 157.033 235.394
48.2446 98.1476 133.123
41.7118 102.927 75.4537
40.6879 108.454 78.5204
9.52036 96.8645 93.9065
16.2001 99.3593 112.403
34.6245 72.1401 129.562
13.7607 150.838 160.51
32.5448 67.4175 76.7818
49.9375 74.981 119.301
33.0046 127.134 163.319
44.2663 140.36 196.462
36.1037 125.298 104.238
44.0685 139.699 221.011
27.4126 114.106 227.83
33.0646 75.5022 67.5307
40.5887 162.326 214.601
22.4956 64.5028 134.43
40.0191 119.78 173.196
19.7297 140.476 245.801
11.1808 113.798 207.631
16.8718 76.9465 113.259
30.3818 102.159 122.003
31.4494 149.784 194.3
19.0698 111.77 130.429
13.0938 56.0098 125.78
46.5277 87.6054 135.347
43.3761 150.539 227.854
40.6606 72.7068 110.831
23.1312 76.0017 65.2136
19.5926 152.609 213.714
48.0409 87.826 99.7872
17.9877 104.276 164.695
38.5453 131.196 236.504
11.6587 89.8238 67.6386
42.208 71.9885 120.214
18.7673 54.0606 84.8455
39.9565 124.377 126.354
36.4719 172.739 215.881
35.3871 112.081 67.488
29.7685 86.8712 161.767
12.0763 123.506 95.1317
39.9407 135.934 224.915
31.7992 135.515 109.42
36.9608 141.491 101.986
19.8402 128.864 200.321
21.8547 157.538 128.244
41.1335 149.169 193.387
8.66203 86.2641 126.477
12.1539 136.584 199.366
43.0234 91.6485 75.5854
54.947 79.3057 118.268
9.59156 133.317 90.0877
37.5998 100.89 62.3821
44.0775 110.826 91.3507
36.7754 84.7552 152.191
23.1621 138.475 82.7037
52.2919 96.9799 123.746
38.6499 88.6607 71.1522
12.1699 141.9 240.478
44.4872 155.749 208.303
27.5258 111.553 191.703
30.1379 68.4641 138.594
14.4911 123.747 216.771
38.2762 110.005 268.321
33.9866 92.6662 63.6454
23.4733 95.3922 72.1513
17.2759 52.9872 99.1459
35.5553 143.57 185.41
12.3932 78.7677 156.9
12.1822 130.014 82.5639
29.718 71.6706 84.4784
28.7748 128.273 226.292
44.5792 118.299 127.089
28.2888 71.7962 149.3
33.1715 69.7912 120.29
9.44695 115.375 216.676
12.775 169.544 22.7271
20.9765 156.601 156.472
13.5789 148.891 104.565
99.2165 155.707 258.147
12.4182 92.055 157.722
36.5372 117.387 73.6297
27.4303 55.4112 81.1539
37.1085 125.35 84.9947
52.7852 109.32 132.948
10.6622 99.3592 71.9465
26.186 134.392 248.649
35.8615 149.292 201.383
11.6349 73.6647 48.7177
31.7716 83.5893 137.962
32.3492 74.0057 136.088
9.04585 120.84 149.775
22.8568 61.9484 120.719
42.5316 122.862 120.083
9.72383 157.972 140.104
39.4229 68.2197 93.9201
27.5502 146.239 95.7001
15.3012 119.791 127.439
9.27618 125.807 119.987
29.1335 120.436 151.123
46.8284 85.9501 92.8217
37.5608 95.3688 73.0846
46.3246 98.7291 80.4002
28.6089 106.718 60.4779
13.1516 120.333 233.588
34.8707 164.436 236.014
27.7772 61.9755 116.029
10.2207 114.128 95.3712
29.401 153.004 189.235
10.5192 77.0386 89.2147
20.5488 69.1081 66.0066
41.3385 154.381 235.937
11.4031 82.4312 104.658
34.6721 163.87 196.809
10.0626 13.8664 206.818
14.3669 158.123 149.619
55.017 96.5825 104.95
49.2486 83.1357 127.446
21.4377 143.76 178.675
20.5299 75.1756 57.7506
46.623 97.5398 107.675
36.7245 116.358 178.814
52.6513 111.272 122.779
13.834 86.5457 59.0735
9.34607 103.566 141.046
10.8869 107.816 127.476
37.8677 168.029 212.855
27.9093 108.323 55.7876
42.7491 93.9761 149.295
14.7013 91.1205 75.735
35.6409 116.924 128.432
8.58595 132.257 132.202
10.0907 155.121 80.2416
34.6652 120.912 64.1676
12.2584 140.735 89.797
40.392 136.514 240.491
9.57799 112.609 116.515
27.1539 130.729 51.1504
27.8774 123.507 58.2179
53.6167 85.0173 124.081
19.8097 149.59 256.627
37.7817 161.129 221.558
9.85786 72.5868 98.503
25.0911 74.4385 146.28
42.5046 156.61 242.307
24.8563 65.2581 87.4041
21.8237 163.77 230.716
18.6879 105.729 101.171
12.2623 104.21 167.987
22.8059 61.1789 71.1791
48.8607 150.304 209.292
26.6869 150.818 143.471
52.1427 110.974 102.347
25.1344 94.0327 82.2462
31.4618 119.06 186.171
35.013 112.694 114.824
44.5718 94.9817 90.6235
30.4624 128.896 200.328
11.1462 107.507 82.6132
45.303 115.007 266.596
9.52039 113.432 172.935
10.9422 102.907 102.103
28.8861 120.991 156.171
28.2623 123.86 244.827
10.614 89.9119 186.801
40.8779 90.1214 127.466
33.1072 152.016 131.654
32.8152 97.5414 165.223
11.15 97.5808 83.6825
35.923 79.6974 137.788
14.6183 162.603 228.787
35.5106 146.456 113.301
20.9544 134.856 102.8
17.7043 145.405 199.82
12.1453 148.508 85.5861
36.7968 108.251 131.975
23.8776 151.465 207.599
38.4427 130.639 100.152
38.0751 164.539 228.316
36.6547 125.418 70.9414
10.2995 135.353 117.537
22.9686 100.289 120.331
38.7705 141.885 131.985
26.9035 172.351 203.989
48.7061 120.705 274.153
29.0191 148.574 250.714
21.6875 151.682 100.887
32.5165 70.8582 176.277
27.3333 142.863 102.995
10.9975 111.07 71.8427
10.6131 121.383 71.6004
47.4283 112.183 268.215
11.393 153.332 93.2549
28.8134 111.236 179.069
39.4468 86.0965 132.751
20.1366 62.6168 113.588
30.1759 92.8477 82.7906
27.993 79.8619 78.5909
10.2523 105.143 148.941
33.9269 103.134 127.554
33.9239 94.8151 129.619
14.7334 155.487 88.5442
15.5561 136.298 247.976
44.2309 119.319 111.182
31.2077 106.358 175.049
33.6149 148.511 142.701
24.3157 99.4628 50.7872
11.3329 158.97 207.493
45.7078 110.418 274.73
35.8819 139.899 118.857
11.3897 163.99 141.053
21.6593 148.793 203.443
14.6879 146.397 154.149
40.2345 157.01 158.123
30.9338 107.89 130.105
31.3308 125.881 49.1481
42.7974 97.4775 73.5858
11.0261 102.537 161.797
25.8995 160.588 175.964
13.8132 65.1288 274.793
21.1518 124.039 221.207
32.1824 153.709 207.945
24.3589 90.1803 117.721
39.3382 95.3377 131.81
21.1165 174.17 205.025
32.8501 149.749 154.122
36.3478 115.549 62.8702
12.0762 174.469 212.313
