ply
format ascii 1.0
comment Created by Open3D
element vertex 745
property double x
property double y
property double z
end_header
123.998 194.982 260.498
15.9553 14.54 107.123
15.0083 31.4717 244.115
18.2579 161.642 118.948
39.9205 190.185 81.6384
31.1549 137.187 112.193
15.4648 128.879 194.14
10.2974 159.046 101.445
47.5504 137.246 63.261
7.11641 125.593 99.1701
42.1967 148.761 54.9245
33.4976 111.537 238.427
31.6177 117.066 163.683
36.447 93.1343 106.465
13.1355 160.135 76.7541
24.2602 126.486 171.23
35.6668 110.492 74.725
30.4229 179.168 113.721
31.1334 157.983 141.992
17.7512 122.689 192.224
160.312 123.177 64.4413
11.2248 143.442 119.169
27.9415 122.316 260.313
15.2102 137.341 193.187
50.8472 134.328 56.2592
32.1084 25.4139 237.648
21.2881 174.87 112.645
30.3587 126.072 196.572
35.7691 104.458 150.807
39.7819 109.339 156.068
43.0854 115.87 151.51
20.0198 119.167 139.432
158.841 150.536 9.79235
28.7094 139.439 56.206
18.4916 157.95 146.512
7.19877 42.7078 203.032
22.3922 190.792 53.1267
19.6632 18.8356 122.73
57.1856 173.482 91.4751
14.6634 23.5155 236.977
38.1757 111.822 259.752
6.77087 139.139 98.5615
10.8242 50.466 205.7
23.982 186.95 44.6301
50.8081 93.2941 98.5455
20.0837 187.078 34.5773
30.4175 139.422 91.1468
20.4801 131.177 57.2719
21.2514 126.463 106.871
41.9439 32.1741 240.84
25.3452 35.9323 190.923
23.5349 182.023 88.0381
10.4518 131.743 133.843
58.6543 117.727 248.525
24.1331 176.989 83.0176
150.388 125.008 68.9535
9.15817 122.461 184.795
146.899 115.673 72.1648
162.227 95.8578 93.6733
32.369 141.256 152.122
25.823 143.348 146.516
143.7 183.597 250.377
26.4471 5.72029 29.2092
47.4622 116.497 238.636
43.4374 97.5935 87.9202
37.841 122.31 235.264
15.8367 42.4856 212.629
54.541 122.804 272.482
18.8322 33.6726 213.63
35.4296 130.141 252.181
18.4892 137.964 60.7319
40.0135 91.5124 95.2343
46.16 147.248 243.369
27.3502 117.509 187.083
20.6427 101.807 86.2308
71.4429 20.6584 218.949
18.6624 137.678 148.464
22.6624 32.522 100.514
19.3657 173.487 98.5782
31.722 112.79 258.165
47.9794 134.739 261.362
10.9466 116.884 96.5207
5.04845 127.548 155.025
44.4178 139.036 244.709
16.1156 146.735 179.276
30.1995 123.675 238.832
16.9976 20.5656 245.956
43.8197 181.805 101.914
50.3903 149.163 57.6307
12.325 22.1278 206.72
10.289 121.653 81.2054
14.2984 118.704 62.383
48.4519 147.212 253.104
146.745 194.162 260.33
42.1055 5.18904 48.837
38.7343 39.9596 197.771
7.22359 29.2826 204.968
50.292 109.06 148.459
24.199 128.561 196.044
8.55385 134.495 180.461
14.7398 11.3346 115.674
9.23482 188.963 53.073
9.99274 204.931 195.643
21.8921 118.061 62.1318
64.309 156.877 65.2132
42.6874 114.297 273.91
145.249 189.384 254.327
19.2629 169.161 104.491
48.2906 86.5167 137.204
48.6297 95.526 150.779
14.1535 138.988 138.024
7.39079 198.735 35.267
124.15 187.254 257.983
6.77594 131.888 119.503
44.7023 112.151 247.221
54.1001 136.792 246.968
161.092 99.225 102.613
14.5675 141.576 169.62
22.1881 167.087 134.796
27.5867 133.063 257.122
41.5891 136.454 262.292
61.9924 161.462 80.924
64.7252 123.312 254.168
28.7967 122.359 147.949
10.0295 12.6875 29.9445
30.1163 153.074 151.542
35.4694 100.648 93.9968
10.0766 2.63987 48.576
62.2758 74.1656 122.658
43.9979 173.324 130.675
40.6929 148.544 249.07
26.9833 18.1048 43.3586
27.5424 134.952 61.8669
12.5824 132.888 77.0598
73.5579 131.92 260.916
35.0865 102.426 137.861
17.9926 26.6511 194.305
15.5361 175.346 91.593
55.4015 2.89132 268.514
145.854 186.698 267.788
11.0958 131.104 85.186
13.5759 137.644 144.135
46.5544 111.97 161.209
40.4093 112.885 65.8466
28.5179 99.0315 80.179
22.007 6.74249 53.8448
37.4783 138.937 55.7073
16.9096 169.035 80.6774
57.3471 107.99 145.354
30.9441 187.464 88.6759
20.2909 38.3403 122.739
64.9064 98.8131 272.827
12.295 196.859 54.652
165.737 147.192 11.9674
25.5994 119.211 54.2253
28.2308 122.003 250.503
10.8115 151.625 76.1828
39.2699 142.367 272.326
3.70217 36.17 197.614
132.113 199.161 253.576
37.4532 183.191 95.9069
33.9153 187.636 108.063
40.7655 113.998 96.5668
9.63246 125.523 108.803
40.5725 99.5699 131.333
125.894 194.098 269.092
12.6442 154.288 109.873
104.376 131.406 180.845
49.3451 119.582 63.6871
17.7981 111.113 107.012
29.1216 6.97271 41.8745
38.0873 143.238 265.774
10.4647 170.583 97.1824
46.6493 106.956 259.91
62.5261 95.8052 98.8858
28.8682 118.77 243.377
17.8865 48.4874 202.69
155.679 100.893 74.3467
12.53 153.856 86.9574
24.9879 159.59 59.5361
40.5979 110.187 235.19
14.1192 127.408 169.132
20.0968 122.555 54.4232
71.2955 156.182 95.9171
166.447 94.4777 82.3633
11.6772 149.015 95.1682
29.5389 15.9649 238.228
24.1756 128.223 150.511
8.513 4.48849 28.4818
32.9174 112.835 250.597
8.76503 29.7865 194.16
43.5303 89.7738 143.343
31.4045 100.438 126.757
18.5269 27.6839 206.148
56.2947 97.8613 112.287
14.072 113.194 121.327
58.3789 70.5778 126.232
39.4688 126.792 273.134
29.5145 111.727 73.799
30.4865 113.568 270.356
19.5903 38.2943 245.647
28.0174 20.3409 106.921
24.6786 107.445 81.065
22.8473 101.463 111.891
27.4141 28.3252 117.279
9.71496 158.223 127.024
131.089 181.302 253.618
154.877 106.004 111.011
16.931 160.753 89.0642
42.4679 93.7556 119.681
32.8702 124.564 272.886
20.537 18.1851 41.5687
15.9231 8.49509 27.7478
19.4358 162.39 67.5654
10.7988 115.65 87.3067
18.6646 141.67 66.3998
54.8507 103.351 137.905
46.3908 104.516 74.6424
139.864 178.22 264.115
34.9548 144.926 256.158
51.4018 96.7485 86.5727
54.3835 101.091 155.075
36.0979 129.731 59.8315
55.6952 99.5082 119.981
14.3519 184.549 50.6505
25.1429 11.321 22.2228
37.7693 128.297 108.573
7.07794 134.383 173.886
10.5966 8.10951 22.7063
54.5897 90.7074 133.624
44.9447 177.105 69.4244
143.434 7.26516 2.65115
26.538 94.7511 99.4673
47.297 105.003 68.1619
24.1511 178.841 73.159
30.1619 20.4395 39.161
67.9561 101.78 117.708
66.6702 101.621 88.8704
22.8449 107.57 93.8279
21.5682 115.099 71.9418
148.65 95.1094 90.5826
53.3624 109.109 253.264
27.6933 22.8946 230.987
34.8493 13.7459 33.9306
34.1848 112.647 56.4679
37.3443 112.514 162.211
24.9707 136.864 102.681
68.5983 93.6192 270.964
42.0926 86.4173 131.942
27.4552 117.879 265.486
63.659 163.875 100.23
15.5779 164.152 98.4532
41.7507 166.808 63.7178
46.1138 98.129 101.723
51.2215 104.702 84.7265
28.7745 129.836 245.852
20.9876 147.087 58.5547
76.0716 93.616 271.013
28.1821 5.95263 49.3268
20.0111 120.886 69.4621
50.2543 93.2182 127.505
19.385 166.949 71.7314
19.5786 151.354 63.8962
30.0218 130.568 52.5237
149.593 102.935 78.7221
52.667 123.781 242.748
21.0848 114.037 145.68
37.3023 142.964 243.549
9.58101 140.798 181.053
13.3271 169.18 108.749
25.5901 199.431 33.7877
5.02053 153.237 103.726
35.2934 99.7566 145.933
39.1855 104.001 82.2828
22.3086 2.85655 9.41604
37.1682 8.39316 25.1193
8.92994 203.925 44.2548
11.3847 19.4199 99.4677
11.0132 125.09 70.2976
40.7088 91.375 133.446
30.5696 101.54 103.278
25.6072 42.6652 205.448
34.9055 133.72 266.281
5.47699 130.994 90.3231
78.0165 144.814 138.776
21.3459 150.093 146.562
13.8303 5.38158 42.6443
51.2667 95.5175 143.586
39.8385 107.153 254.316
8.08199 145.394 135.475
27.5999 136.787 192.173
36.0856 160.63 149.379
5.50335 147.41 113.793
15.3713 128.54 128.592
10.6084 146.228 85.3918
30.6886 107.948 145.637
18.3164 151.44 137.184
13.559 25.8633 125
21.0604 140.594 167.661
6.66669 5.01946 40.3473
25.0078 147.217 180.675
37.3258 119.687 153.265
18.5909 115.442 55.1946
39.0724 182.362 108.721
9.83108 126.104 126.011
23.8871 170.806 120.107
163.116 97.6749 74.3787
30.5117 32.7244 231.163
83.2951 87.2348 274.097
34.7875 109.51 245.567
16.6693 34.2041 189.723
28.2319 99.9565 91.9124
47.714 143.438 265.25
52.119 161.859 149.276
130.19 182.659 269.879
57.9779 9.14131 226.825
28.0423 106.074 122.081
45.3852 122.665 240.957
156.91 95.2745 84.3041
138.447 200.589 264.964
58.9956 97.1421 273.947
34.6266 109.672 269.061
34.7284 148.156 56.0774
31.602 177.26 119.151
82.8559 144.833 109.167
16.1641 119.638 133.071
50.7901 125.402 66.6918
13.9862 19.4674 37.9768
34.0422 170.716 62.5162
49.0322 4.02355 253.025
24.4045 19.8903 99.0722
81.0466 126.295 121.552
30.9656 176.422 125.712
20.2214 141.123 185.163
11.2553 186.475 38.3143
19.8546 4.68826 45.058
49.2384 135.35 237.256
74.7028 83.9736 273.013
16.2128 126.902 139.537
61.2224 181.662 93.7652
25.4734 105.153 152.78
43.6009 186.963 77.8075
55.3206 9.20954 259.907
15.5673 147.988 133.897
20.8217 12.8762 239.928
21.2553 19.9277 231.024
24.7809 141.227 179.566
64.6677 114.649 140.973
7.04602 39.4813 113.656
29.6216 125.68 157.763
25.4355 162.894 67.0152
54.1245 187.078 84.6443
31.6757 157.871 55.9082
20.022 45.0912 236.762
4.92178 24.0821 118.92
17.5066 154.167 68.066
146.4 183.976 259.243
66.5198 168.706 91.683
158.41 105.569 106.283
141.608 196.076 270.638
52.012 112.831 65.4614
59.6004 158.939 146.93
36.5103 128.306 267.749
28.2359 129.903 270.296
40.065 178.537 79.9023
32.2061 129.966 152.426
32.3391 128.109 174.676
60.0202 107.451 133.354
39.642 119.495 86.1721
58.4738 160.611 117.247
35.5466 156.607 59.9349
63.9043 134.964 269.512
18.0469 126.022 69.2754
25.4801 32.7402 204.058
23.7366 184.405 105.014
72.0351 158.644 87.4802
21.8744 43.5295 190.481
12.4677 137.649 67.4783
15.3544 165.172 122.623
10.899 140.681 84.8369
48.8981 90.9802 104.581
56.1438 122.785 259.711
31.433 123.815 57.4615
18.6882 6.37418 50.459
72.2445 148.455 91.5542
13.3513 125.971 121.259
52.1226 151.282 149.841
34.5744 114.222 151.877
29.2839 183.454 95.853
52.1956 116.581 156.668
14.7321 17.8904 31.0122
29.0674 101.855 138.53
124.482 191.742 251.39
43.8736 138.741 55.6611
33.2482 13.1757 43.3227
46.5507 107.093 246.179
153.183 97.7724 96.436
41.3166 188.838 90.1871
59.9653 138.982 264.515
20.7843 9.56353 40.5337
76.5965 142.699 94.0478
7.21518 124.924 151.8
40.6095 95.856 151.258
46.5664 160.558 146.73
50.7601 100.354 105.357
32.0179 127.7 185.963
43.3182 112.889 257.947
66.2567 98.9631 127.143
76.6517 146.505 131.879
21.2652 17.1179 245.19
43.4578 109.656 267.106
46.7403 177.85 77.858
32.095 178.441 74.0479
38.6038 180.08 131.78
12.2378 5.96379 34.7874
32.6889 174.82 77.6653
27.1234 141.579 156.809
147.598 108.889 71.847
24.969 180.851 98.9183
33.4796 137.419 243.742
8.176 124.167 115.007
35.0274 167.32 140.021
54.3896 165.673 142.15
59.7377 103.85 84.2036
8.38874 187.436 46.1738
64.8944 141.862 63.7236
36.0238 182.267 120.957
35.1892 163.021 56.9314
6.82105 134.52 71.2034
40.7393 2.33908 13.0177
76.7087 148.631 101.462
159.64 154.691 2.26395
47.0395 179.284 89.1446
55.3255 115.616 265.362
159.909 161.706 1.58702
51.9663 177.157 126.565
26.0719 139.551 170.04
44.742 99.8351 156.998
49.8974 186.951 98.5127
62.6865 132.663 244.332
21.5248 107.021 133.47
62.2326 111.507 155.205
50.1602 136.717 272.311
48.3582 113.446 259.274
28.711 102.072 115.205
7.23148 146.307 124.235
56.9886 156.833 68.5101
14.4668 194.956 30.8516
27.581 18.9335 30.0519
167.668 160.537 3.78391
64.4795 22.6849 223.356
39.6146 24.1824 242.997
38.4887 179.833 71.9708
26.7124 36.4407 243.952
68.0465 168.337 81.1799
12.1176 2.09303 20.8112
24.667 112.453 60.4986
5.9879 153.56 86.2129
22.1014 132.894 114.462
62.6551 141.669 259.706
75.8147 66.971 272.948
13.9455 114.389 113.211
26.5702 21.4684 248.93
29.7421 100.633 73.7772
28.3549 28.7724 253.465
49.1511 4.31757 33.8311
68.424 117.198 154.478
15.1645 109.44 95.6488
46.1509 165.367 138.182
27.9857 112.788 153.767
19.8244 101.477 123.808
56.0309 130.843 267.306
65.3833 106.364 145.857
4.21401 193.189 42.3087
140.884 104.115 89.9674
45.6781 125.697 159.614
66.4506 171.472 107.271
51.5866 184.801 106.372
167.102 134.844 69.2666
32.3545 134.976 254.233
62.9553 92.8987 113.766
70.8566 158.162 108.027
75.188 122.012 110.286
52.9549 101.437 145.797
139.38 189.246 247.408
43.7776 100.1 108.436
59.6445 116.809 149.646
38.6636 106.426 67.2849
19.97 195.518 30.3688
30.9313 96.4815 118.058
54.1721 113.547 255.644
57.0656 174.736 82.6
23.9584 104.381 103.48
38.5314 158.742 155.641
70.7776 160.496 117.662
12.4448 151.62 64.9983
73.1712 150.57 124.716
157.835 123.551 70.3739
79.6199 134.792 126.77
57.4612 117.401 259.714
35.9714 184.82 86.0241
62.0116 12.3914 221.024
39.5006 174.537 138.414
61.6426 156.302 135.347
34.4601 186.052 92.9249
67.2925 106.836 134.684
41.6717 162.558 144.738
66.0308 63.4881 273.749
55.1092 124.181 156.836
34.6975 101.795 77.82
52.7229 115.075 271.592
26.3161 30.6985 197.537
36.0119 2.73821 58.6113
142.287 102.859 82.084
15.9607 43.8554 115.757
64.216 127.628 259.171
71.3588 147.239 147.92
141.615 111.997 87.3078
31.8482 141.604 173.283
25.0645 96.3738 121.597
35.664 7.97071 48.6015
46.0262 189.223 106.314
19.4589 208.132 43.7914
66.5355 158.443 123.114
29.5667 136.116 264.137
56.9076 138.259 272.201
57.3639 132.989 262.001
56.892 129.118 66.4931
49.1897 145.256 154.362
26.1918 197.825 43.5228
30.8715 128.052 254.769
35.2348 117.134 273.511
68.9513 157.124 102.207
86.2468 133.726 259.711
7.3458 143.473 79.7084
68.9078 87.4477 273.147
52.8321 107.196 156.076
48.5283 1.80101 241.532
29.912 107.158 265.989
66.9145 155.801 84.5317
148.98 102.458 87.8665
40.3944 98.1506 138.338
29.2547 130.704 262.784
60.839 107.508 122.464
56.0219 94.662 125.393
7.41043 15.443 105.987
39.1659 135.944 271.612
61.3627 116.397 264.067
40.9315 144.626 157.787
49.7973 168.432 71.4569
75.6437 156.365 109.917
45.7867 177.53 113.611
59.1568 68.3174 274.26
42.8914 119.687 56.3718
166.732 108.378 67.2976
56.0946 184.703 97.0199
55.3994 144.887 260.412
60.1754 79.5385 273.419
13.9048 35.8318 123.464
28.9812 170.497 131.936
57.5946 143.217 249.923
47.879 173.338 137.153
58.7327 129.98 274.258
28.6036 130.622 121.652
24.7485 158.289 144.071
63.7876 86.4442 274.328
164.093 122.888 112.096
3.78697 20.6978 107.553
65.5951 148.747 80.9751
10.7141 36.7865 100.037
77.1506 125 256.436
76.9051 20.5367 226.953
76.4791 10.5563 220.5
33.0867 175.335 132.175
18.3466 115.017 80.2658
5.32636 141.65 118.626
42.8677 113.253 89.8152
15.2043 10.731 33.2439
129.013 190.313 272.148
33.3569 151.454 157.444
29.8863 126.985 123.882
19.9037 9.32781 21.0128
30.3961 119.857 106.003
9.80117 1.62948 32.0061
47.3241 160.22 63.1089
157.27 144.307 2.11522
144.369 98.2258 86.9533
47.0691 104.661 159.85
16.0193 120.67 72.9586
43.1959 126.261 55.6539
42.1029 2.58421 20.4462
72.4945 4.73598 216.862
56.7399 14.6219 235.631
62.1798 100.817 102.109
153.309 134.111 72.2561
67.5611 108.308 76.2614
25.4856 11.9891 39.537
39.7511 9.84993 18.2542
19.5644 157.881 137.079
82.1729 231.352 71.7179
6.51465 120.964 102.846
25.2339 127.967 262.624
63.6641 123.354 267.2
16.1783 113.013 85.5173
26.6042 32.5399 248.186
20.4465 15.533 29.5336
72.4915 151.04 107.019
40.6191 133.725 238.541
31.9482 127.462 92.9816
50.0454 173.639 80.533
114.161 64.8388 1.26469
78.9692 125.761 243.292
40.8723 4.79949 31.6102
57.9386 52.3235 274.602
64.3724 101.968 109.369
57.9499 139.519 66.1737
34.5049 92.9567 139.107
34.7561 91.4424 131.846
45.3493 180.43 122.45
159.402 106.294 66.8272
6.76141 133.781 110.841
132.672 199.756 265.208
58.3353 183.261 104.82
4.21527 126.988 111.121
47.5392 93.2693 122.532
55.7567 119.554 162.787
45.4474 7.17761 39.0058
71.8027 102.453 272.021
79.2763 231.274 77.5579
53.2733 152.692 156.03
25.5761 95.2708 109.948
66.5274 175.977 93.5548
17.6571 121.867 174.46
73.1104 108.493 137.391
53.2827 167.284 63.7015
52.085 179.473 91.1491
69.8269 168.508 117.351
39.9571 129.065 237.361
62.468 168.327 123.386
60.9367 101.039 150.077
5.17475 146.364 87.5474
58.393 173.947 112.271
165.041 118.452 63.6117
58.9729 171.327 116.808
23.9887 199.307 49.6994
2.02617 25.4404 113.644
27.5567 175.319 68.7063
76.2222 154.714 117.941
35.9608 126.421 161.425
79.6152 146.528 116.93
15.733 155.407 133.461
74.6602 230.967 75.6809
19.9995 203.207 33.2586
40.5252 94.273 112.134
38.0105 152.017 159.86
84.9282 134.332 244.841
60.7985 163.154 70.954
66.3959 109.074 110.119
80.613 141.93 121.344
76.9287 119.518 272.436
49.1323 143.829 257.449
54.9424 172.604 121.666
29.0253 106.31 157.703
6.46201 130.284 76.5777
69.8113 138.941 85.2493
86.6892 125.677 253.144
34.5828 136.773 155.97
80.7551 128.26 112.588
69.3094 25.4621 231.917
10.9219 113.088 108.889
30.9603 153.302 57.7985
11.5629 110.609 114.966
15.0631 6.95076 53.5733
16.0215 191.388 52.4628
18.1517 178.72 85.3332
33.1194 136.17 273.798
84.0304 134.019 114.007
23.2187 101.189 136.048
22.97 3.26513 20.1646
71.7372 152.139 80.3194
29.8224 184.46 104.849
17.5717 31.7619 97.4013
160.409 136.029 75.2745
141.137 111.811 81.1158
71.0102 114.435 145.079
67.3329 77.1971 273.775
59.6019 168.099 84.8374
45.3448 103.604 81.1659
44.4492 162.316 56.4586
50.0556 173.673 114.437
136.166 179.159 269.242
15.2706 159.55 113.837
25.4256 1.20804 58.6327
61.0477 110.236 71.0074
44.7549 180.108 118.285
48.5741 184.753 85.1194
64.739 176.191 99.9115
49.3534 120.71 244.712
54.7742 134.997 63.2141
85.8071 78.4548 272.796
69.5707 96.7563 104.552
65.3167 158.446 130.208
71.9915 109.541 84.8652
72.727 57.3245 274.072
11.6808 189.246 74.68
68.6821 159.218 74.2047
6.1151 35.3757 102.987
154.221 116.98 113.207
26.3674 97.5896 132.356
62.1949 100.201 141.169
33.9503 93.5773 113.695
38.0007 122.435 55.1091
14.0521 108.049 121.661
68.3113 152.451 74.6671
87.7579 125.323 101.232
24.2195 31.0551 254.51
45.1962 131.303 239.388
48.7514 174.942 120.328
24.2295 130.586 134.128
41.7613 143.439 241.114
62.1177 139.639 72.7606
87.0536 64.0867 274.564
66.349 124.975 151.603
14.6714 104.25 106.483
29.0818 179.386 103.794
20.7675 181.254 82.4685
47.9568 2.33587 20.8311
31.3176 7.90667 52.6745
145.752 102.979 94.61
143.78 124.812 77.2342
75.166 159.278 132.67
68.6349 162.742 142.232
57.9073 169.443 130.338
38.8145 129.048 89.0277
118.601 59.6488 0.954783
55.2188 75.7149 274.779
50.0163 182.267 119.071
43.4077 89.0654 124.842
69.6472 115.539 116.564
13.4144 143.559 63.8368
79.9243 92.969 273.839
44.3168 133.884 274.825
46.0673 183.449 93.3678
60.1971 141.117 59.0113
147.558 115.535 83.5063
