ply
format ascii 1.0
comment Created by Open3D
element vertex 392
property double x
property double y
property double z
end_header
46.2201 154.757 45.7876
141.686 182.842 66.2144
135.204 96.4038 66.6233
108.589 6.01247 27.6126
50.9604 118.983 132.365
28.7892 116.83 166.485
43.6345 91.3844 127.368
145.406 21.0609 104.029
95.1745 114.585 56.3349
136.531 223.43 93.8651
155.786 170.537 50.4389
45.5139 85.8929 122.668
103.184 8.88439 15.5413
30.2793 131.125 19.8947
108.084 163.501 95.5145
95.9171 9.79536 16.2926
35.2552 174.713 7.81125
35.0805 103.457 84.7923
112.974 163.514 125.832
31.0542 159.372 54.5486
22.9611 169.214 38.9137
135.78 94.714 192.432
40.224 170.509 54.3977
146.481 145.933 54.3628
125.103 183.867 88.885
120.069 172.672 71.8358
138.997 180.958 76.121
108.443 227.293 66.8362
31.5355 127.9 270.555
160.395 122.869 5.13336
37.3692 77.7987 265.019
51.6269 107.322 271.704
123.303 101.605 49.1193
146.43 150.103 36.3532
13.8474 195.574 3.10308
49.2577 100.477 149.374
135.804 194.436 88.5939
106.752 6.28921 20.9202
31.0386 168.912 50.7096
134.923 168.787 49.5292
131.179 151.391 98.0753
32.9234 171.465 32.9426
142.545 230.348 81.902
152.696 159.719 50.3258
39.88 166.352 38.3719
105.442 10.3858 2.82462
42.4857 158.513 52.7277
50.7282 151.582 31.4314
157.656 198.401 64.0908
146.505 190.322 64.7464
151.609 174.46 55.3262
39.2318 146.528 37.6213
99.5711 4.98607 8.20139
45.4905 101.034 265.068
104.801 166.757 86.2654
152.786 218.125 108.651
124.769 190.196 81.2984
130.402 151.245 54.3948
30.8887 153.482 28.1659
46.6099 142.672 33.1742
33.6756 136.299 48.1411
146.515 157.274 102.916
140.929 216.742 87.6199
37.0086 116.244 267.544
135.691 156.109 78.6305
130.789 188.752 66.3259
132.007 157.757 85.7815
46.9119 112.358 267.091
125.189 153.936 84.915
122.64 201.654 98.5323
14.647 157.463 46.7448
36.0334 214.957 212.881
54.7242 107.5 135.799
128.88 147.663 80.6284
43.275 90.7118 271.303
124.131 150.09 73.6599
152.444 218.922 114.433
144.624 168.363 57.501
50.6138 162.012 27.6854
118.115 154.017 81.3215
125.981 146.571 95.1104
39.3442 161.814 61.4469
151.009 166.235 74.3388
118.014 3.50226 14.2447
132.264 187.084 84.5679
140.954 224.765 71.6169
18.9626 96.9963 253.628
50.6643 226.345 213.989
17.7368 100.377 273.618
119.779 180.101 76.8068
131.458 16.6947 272.504
136.817 164.31 59.2206
23.4425 172.995 44.135
125.506 155.578 94.7111
38.8442 145.677 29.8005
42.1018 92.173 120.368
119.243 160.536 122.936
37.2427 180.69 59.0323
18.4219 170.861 29.7716
143.963 119.404 52.9579
153.001 171.762 63.8474
117.37 183.946 68.5657
44.3094 127.339 255.072
114.326 164.961 118.711
34.8162 96.9076 265.708
12.6719 98.5291 261.432
95.9051 139.501 125.912
109.967 216.003 60.2985
48.2745 206.372 233.395
53.2176 113.114 133.266
86.4885 101.917 203.107
133.155 196.249 58.4601
42.079 155.992 6.62939
120.818 175.322 84.336
25.3667 76.5191 268.921
131.19 141.689 66.4116
163.254 218.507 17.6655
14.3629 138.372 262.063
144.493 213.327 60.606
13.659 153.324 40.2461
156.357 230.569 18.6027
100.037 14.0802 8.99055
25.2768 151.997 21.9935
20.091 158.63 23.9628
159.958 223.514 11.2388
120.331 166.98 80.0353
32.435 91.8502 272.421
49.2108 161.032 36.8146
35.6994 142.034 269.027
131.376 202.597 90.5834
111.532 158.964 101.238
129.581 206.215 62.495
34.8561 184.217 49.0683
137.007 180.879 87.926
19.3885 110.017 260.857
138.669 179.034 60.1394
37.8494 132.461 261.818
140.65 227.423 106.733
148.901 172.084 70.3486
144.885 194.875 71.8569
20.6534 159.021 41.5443
146.76 218.868 95.8308
136.348 143.502 57.5988
140.387 155.781 62.0916
61.3171 165.456 249.95
155.237 199.577 105.568
45.2763 78.8644 124.088
141.685 138.459 90.2504
35.7146 161.735 45.08
23.9596 96.0027 265.112
125.384 132.661 57.073
138.589 187.115 81.2776
44.328 220.186 215.673
139.41 147.916 54.1196
44.9462 129.946 273
146.178 152.91 59.5921
130.82 161.909 63.3541
136.611 212.703 95.2772
132.719 140.703 96.0336
25.6515 102.822 259.245
161.916 191.495 84.5368
114.78 160.122 84.7854
128.123 164.486 80.2266
143.874 164.297 44.5069
148.989 199.832 107.922
32.7765 137.75 42.3657
159.869 155.057 70.0183
124.856 162 87.6795
127.062 192.249 110.363
129.573 204.288 79.3344
42.0135 165.956 27.617
32.2801 123.609 259.671
21.3037 124.781 273.207
126.471 179.654 65.6367
143.014 133.568 75.6194
137.026 164.777 73.4986
124.519 156.382 69.9328
149.486 160.297 95.8705
142.48 170.188 94.3489
132.303 173.232 71.7067
116.451 217.358 46.1439
143.933 175.83 83.03
46.8086 90.3578 134.389
90.3423 74.0722 109.255
45.0183 103.769 137.989
130.692 180.61 76.9477
30.9366 175.187 41.2626
168.966 137.797 53.2211
142.088 150.814 79.3574
133.687 157.427 66.608
54.8781 102.721 140.816
55.384 102.998 261.784
95.5126 73.0173 114.834
145.204 164.187 90.4355
109.384 213.381 53.6915
19.5778 157.191 5.62506
74.4612 135.992 28.7559
156.378 180.465 52.168
23.3834 122.073 265.38
114.543 228.552 46.4243
112.788 160.15 111.881
31.5994 98.5244 85.1041
122.787 206.826 70.7799
27.0933 163.959 45.8676
38.6338 108.514 263.206
127.055 169.893 61.9704
141.396 210.496 69.4695
153.793 186.412 67.7127
135.298 200.413 73.567
41.2566 109.551 273.01
136.036 164.085 92.2733
27.3465 102.874 269.437
51.2082 172.727 44.7485
83.8643 179.787 35.8483
143.056 157.187 69.4601
134.782 173.778 80.5277
138.23 205.275 81.5727
138.484 205.762 63.7129
37.7626 223.609 213.642
35.5365 164.066 23.0071
30.2421 117.066 258.231
58.7166 152.22 46.9441
144.162 177.657 97.536
38.396 154.155 21.4478
42.8325 93.6801 138.944
81.5026 178.679 43.3229
139.633 139.847 100.993
142.574 171.918 75.4316
39.3573 84.4985 273.444
48.81 97.4025 141.094
47.0861 214.832 221.796
8.23695 126.887 273.506
110.064 222.055 72.3436
6.51437 121.22 270.045
28.2524 79.2792 265.488
45.9269 172.824 38.0147
141.369 171.731 65.3783
141.009 176.232 53.6922
113.469 167.645 84.4513
17.7641 156.721 31.7541
143.721 202.369 71.1135
50.8629 156.819 53.5424
153.482 196.563 97.9887
156.679 224.858 4.85093
117.886 169.877 94.1372
141.561 150.029 89.3345
148.169 200.821 57.1945
124.707 187.733 71.4598
129.049 145.646 58.777
118.446 157.285 102.67
131.166 185.366 105.812
130.916 172.209 55.7573
32.9695 150.695 18.0249
38.5204 176.135 40.9126
123.011 164.12 67.8234
46.2939 83.2143 130.794
58.7023 160.996 31.7463
43.7586 178.147 50.061
40.9345 169.254 46.897
48.5586 90.3282 140.43
36.5811 156.316 35.0306
36.6663 129.046 249.14
27.5375 135.723 271.545
136.141 164.949 80.8626
145.573 178.308 89.7402
139.585 144.35 95.8136
143.738 163.252 77.5897
128.641 176.02 90.0604
109.003 161.173 87.734
32.9549 144.647 26.019
17.4525 166.538 39.4697
147.496 222.776 88.155
25.3363 115.145 254.985
84.2593 170.492 39.9456
162.687 169.099 93.4521
157.363 225.157 17.3885
87.4305 165.839 36.4349
52.8714 98.1069 270.792
44.7801 119.079 273.145
29.8031 107.918 252.422
32.5523 144.103 51.9783
148.035 149.137 86.1736
23.2876 107.925 273.412
24.7482 111.476 266.253
58.8153 103.48 273.929
24.5224 159.27 59.2382
21.3406 142.867 255.572
38.5492 138.156 273.818
154.103 221.269 91.7728
132.81 193.852 79.036
34.9491 136.011 249.876
120.953 147.852 88.708
147.438 179.732 62.2454
167.604 230.369 112.231
152.488 169.589 82.679
156.674 149.927 83.7809
114.717 1.76976 26.1819
147.754 205.02 58.3224
122.233 192.477 96.0775
60.8671 99.167 267.654
30.5759 109.366 273.398
24.8834 93.7539 273.647
78.1102 201.673 197.115
35.0576 47.8935 91.6584
133.845 172.057 62.6291
11.4441 135.562 261.197
151.037 145.773 69.3409
113.82 172.514 77.1435
165.215 225.075 95.9398
162.206 150.419 75.6544
137.665 171.414 88.3151
159.515 162.255 81.2297
152.652 156.488 80.5136
108.091 3.57188 12.0014
23.7828 138.922 258.788
35.4431 207.969 220.098
135.74 147.257 72.3262
113.578 1.60875 20.1153
28.8473 163.458 36.1994
139.013 191.279 71.7731
33.4652 127.222 247.021
31.0329 108.649 261.776
149.678 179.072 81.7949
134.989 147.777 86.0092
24.8252 117.103 272.885
146.66 213.848 83.6415
41.7529 210.115 216.304
132.197 150.519 71.9815
128.456 171.009 81.7299
151.062 165.689 89.2633
8.57601 123.95 266.97
127.811 191.058 98.7168
42.4026 156.669 31.6954
115.506 4.12784 4.90109
134.882 154.235 58.0833
166.063 171.681 73.2325
138.471 214.19 80.9347
49.9494 123.162 274.198
42.7055 166.354 18.2618
146.862 198.165 111.916
31.0998 153.519 37.8643
18.8159 160.761 4.27643
42.2518 205.965 222.437
84.5809 182.208 53.7877
50.1282 92.8338 274.13
17.9376 90.6713 272.906
81.3731 181.627 48.96
131.341 193.533 108.477
34.7122 163.103 14.0225
57.9628 119.642 271.918
23.9403 220.162 1.36726
50.376 97.4234 259.044
44.3252 92.281 263.482
34.3149 133.564 253.712
18.4362 110.918 272.298
151.917 145.96 53.016
119.868 1.25085 32.4987
33.8387 104.875 257.911
143.728 188.627 77.3468
73.0699 202.825 197.463
109.41 230.855 48.8158
33.4402 134.143 265.847
25.1671 166.027 29.8802
145.923 156.011 92.294
141.484 193.993 80.242
155.154 180.725 75.3269
37.5815 154.715 4.65159
107.302 1.47181 2.93416
149.445 149.369 48.3396
75.8851 185.122 52.5143
53.4504 155.969 61.747
165.97 177.388 93.5126
154.628 154.246 70.5063
22.4633 135.637 262.916
157.064 167.962 89.6781
77.8626 196.252 198.017
24.0716 106.496 253.753
43.9998 96.8896 274.579
150.644 153.277 43.6911
80.8426 200.699 192.722
141.949 228.949 110.366
55.1171 112.718 273.792
27.4212 162.29 26.4916
94.1704 69.3793 108.444
142.136 145.784 59.9708
43.2056 74.7792 272.341
45.5686 84.1456 273.972
151.889 176.7 96.5443
168.912 183.777 94.1925
77.4391 175.114 38.6854
22.4006 152.109 31.8806
83.3524 204.613 197.628
