ply
format ascii 1.0
comment Created by Open3D
element vertex 386
property double x
property double y
property double z
end_header
5.08527 80.5601 130.911
22.7509 70.5125 90.2119
10.8963 125.154 91.4899
17.9994 168.173 165.356
21.9766 133.614 87.9023
14.8204 165.792 85.3429
8.27888 91.674 59.7285
7.70754 130.021 79.0635
24.9492 171.668 80.5004
18.2911 138.355 120.809
9.40466 130.056 28.4811
12.7887 130.494 103.727
3.65985 94.9987 85.2136
26.0617 158.111 123.621
17.8847 150.911 54.5394
44.0499 87.2794 104.599
3.69959 112.139 76.8381
18.1143 146.184 86.8548
22.3825 137.486 28.6211
15.0006 134.701 154.933
5.16097 113.692 112.745
13.2499 147.667 151.687
16.587 159.645 68.4996
4.78835 152.116 66.8111
22.4167 188.692 114.4
3.5678 127.293 100.434
52.0581 166.13 133.445
7.86896 122.839 126.608
24.0548 125.403 90.3224
24.8507 113.496 127.408
16.6713 140.49 109.176
7.42496 124.559 111.802
27.6791 152.451 114.799
50.6762 164.948 95.7476
13.8511 95.5692 113.503
5.07867 166.702 76.9989
22.1183 161.385 60.4769
2.75366 150.755 155.705
22.2542 86.6185 74.3489
4.76954 145.281 96.5773
11.4272 163.766 102.068
43.5868 160.031 101.902
39.746 162.626 85.0992
30.447 160.069 133.041
4.31168 163.624 180.096
45.4302 159.599 79.2983
33.2377 125.467 121.736
39.8649 117.06 59.3333
3.04264 144.116 86.7003
3.23804 172.205 85.4834
8.7243 177.202 78.5594
3.99456 153.959 100.742
38.1228 166.48 165.217
32.4683 110.621 35.9157
22.6307 122.087 133.164
5.88774 170.771 158.521
25.6997 126.243 107.458
3.71428 133.562 120.807
4.03411 100.348 50.8099
44.4058 100.946 54.4327
55.9356 147.81 100.824
24.6043 157.754 78.6855
26.9799 145.598 121.1
9.69602 158.508 136.667
10.5696 153.866 182.974
32.9405 135.418 87.7112
62.1747 126.319 108.193
3.73366 143.824 144.251
4.17592 107.891 41.9896
10.7629 145.878 173.401
29.7119 157.016 172.229
3.87303 113.199 106.171
38.9279 157.229 55.2967
40.9799 164.398 74.8242
50.1179 160.128 86.3248
21.0877 147.133 127.529
30.6578 172.715 123.135
30.8666 139.718 112.792
10.3117 93.0886 95.662
9.57918 133.624 130.482
16.189 157.573 148.334
2.98065 128.365 156.779
30.2818 179.85 155.798
35.1748 151.519 165.586
53.0085 109.152 129.943
3.56865 118.767 99.562
31.0226 136.318 139.854
10.9375 113.413 70.1828
32.8943 133.206 99.6397
26.9649 121.995 28.4999
28.505 108.912 164.291
2.90636 112.92 88.0111
40.351 147.772 121.547
43.6055 83.8909 67.0306
44.0267 142.416 87.6971
3.3073 146.906 49.2592
20.5435 166.701 156.149
8.60765 179.199 163.537
50.5428 139.879 80.6186
14.5035 184.619 168.033
31.7566 167.003 115.68
28.651 142.764 96.2762
4.62223 81.5734 117.454
27.2008 167.722 66.6693
10.6631 169.523 116.213
19.8167 142.683 79.5442
23.8027 164.861 86.0658
11.7021 125.927 150.416
31.9155 100.78 71.4148
27.9939 159.755 111.897
25.9297 186.58 158.194
4.14027 133.62 90.8665
18.059 129.462 26.9728
8.94873 182.347 155.273
53.1165 157.199 105.746
5.83024 156.646 188.242
41.0404 172.178 93.3599
40.9823 166.203 124.993
38.1052 129.096 130.897
26.8858 194.224 136.36
23.9618 179.088 164.971
26.9846 155.426 48.1987
32.6949 190.768 119.962
33.5405 163.967 79.0144
22.1451 99.6848 107.474
42.348 114.542 90.1579
22.2681 148.825 167.887
6.30368 162.094 126.665
13.7016 89.2058 82.2763
30.5805 88.8859 79.8574
43.7551 179.143 142.406
5.22782 108.449 30.5318
6.67741 176.073 177.369
44.3337 129.671 44.946
17.4716 109.151 42.534
18.386 136.227 178.821
21.989 135.558 107.787
14.8561 192.203 154.663
56.726 95.4311 92.4782
40.5856 152.412 74.3285
7.37502 102.4 113.27
12.0673 142.624 34.4821
29.0805 199.54 142.632
8.07434 147.146 132.364
7.54499 124.647 169.273
50.5206 89.7773 119.368
30.7539 135.055 126.974
53.2708 153.455 72.2294
4.24437 136.065 102.337
22.1199 149.582 150.731
60.18 108.522 109.734
7.12802 146.203 108.95
49.0868 149.367 113.512
4.81119 116.458 61.9869
36.1651 117.943 84.2976
14.1871 162.028 55.3196
41.1921 119.255 135.909
30.7081 162.07 166.127
23.8432 158.071 153.881
16.5355 144.116 184.49
39.4445 135.061 93.4759
33.7298 148.765 131.094
32.1911 133.239 31.857
25.8145 147.59 29.2051
15.7756 199.375 148.606
4.52701 166.253 102.71
24.7628 166.618 113.934
20.108 110.524 53.6814
55.4679 145.183 110.165
26.1342 165.992 182.587
7.01963 114.938 51.7453
56.6798 176.459 70.8586
15.5336 165.324 176.759
17.5109 142.348 174.693
35.8711 106.179 52.045
18.3323 174.967 73.1783
3.09828 123.836 42.8367
19.0205 72.4354 100.077
11.4249 172.475 107.751
14.5453 126.991 166.675
44.1293 91.4536 115.28
60.7205 112.194 118.487
21.4035 150.915 138.086
10.3874 113.421 127.504
30.9781 103.586 96.4157
13.5722 139.043 164.568
44.0237 155.194 93.4384
30.3025 132.187 109.003
3.24548 164.178 273.29
33.1378 91.1609 93.3552
23.5287 136.528 81.9192
69.8219 121.607 52.6618
44.8312 119.739 49.1366
12.4882 111.693 53.664
13.1757 87.8577 69.1036
13.2459 127.041 128.619
45.6719 112.13 57.3025
13.2761 119.136 44.6599
16.9434 187.404 126.626
16.6087 111.662 127.765
23.376 111.233 26.5684
64.9765 119.659 94.1375
3.24918 137.811 70.4447
14.5901 142.715 94.7168
40.121 126.052 33.7057
19.0555 149.774 44.2821
60.6649 124.911 78.4336
5.65316 84.6878 83.273
2.88139 100.111 101.69
3.78522 141.439 58.5129
11.6963 141.241 273.913
40.3885 97.0187 76.3807
2.69148 90.3155 65.2601
6.33561 161.228 115.202
11.1139 142.315 141.567
43.3022 182.756 127.669
35.6713 174.714 85.1533
20.2227 120.309 54.057
65.7117 102.869 91.6507
19.855 123.559 158.36
23.4805 193.504 151.145
32.6255 191.931 144.307
48.4456 93.2334 83.9033
40.8887 172.041 153.972
30.6704 94.2597 62.9321
6.27625 170.077 168.213
23.9424 140.127 59.1975
37.9996 126.682 104.807
3.35345 157.966 58.0441
14.6233 150.463 186.58
24.2457 90.6378 95.5087
62.247 143.271 74.6463
50.3614 153.996 145.623
29.9169 86.8689 117.851
20.1386 103.284 34.5439
20.4456 138.152 69.4483
40.0702 110.941 129.672
32.3498 183.689 109.769
33.0961 119.517 137.942
13.6067 166.465 69.9947
16.3086 173.932 123.762
43.746 100.501 127.072
57.9368 95.8307 107.186
52.0033 124.426 52.3471
16.4239 104.578 83.2946
54.1274 161.765 126.482
35.4501 145.653 155.526
53.5113 123.664 61.9995
13.6353 177.039 98.8729
56.9487 101.848 120.003
27.385 105.269 130.392
50.027 117.89 134.697
52.7742 155.774 132.338
17.9893 181.152 159.021
4.63649 139.468 42.1123
35.7298 118.385 38.1747
30.1837 99.8828 121.263
25.1607 178.448 93.4629
3.29361 138.172 181.339
11.405 149.475 44.0805
22.5507 104.681 55.1584
57.8624 130.536 111.251
44.7643 89.5782 94.4691
2.78401 127.416 55.8512
26.1956 128.678 149.496
44.2024 148.957 153.926
27.365 95.0201 109.047
10.7358 112.837 107.172
9.38944 154.018 49.9335
20.6017 129.48 153.835
52.2042 112.791 113.857
24.0443 201.086 145.556
64.6278 101.71 101.777
35.3842 104.777 126.477
3.4781 158.508 168.31
50.8981 150.572 102.193
11.5726 103.795 62.7815
37.6218 158.29 115.886
28.1661 140.371 71.0358
13.1344 129.479 136.376
34.3087 109.051 43.4767
43.2474 144.628 140.456
7.45261 97.8203 74.3893
21.9847 128.827 140.87
38.5126 104.854 81.5922
2.34682 112.586 145.503
34.433 144.057 80.2772
2.66626 158.972 89.357
40.7228 142.478 37.6341
3.72678 134.706 32.0712
12.6464 154.356 174.379
60.5498 123.693 100.439
17.6365 151.852 267.309
43.7534 144.025 69.9504
9.30571 187.054 139.398
38.2299 166.077 98.5285
1.91607 147.697 187.26
24.4553 138.642 153.644
50.6458 146.052 125.68
40.7214 121.973 42.4648
9.93188 155.249 163.876
28.7379 171.922 160.355
3.23023 141.495 129.613
39.4618 90.2772 81.6803
50.7722 132.407 133.678
41.0836 145.639 78.5728
18.013 111.847 25.2277
52.2595 156.564 119.163
18.9227 125.811 101.986
34.2664 174.372 113.487
17.5262 106.987 103.337
52.8799 133.663 56.9519
18.4395 177.067 107.813
55.974 106.462 83.1457
33.6049 152.652 32.8
3.05772 103.988 63.1794
10.4285 184.643 119.95
50.2108 165.955 116.705
37.2032 162.963 63.6619
39.2798 172.75 103.742
51.7592 139.617 117.707
22.737 111.852 99.855
49.7785 125.432 134.212
57.9345 134.925 78.9125
35.4199 174.665 143.101
1.99981 151.392 184.118
12.6186 121.711 156.429
58.7236 132.223 119.894
8.74308 96.7437 126.639
32.2303 89.1517 108.523
29.7601 181.578 101.905
40.197 102.653 68.5558
5.70551 150.063 189.282
38.6909 169.528 82.2913
52.5224 110.918 60.7108
24.8138 131.364 36.7638
8.17064 167.904 125.114
33.9233 111.766 88.9217
59.2164 146.361 87.346
47.0453 148.882 92.263
55.832 96.3319 100.111
43.5571 108.597 74.3366
54.7571 120.789 113.852
37.4384 189.654 130.688
34.6592 185.566 152.38
34.5735 100.761 58.3213
48.944 98.1664 108.987
66.4283 116.106 105.284
27.8314 100.968 55.609
48.7251 142.536 66.4454
20.9203 102.649 121.939
51.503 167.814 147.239
30.2329 146.921 150.838
10.59 83.754 135.623
44.8586 191.022 137.325
59.7672 118.308 85.7522
15.7653 110.125 56.7848
23.1898 106.145 98.1561
34.8291 94.5918 111.61
8.29118 163.895 148.418
37.2805 166.265 87.6343
39.4765 137.905 72.685
39.6665 157.734 155.128
45.3435 138.292 126.309
16.6321 126.386 108.612
54.0455 136.824 108.536
19.3489 150.018 184.103
51.5191 115.302 74.6739
19.3277 167.757 72.7309
32.6807 142.546 146.99
34.469 137.422 68.4652
38.0817 113.075 48.0803
57.6433 94.7349 67.1824
4.7975 92.4769 135.259
20.3189 161.379 178.777
49.0344 161.792 108.776
6.6571 167.477 146.027
21.1685 153.591 112.324
13.5354 115.679 132.357
60.2448 139.184 104.043
66.562 134.724 95.0012
62.594 130.144 69.3412
48.2628 134.446 108.265
47.9031 169.384 110.919
16.2582 100.1 103.36
18.2035 180.389 95.6777
