ply
format ascii 1.0
comment Created by Open3D
element vertex 880
property double x
property double y
property double z
end_header
37.4478 92.0124 173.633
4.45245 111.97 158.54
6.88808 106.843 165.465
25.3943 165.838 137.857
39.1006 100.829 126.256
42.4697 111.239 194.217
28.3914 173.111 112.984
31.1569 123.577 109.936
36.2066 57.3572 116.634
17.3038 101.006 136.563
157.737 21.7634 158.907
8.23066 110.343 118.206
47.2204 134.571 97.4343
15.4392 83.0365 121.624
18.4981 121.658 187.985
39.496 76.1804 179.894
49.4109 97.9205 213.472
31.902 78.8471 97.1494
23.3076 77.9746 163.663
31.5081 79.9207 82.5423
33.5626 76.8153 125.054
44.0109 162.185 105.049
36.5847 143.538 88.7487
19.4699 111.208 189.372
40.3236 95.5954 198.462
35.2724 159.126 209.434
42.1214 97.3388 71.2322
21.1678 163.125 153.238
11.4259 143.701 198.438
27.3744 108.325 204.381
17.2376 43.6816 241.27
76.2125 57.9597 173.421
49.2101 29.5805 245.474
18.114 167.18 161.436
21.5152 134.888 147.811
5.31416 96.8403 123.837
25.5773 53.0068 123.445
19.5674 28.5349 254.411
11.9236 99.3886 119.202
33.6078 147.474 199.836
35.8884 179.403 189.411
39.3463 169.824 133.768
30.9065 104.658 134.507
48.8485 136.718 161.799
26.1984 86.3003 200.881
33.8467 158.063 130.939
52.6167 66.2598 91.1392
30.6839 62.9671 122.082
25.9611 107.86 170.632
26.1421 146.157 192.98
30.3381 77.7712 142.361
25.7142 156.427 143.096
54.6432 11.0383 246.989
21.5719 117.385 133.208
13.1319 79.1131 148.798
43.2499 147.928 90.3765
23.3021 136.129 139.13
14.572 125.769 139.719
9.6812 70.2173 145.129
38.9138 90.1938 140.929
26.0505 139.062 200.884
42.5521 62.062 160.307
49.7545 141.54 85.9585
20.6632 70.5974 138.806
29.3682 126.398 135.828
10.0243 104.299 112.151
27.9319 35.6472 246.836
17.6445 100.654 179.33
50.472 127.539 199.66
23.8802 63.3556 128.144
15.3553 31.724 264.672
40.8695 178.51 109.905
9.01793 30.3288 264.149
21.6627 115.557 200.048
52.9135 61.7993 84.734
27.0675 119.54 206.52
133.586 22.3184 89.4765
33.0127 121.647 174.284
41.4482 177.222 183.497
50.1766 197.393 141.077
40.6574 180.464 151.034
9.87649 136.044 203.763
29.6781 149.087 139.31
41.7639 118.74 209.533
11.2157 123.829 151.652
45.518 64.7063 97.4039
35.6094 171.508 144.294
26.1053 68.6771 165.965
37.5579 174.493 200.324
38.4497 68.0711 165.737
52.7546 160.405 112.498
26.3093 123.637 128.322
18.3585 111.81 155.668
45.7615 186.962 122.738
34.7165 70.073 85.5087
31.9207 194.236 136.472
27.4382 128.278 203.893
19.3332 80.5441 102.135
37.2228 180.241 127.319
40.2074 132.844 96.757
39.1287 74.4946 133.626
25.8185 174.145 190.39
17.8254 87.6045 143.575
54.0784 23.0231 242.383
49.5328 55.062 105.143
6.873 78.0161 139.623
53.6928 4.31932 247.148
48.9484 84.1474 171.534
43.8774 172.133 101.887
41.8107 152.552 98.8575
23.0343 134.443 169.458
72.5255 67.7065 176.118
50.4982 87.8942 197.138
28.524 198.437 153.516
10.6901 130.826 172.012
62.3461 178.909 142.575
15.4487 137.446 193.083
44.4619 87.4661 113.403
48.0998 178.204 122.986
32.3182 67.0736 174.634
36.1498 161.063 96.438
13.6383 134.856 144.963
13.4392 93.9733 93.8204
50.1327 147.336 211.468
18.9909 143.291 107.673
22.6761 68.2768 113.403
26.1439 3.12773 266.43
70.0204 196.828 154.112
65.0797 87.6866 171.268
30.2567 110.945 149.706
52.1387 16.7386 245.757
37.7292 107.768 204.734
4.86837 138.417 162.394
28.8812 131.941 183.384
45.1445 93.153 180.702
47.0959 103.335 186.713
22.1132 94.1957 117.902
17.0494 156.092 157.627
21.743 83.2394 129.573
71.2823 192.528 139.507
40.8021 199.068 168.244
51.6327 164.638 208.701
51.994 188.626 110.418
49.2605 168.658 190.77
49.1441 3.49887 260.115
40.3223 162.97 142.544
19.9791 127.73 195.818
39.9193 84.6064 185.333
51.2148 148.959 219.988
52.2752 114.875 199.412
24.6163 155.249 164.837
74.9117 75.1362 191.572
25.545 108.238 186.598
24.4809 117.542 141.548
9.58637 68.9805 136.415
29.1195 77.4273 157.041
23.6907 126.446 142.831
45.9141 69.7982 138.073
24.8649 172.378 175.573
9.32235 119.057 223.357
34.6794 146.472 180.132
16.507 102.598 170.794
55.0778 88.6306 68.8285
38.8945 69.7391 114.898
40.7077 148.411 217.816
23.1448 180.436 141.389
26.4022 71.8994 105.038
32.8091 157.637 155.308
52.5904 122.798 213.572
43.1818 164.769 206.715
54.844 174.807 112.482
48.3224 139.481 201.247
10.6144 71.6839 117.867
16.8141 171.132 171.071
6.46177 157.15 179.432
51.8717 194.703 129.606
26.6067 119.166 118.412
19.9158 108.524 123.501
20.2632 127.693 118.553
44.895 132.373 208.954
35.0616 137.553 93.7296
41.9021 63.1767 145.76
52.8538 170.301 135.299
95.4418 46.0772 206.781
48.7314 92.9094 202.593
10.3528 106.592 85.3177
17.0374 93.1222 124.032
39.7204 107.616 133.303
16.6487 121.497 170.594
46.5751 80.9831 180.392
42.5375 192.035 131.421
64.52 79.5826 85.8201
34.7309 121.183 121.866
33.3305 115.997 85.5297
45.8824 202.554 134.61
44.4707 114.138 85.0598
29.2702 113.356 109.216
23.9605 77.3896 89.3223
166.353 58.2704 100.083
8.95727 43.4752 249.139
31.1453 181.413 157.755
21.3276 98.5279 190.321
32.3396 136.798 156.395
27.2891 142.392 211.594
45.1935 167.311 182.666
25.9968 126.216 171.424
40.9217 116.498 115.253
32.7389 83.9083 134.179
28.6159 102.234 90.0941
31.2971 134.417 174.524
37.3964 131.288 154.849
28.6362 96.9137 139.677
32.3532 192.241 147.167
33.447 124.696 101.755
44.4176 83.6047 139.448
16.7794 157.688 166.221
4.02876 119.964 127.878
34.718 172.677 176.126
35.9811 144.576 153.506
17.2709 135.704 130.741
52.8417 198.043 117.92
50.5038 60.5361 158.11
56.0018 78.5755 86.5942
60.4164 92.3871 71.593
25.6425 151.115 208.063
11.9273 105.754 150.657
4.98525 91.9343 132.075
37.977 130.367 146.322
32.4081 88.3512 183.301
31.5797 66.3126 109.881
33.6333 47.0605 138.206
43.4051 125.751 79.0456
26.5007 125.117 192.732
37.0746 152.779 146.017
128.5 21.9439 91.0228
48.1329 92.8177 145.134
57.4907 85.0364 169.249
43.9698 115.328 217.542
26.1702 39.3362 258.714
9.40795 102.163 133.517
47.3126 66.2919 127.293
29.7189 164.395 192.229
64.5241 80.7468 190.894
24.5449 65.9265 149.554
38.0758 124.99 196.505
34.318 68.3217 142.102
16.7766 128.636 179.424
25.9543 141.137 130.227
25.2028 102.695 98.9249
18.6096 47.2695 252.624
10.7135 100.392 214.579
21.4028 134.854 124.034
25.5859 107.011 142.948
12.319 34.4993 246.889
28.6526 190.194 162.665
19.2746 56.5794 111.021
45.4196 118.71 121.136
39.3039 83.3629 88.7049
16.6158 148.316 160.697
34.6418 94.6949 94.3295
13.5013 68.3767 112.08
5.47974 86.0145 151.965
58.9774 71.6913 99.1384
14.8513 109.315 163.355
13.0999 123.48 198.07
15.9707 165.288 131.401
61.222 68.4177 107.563
21.7197 107.033 154.703
28.8469 187.113 151.963
4.04407 97.119 115.898
34.3279 181.004 147.904
32.984 161.08 142.086
53.6063 189.593 147.47
44.02 65.6043 105.756
22.8706 77.8059 146.074
4.55259 130.496 166.351
31.927 181.762 137.139
42.6871 69.8336 155.266
27.0809 102.118 198.036
12.0949 117.845 159.587
34.4264 154.528 175.872
66.3806 50.2674 138.708
42.9525 123.17 105.993
62.225 66.5688 170.716
7.33685 87.2792 138.829
32.9763 87.7172 209.853
46.1264 165.176 163.559
44.7272 163.082 93.4533
7.09506 109.502 127.735
17.3188 66.6901 146.703
39.5976 69.8085 123.364
39.2939 3.83288 266.674
36.4932 193.125 158.581
51.8084 4.75396 268.587
19.0774 54.7208 128.241
43.4553 83.5553 70.7158
49.3984 128.179 186.745
34.9934 104.75 144.91
45.4642 189.229 153.869
60.882 137.202 89.0357
18.8823 150.844 138.78
12.8678 91.2422 174.388
74.7575 185.465 194.089
54.9837 82.8002 140.513
60.0114 69.9234 88.3078
55.1041 203.445 156.241
56.4044 101.288 194.724
22.6692 184.072 174.444
15.6129 36.849 254.571
62.8393 187.662 150.136
42.9076 86.7459 196.385
32.4211 112.532 189.975
11.6802 173.649 165.476
11.3463 97.5423 104.838
20.1707 123.565 152.284
77.8597 65.8464 168.244
30.6417 92.3994 156.36
32.3552 67.9744 98.5803
63.4464 112.746 212.693
29.8366 153.87 112.912
19.7297 89.1397 169.069
32.2525 108.416 127.976
35.3169 202.677 146.806
45.7693 105.46 198.856
55.3783 157.271 135.437
25.4519 87.8976 192.429
27.1431 81.6999 183.953
6.06485 87.3446 119.9
59.4759 59.8866 156.72
58.686 169.824 196.514
11.6311 2.78855 252.445
31.6521 59.6066 106.6
60.8516 80.6518 109.497
41.8673 146.383 192.552
26.2144 89.4701 135.391
63.6909 196.748 162.893
35.9861 124.677 159.973
74.1532 83.9784 206.011
40.5708 89.3592 151.142
18.8178 172.753 177.979
51.4351 71.8132 143.811
52.7884 41.8097 242.491
17.89 156.793 130.645
50.3025 178.989 193.329
26.7598 89.9118 103.501
11.1612 148.909 179.383
53.4326 89.7726 77.9452
46.6156 163.186 155.083
30.7503 82.3869 104.53
41.1213 132.773 88.1383
80.7371 198.077 155.603
30.3209 119.086 164.177
54.4557 181.989 156.777
27.5323 69.7649 135.73
55.9044 146.883 158.661
14.1124 110.665 133.871
53.1633 163.878 96.6006
13.8641 140.47 166.961
32.6753 97.7131 167.407
46.7637 173.858 129.813
56.5409 80.2473 197.061
5.93083 131.625 154.739
40.7727 97.5386 188.705
19.8153 101.253 124.484
43.6811 97.6944 206.816
74.7459 165.505 119.33
107.907 78.7218 57.5924
50.3164 103.877 129.552
78.2702 86.9594 192.422
38.3558 157.973 114.574
39.9685 168.451 191.17
30.9732 122.239 183.266
11.5415 135.558 155.05
55.8092 186.994 130.927
56.5457 167.741 141.144
28.3096 170.563 146.657
30.905 152.522 213.918
65.4204 102.869 209.732
16.501 110.144 142.612
11.6037 141.425 115.901
44.3757 93.01 119.8
53.8088 59.9295 179.594
40.6264 192.872 147.643
44.0835 156.421 210.228
37.6506 111.563 170.763
17.9766 53.9517 245.426
20.2606 87.6194 161.539
22.1418 110.018 106.947
65.3943 190.213 117.829
80.9233 227.168 38.5357
13.5663 118.409 146.065
29.7704 199.302 161.82
27.1553 118.285 155.786
47.2777 140.281 216.55
26.0667 156.491 198.583
53.6883 87.4994 116.192
40.8491 114.833 106.52
36.5158 59.1149 153.913
71.3663 47.2927 134.805
62.2076 211.57 162.514
37.741 131.837 127.557
33.5689 76.4189 90.3522
32.9682 138.938 165.037
56.0032 129.829 103.847
72.0562 102.495 185.522
59.2559 156.971 90.1119
61.9167 180.666 132.355
5.18009 162.085 157.503
32.8161 171.641 123.137
77.334 92.3327 200.336
54.1356 85.8568 181.441
44.419 59.4624 170.787
22.8522 80.3916 112.122
53.4821 173.042 97.9308
50.4068 115.91 147.613
62.834 175.154 147.132
32.715 4.81291 266.101
54.649 192.902 158.276
76.8483 182.844 204.32
35.3389 107.934 96.4077
35.4322 147.959 129.223
35.2663 139.324 189.065
25.6932 143.863 160.514
37.9361 156.941 200.387
12.1416 126.58 118.846
38.9451 142.882 160.709
26.6326 95.1812 126.916
39.1766 144.472 210.759
33.8836 89.2313 193.812
18.9782 104.082 114.308
71.3421 197.358 181.538
81.5083 175.649 210.066
29.2904 98.036 183.347
6.90588 90.4682 155.85
23.4551 82.58 122.182
77.3334 92.1007 183.472
20.1126 83.9515 177.524
5.2589 82.9236 107.491
58.6272 120.141 82.9019
39.8468 94.8223 163.382
12.8349 77.958 134.075
39.4533 132.394 166.745
32.59 197.464 169.983
11.3349 6.96493 252.752
72.7107 109.784 205.745
58.9839 142.882 169.362
36.5592 49.4828 120.62
21.1954 35.5885 252.454
63.7591 187.839 191.959
66.5678 101.891 76.0157
16.5328 89.2485 132.605
46.7771 197.317 162.4
20.0906 152.343 150.1
24.8192 131.244 160.689
91.0736 43.7891 207.58
7.44224 115.656 151.44
46.9841 174.266 145.788
19.2557 90.313 184.812
16.7137 75.7268 128.852
38.2938 88.0936 125.152
30.42 63.1442 155.741
45.5598 109.723 160.718
34.4832 141.97 140.19
61.5338 83.4156 179.965
55.6557 171.234 159.148
75.2681 53.9208 161.423
60.2363 3.46422 253.202
21.5727 133.554 188.166
71.9256 202.935 163.235
51.7752 132.105 87.5516
50.5807 143.79 93.8403
18.5181 92.7009 106.752
67.561 60.0248 158.03
46.0514 151.337 121.66
26.5572 121.327 90.6252
41.3086 103.626 156.794
26.8637 140.569 188.636
39.0921 177.575 118.681
34.5012 113.014 211.93
12.6459 128.421 163.254
44.5629 122.682 159.246
48.2322 182.848 135.826
30.8987 74.2178 115.801
21.0413 97.6923 161.095
15.9331 115.203 179.938
28.5808 171.089 161.992
26.6682 142.891 142.267
20.526 114.714 166.396
63.8787 97.9435 180.103
37.7739 132.786 118.796
46.7386 189.477 170.889
42.8756 69.0176 175.102
42.562 149.186 201.427
52.2221 70.8585 156.009
46.5921 75.9361 110.582
35.0191 100.521 117.355
66.5482 100.998 197.544
57.274 130.606 95.8838
49.0918 133.888 138.917
23.9097 99.9328 172.766
53.6231 190.676 120.082
73.9505 80.2875 187.657
68.244 67.9581 148.09
44.9551 48.9122 115.248
42.8579 66.4483 88.6599
40.2513 94.6334 135.171
58.0953 183.883 122.392
46.2126 77.0898 84.368
30.1595 133.511 125.846
30.6499 123.827 148.573
39.4346 101.948 83.8024
5.45633 149.424 173.406
67.8653 61.3821 166.229
27.2955 111.288 178.157
70.817 79.3483 142.123
50.6755 177.564 182.774
3.53626 149.322 150.415
51.3653 85.3192 187.915
26.259 91.641 177.277
35.9186 119.195 193.964
23.6155 106.172 181.786
59.2902 94.9587 122.783
62.3978 188.544 182.71
49.5243 162.596 145.807
67.9144 193.112 189.253
23.2334 161.895 180.772
71.8885 84.5585 196.98
3.57618 106.685 150.656
29.1871 144.822 115.185
31.3299 115.747 98.7091
22.2814 60.4055 105.241
38.5875 139.752 128.826
56.654 76.9513 124.477
47.5996 78.6266 189.594
59.4455 57.11 107.454
61.6946 189.055 140.353
37.6221 105.02 109.004
49.1566 90.6018 129.987
19.6985 123.847 161.058
39.6687 151.811 42.4725
27.9345 57.8295 115.245
10.7387 84.0349 127.446
49.1829 163.448 198.586
51.3906 172.882 105.598
37.2176 135.42 206.959
69.3805 76.2642 177.578
34.4734 153.571 193.653
66.8165 190.784 164.999
56.916 182.509 188.137
60.9743 164.943 202.959
47.0853 152.791 149.282
69.4767 182.721 183.946
39.5718 148.481 112.975
51.6365 32.5181 239.84
45.6594 89.995 78.3877
42.7209 91.0936 105.255
7.64313 138.763 117.958
68.5398 197.076 145.591
53.5425 149.071 112.714
5.35096 117.375 189.045
10.6232 155.833 169.992
39.2475 96.7668 147.839
42.2723 124.844 94.1115
46.2792 100.067 137.872
62.2718 115.902 92.7864
47.1166 94.9615 97.8007
110.566 82.1147 55.5518
48.7781 60.0252 120.057
21.1394 1.32854 271.445
40.231 80.4003 114.509
44.2781 179.158 191.94
48.218 70.3998 165.673
59.1858 95.3533 211.221
26.5603 142.148 150.322
69.2699 160.484 88.5496
52.2677 65.9373 107.088
20.4823 146.311 202.083
36.0331 168.497 165.552
43.1023 79.7966 167.009
10.6088 124.206 181.09
34.7777 94.0293 135.82
33.4168 83.9151 168.15
59.3491 181.144 195.709
26.1343 116.864 190.822
44.8934 168.789 197.622
29.8518 136.577 115.465
55.5358 79.5509 174.892
65.8717 156.858 99.1593
54.3245 184.499 140.953
51.7263 117.795 94.225
64.8655 82.1896 200.7
38.0057 140.307 118.045
62.1945 74.4727 159.833
54.0958 163.269 181.133
6.36561 129.833 143.731
46.2778 198.203 152.477
63.0184 197.781 134.573
65.3089 89.9997 201.681
58.8785 196.425 149.178
54.6206 154.616 206.334
59.942 135.945 199.511
56.6718 98.1849 182.705
37.7004 200.903 138.48
50.1759 149.602 197.56
18.5488 71.3051 122.964
51.3314 97.018 122.234
57.7388 144.617 203.503
58.3112 132.267 209.304
72.0586 141.265 205.24
56.8977 154.261 197.168
43.799 75.4232 97.435
35.7044 158.039 166.336
4.69398 153.539 160.149
73.8942 98.6433 194.062
83.6874 168.324 210.326
29.1631 94.8885 85.1153
35.8347 105.501 195.905
37.4743 116.797 158.054
55.0578 207.322 120.575
53.9261 69.8268 178.883
79.2289 63.6895 129.047
71.1919 83.8612 178.381
38.7801 133.445 107.19
59.2384 210.747 131.899
17.3942 151.898 188.127
53.9502 85.0754 204.36
21.9118 118.146 181.085
65.317 110.229 173.449
24.4938 188.864 136.783
37.0428 179.648 161.503
47.7535 160.127 176.598
45.7962 1.81058 267.139
43.6886 181.649 160.761
31.3495 164.174 178.092
2.77946 115.683 122.376
61.5601 144.893 93.8088
59.4119 108.299 112.992
26.0466 107.686 118.849
59.7712 101.594 113.457
20.6951 137.181 219.229
55.1751 135.632 154.891
52.0009 100.437 205.367
37.7012 126.842 206.75
70.8497 79.8611 95.1273
54.2178 94.0633 188.597
43.0484 169.793 115.253
29.1481 76.2684 173.24
36.5671 99.0804 206.751
65.85 136.197 206.473
21.217 110.477 92.1661
18.745 150.446 117.555
15.7539 128.251 129.112
51.4792 118.218 126.519
30.8653 131.713 143.113
5.42001 82.2018 101.444
72.8255 136.917 102.124
17.6202 144.835 145.437
82.8941 70.4289 135.955
55.7183 127.079 69.8294
55.5507 149.87 93.3489
16.5006 97.7948 84.2302
29.5846 103.527 161.56
59.7069 50.9017 123.581
51.1003 146.339 166.713
32.9951 121.25 143.99
72.11 109.792 94.5133
66.0697 73.3463 126.282
79.515 192.675 145.869
44.5113 156.874 192.855
63.2033 64.6398 96.6296
26.3574 90.983 146.024
54.6574 173.505 149.729
61.5894 116.892 202.732
38.8269 190.066 173.73
59.8815 130.754 124.796
59.2104 123.65 92.2417
39.4617 125.322 178.03
60.1926 93.5569 186.593
45.5851 42.292 240.394
39.3513 153.926 159.195
169.055 223.409 35.4537
46.5257 59.163 137.504
67.3867 92.9108 190.732
60.4301 84.5043 102.416
37.9436 119.737 90.3402
70.2921 178.619 120.645
55.0508 146.603 104.461
54.5784 185.608 178.095
29.3737 162.367 162.877
51.2705 77.8365 160.09
61.898 196.472 175.994
82.3043 157.226 92.4333
17.6831 116.551 118.818
44.9851 187.965 139.267
47.4697 8.39583 269.608
47.9427 93.9668 154.924
57.6628 95.0358 159.333
67.6099 110.392 110.217
13.6402 154.948 187.383
35.2025 97.0528 103.026
57.8047 66.748 148.591
15.9811 159.735 140.644
37.8302 116.725 181.546
50.5768 123.022 98.5883
65.8137 154.227 166.461
38.4129 78.912 144.364
41.2983 155.848 106.693
72.2006 103.532 120.792
51.647 171.437 172.556
62.6201 166.224 95.3437
40.6572 57.89 105.894
50.7113 158.583 190.227
52.2691 108.591 81.1127
51.0355 85.0958 154.262
62.0669 174.014 133.909
10.1351 166.491 161.06
88.2172 180.228 195.671
49.6468 124.425 143.065
54.0924 152.748 150.664
37.4058 167 182.845
74.644 136.668 211.469
39.835 157.825 125.482
39.3865 77.135 199.398
63.0403 173.727 120.108
18.7123 142.836 153.593
51.4811 153.318 164.468
56.7425 148.083 129.12
57.0365 62.5393 169.739
29.8485 97.5018 111.093
78.2156 123.895 219.144
29.1394 88.9116 116.397
66.5967 153.153 87.7011
47.4797 150.972 186.261
54.7151 144.148 193.11
46.9033 97.7949 192.075
53.6497 174.153 120.231
51.3016 55.3278 114.996
48.7517 91.9558 164.907
147.733 99.2675 274.299
57.0644 163.181 167.532
40.6982 178.688 172.77
42.0178 109.642 181.67
51.8882 97.6867 82.1923
69.3113 173.565 200.052
27.7811 110.757 92.352
66.1337 77.6486 112.903
50.2488 126.958 108.141
38.8468 144.606 170.949
70.8314 197.548 173.063
29.3007 47.5129 248.548
36.7022 91.6947 113.079
33.3758 58.1491 170.508
37.8556 66.3435 134.552
13.0636 114.097 121.377
10.7776 111.359 94.9868
57.861 1.57408 240.617
28.3143 120.511 97.7469
54.7137 132.635 215.578
37.382 69.7932 152.499
72.2775 51.8805 156.708
49.5656 151.409 98.3128
42.6241 159.927 168.859
45.8696 131.855 151.317
67.3209 80.6104 165.185
73.6668 139.589 94.5893
50.2157 53.9344 131.669
71.6159 114.978 217.577
32.6835 89.0226 72.7378
56.116 155.933 124.904
57.0816 47.4903 109.893
29.1894 66.8522 151.587
21.7326 163.255 110.099
51.5963 125.302 157.119
60.2201 62.5225 118.024
64.235 166.984 109.061
65.0405 150.476 200.078
8.42774 147.899 127.036
18.2069 138.031 155.982
30.1763 106.178 157.556
28.5829 46.4046 140.581
22.5137 93.0329 83.9034
85.1739 77.5329 140.286
11.2459 98.828 218.808
86.5468 189.899 148.023
66.7066 183.712 160.508
64.0551 149.703 190.622
64.3823 154.537 112.383
59.1328 159.291 144.791
35.8037 103.344 182.197
96.7016 205.936 253.437
58.0097 110.989 208.531
68.4069 94.0513 120.857
38.4795 88.0985 95.8108
68.4064 132.461 87.9208
65.0864 174.062 157.662
62.858 180.894 112.533
68.4599 84.3357 110.268
9.58282 116.179 96.6187
52.6697 133.388 118.437
59.524 147.685 119.322
53.2403 99.0413 171.821
37.4505 60.7817 134.659
62.4602 122.943 211.839
52.3026 95.5283 107.362
59.0112 98.9416 206.774
43.0832 78.9281 158.368
41.0686 158.539 176.208
13.4209 152.27 191.222
58.5926 169.003 122.874
19.3693 84.0888 110.877
55.1521 190.349 168.528
47.6676 138.851 103.685
71.6041 92.1375 207.359
11.569 84.4444 166.909
74.1331 190.703 169.858
45.9837 133.111 119.458
57.2538 53.5198 135.954
67.9882 97.035 89.3631
34.641 74.7153 151.839
76.6989 77.9497 201.096
59.3411 171.405 180.281
57.953 99.7275 103.714
23.0438 52.1282 243.37
69.5148 113.851 162.12
43.4799 80.1822 175.602
67.7218 150.685 96.5807
61.2694 69.9008 136.916
57.1099 58.3457 141.684
56.0069 58.1849 151.578
62.8918 92.4778 109.075
53.2303 154.188 174.364
66.0709 141.534 195.589
49.3906 83.2664 100.841
67.3234 169.988 99.7753
68.8665 98.7351 112.356
48.2005 2.57015 274.45
50.0335 120.566 169.795
66.8741 148.837 84.7908
49.1062 182.425 175.278
53.0179 138.825 129.742
67.3617 154.907 126.216
73.0871 158.213 97.66
35.9835 124.082 191.391
72.7668 82.8742 159.348
85.9347 91.2908 189.609
27.9367 173.522 152.363
46.3775 78.3568 147.69
60.9532 90.7448 80.3451
71.1055 101.262 177.041
66.4595 60.314 144.507
58.5348 156.593 160.54
90.296 137.131 199.974
65.5929 110.375 124.769
65.7494 123.833 76.33
10.3142 150.437 131.536
81.7069 142.783 206.67
47.2688 117.589 138.373
74.5824 202.146 133.341
68.1046 145.242 128.776
56.2841 139.51 111.424
91.5633 158.829 194.809
59.5731 201.789 118.521
71.3708 63.7841 181.282
65.6964 189.804 131.272
77.595 163.997 104.82
71.2664 156.608 108.733
57.0343 145.69 178.556
79.6317 177.317 199.616
58.2717 100.146 79.1371
69.613 144.755 102.497
52.9024 120.912 206.464
90.4409 154.617 96.2825
97.0717 66.2207 162.224
77.5477 191.615 160.536
62.0052 121.426 107.463
54.4298 212.098 172.641
69.5689 93.3623 76.3929
54.3619 109.771 96.5262
42.8973 108.354 92.8811
74.1085 63.9097 139.943
