ply
format ascii 1.0
comment Created by Open3D
element vertex 505
property double x
property double y
property double z
end_header
30.1849 109.598 82.3985
35.357 91.8374 142.045
9.76447 11.007 102.335
39.1767 88.2916 135.743
14.9153 141.116 124.162
33.0476 105.938 118.18
25.9051 128.497 120.215
72.1881 79.8775 147.393
10.4456 147.166 141.69
32.468 86.3206 100.693
9.70745 143.022 126.502
26.3926 162.859 148.78
34.9809 151.736 145.821
10.9157 157.607 136.474
9.63497 139.919 134.793
22.3406 34.0884 182.409
13.9632 116.773 93.808
36.9897 13.0628 182.194
36.4274 146.736 137.684
13.6587 23.4176 163.691
17.0337 122.265 97.8857
40.1211 112.324 157.303
69.5061 213.214 146.249
49.2895 85.8795 115.229
15.947 162.241 127.457
25.747 7.17944 106.284
36.4507 175.46 101.199
30.4886 97.0243 84.8728
16.5674 103.854 114.543
45.891 156.943 158.336
25.4313 12.5502 84.7169
26.2472 92.0253 142.491
12.5683 14.2887 180.782
16.6012 128.849 82.944
38.7099 97.8764 106.796
14.1306 123.306 112.897
33.7206 107.982 74.8328
21.2791 116.398 151.2
28.8777 101.932 91.7362
25.659 116.038 82.0206
6.5952 26.6323 176.127
45.7819 143.833 75.5701
39.0771 122.289 64.2685
40.3612 141.636 65.7727
34.0117 163.792 141.353
51.8544 142.392 167.648
24.9583 99.607 142.707
34.426 162.377 151.215
39.9423 116.804 143.736
31.1556 5.94079 176.221
12.1607 147.427 107.22
23.3597 4.04276 76.9796
18.2537 150.46 100.968
28.4789 129.271 146.504
32.2003 97.1849 112.77
17.8296 155.047 105.471
27.5614 18.79 91.7863
27.2873 127.075 70.4403
27.0407 86.3807 111.612
32.8412 177.95 138.382
37.1451 104.815 102.106
7.18048 19.4278 170.028
11.682 23.2884 174.733
43.6728 151.405 149.816
21.866 111.366 86.1433
24.0199 29.4581 167.43
24.6204 141.405 124.805
20.297 132.799 122.96
17.6603 118.166 85.4004
41.1563 82.4407 118.37
53.0124 153.828 158.315
25.8831 85.9422 136.772
37.8846 131.425 164.227
26.9812 178.822 133.154
60.2346 109.948 65.3391
31.3508 7.54852 115.884
28.6731 165.501 124.241
61.1778 140.959 157.814
26.4865 165.339 134.155
42.4929 159.778 148.667
17.6314 109.689 135.769
32.2892 107.074 133.709
48.759 93.5056 84.5061
19.4898 131.385 133.931
28.8602 116.764 73.5208
53.0321 127.502 130.706
31.5566 121.937 67.0763
52.4639 124.235 62.0407
26.6929 88.9323 104.442
41.3792 131.19 64.0743
8.13039 81.3306 128.682
79.5402 65.2267 131.884
39.26 123.669 165.22
21.9823 120.745 76.185
29.9294 122.137 163.306
15.2379 114.72 114.672
14.3647 126.201 104.363
24.358 104.106 85.659
28.1428 92.3699 92.8756
25.6857 105.069 124.18
24.1707 157.276 100.496
18.3297 122.016 121.187
10.4528 126.845 95.6709
46.1763 125.396 62.4484
34.2811 129.678 65.8123
73.467 98.0695 80.516
42.6801 147.808 84.2225
26.9257 111.751 153.707
16.7459 114.432 123.628
50.0761 90.2599 76.4622
20.3532 16.1603 162.745
67.8704 117.57 66.9536
56.3292 146.497 161.391
24.1467 110.319 120.08
6.48749 149.587 132.258
15.8086 158.074 119.824
39.2291 84.7818 94.3748
41.1186 92.504 111.766
32.7671 100.348 141.374
18.0954 137.555 152.016
56.4288 88.4248 79.8857
19.2474 122.917 154.151
35.6117 104.55 84.6596
27.7763 111.323 144.477
24.9268 120.525 101.192
24.2903 152.993 89.2411
46.612 180.954 150.232
51.6564 87.6323 96.3418
20.7217 104.651 145.172
49.2268 117.693 92.6277
21.9547 86.9474 120.909
16.9859 135.91 83.7604
21.2748 100.044 95.4675
19.4642 157.856 147.437
36.2844 139.179 122.379
35.6473 127.258 129.45
18.3887 108.683 92.7792
3.57381 4.40301 110.673
68.2536 110.227 68.9419
50.0259 157.916 149.306
19.2556 139.067 142.842
47.6857 108.863 149.877
34.2251 138.304 130.531
51.1851 106.875 64.6399
36.1079 16.1597 87.6009
24.2813 13.7735 173.439
39.6998 103.232 76.6708
38.0521 145.961 73.5511
31.1521 80.7763 131.101
28.5771 156.19 150.009
20.5335 12.3454 189.932
10.7481 40.0898 172.938
15.558 121.856 141.906
49.6255 106.02 142.832
31.8853 2.65045 103.227
34.6247 15.8228 102.913
23.9482 10.1711 113.396
36.1316 89.053 90.6066
19.7413 5.5459 185.126
48.1542 116.945 134.035
27.6114 148.922 98.5347
16.4669 135.889 118.857
18.164 115.83 145.385
52.8707 155.792 82.9415
21.262 96.7587 103.145
19.7232 7.35498 100.634
16.4318 106.023 104.583
33.5863 160.81 131.79
33.4942 104.944 151.899
47.82 113.017 158.155
18.4001 99.6287 124.758
55.06 149.245 72.1658
38.2431 147.497 166.925
23.7664 147.909 81.7413
40.1888 125.325 145.59
39.3294 140.854 170.562
40.4579 110.347 150.938
37.9298 141.715 93.7338
13.055 172.855 123.617
49.5304 158.442 96.2909
11.234 132.803 90.6007
21.3641 129.05 76.7407
27.6391 138.313 128.611
37.0833 115.767 102.736
24.8157 159.176 108.513
34.6472 144.921 102.699
12.1016 130.614 111.388
28.6356 149.966 109.59
27.197 154.957 159.039
31.4597 124.416 170.133
17.4702 129.299 151.44
31.1577 143.083 91.0959
52.5477 113.847 71.769
31.7421 145.942 77.08
46.786 123.266 162.041
17.9118 92.7307 130.674
25.8763 34.6181 160.07
33.7617 111.314 156.314
13.0535 132.747 136.852
16.346 135.9 129.237
58.1096 86.6604 91.4307
33.4102 24.7615 185.108
45.514 116.913 166.522
12.4861 130.284 145.467
74.157 104.484 69.1385
36.7641 8.86558 86.3471
12.9012 154.907 143.854
41.2529 135.92 174.424
19.4725 135.872 138.142
19.2977 113.366 130.339
57.3488 121.122 153.331
43.6212 119.155 150.281
35.0458 114.553 68.5608
2.73315 8.65159 100.968
31.6499 123.549 120.004
43.8931 114.596 64.9345
22.6883 109.443 140.76
67.8565 87.4407 91.229
35.3009 149.264 82.9428
41.3124 97.9597 81.223
7.90507 158.54 125.867
17.7033 8.25033 170.818
37.1446 140.735 161.455
31.7527 23.2753 99.893
37.1753 91.5132 83.9949
19.1719 97.1844 138.558
45.9688 141.093 126.264
44.2408 158.8 89.8622
24.1932 144.233 161.525
30.4424 3.08188 81.3126
21.8742 131.468 144.021
18.5338 162.075 136.673
49.2743 149.369 163.664
39.3989 161.185 102.444
14.1541 115.215 103.953
50.1078 138.062 70.2743
41.8022 159.655 141.154
5.96167 131.611 63.5496
31.3335 155.807 85.9896
34.0864 28.8514 174.353
52.5254 102.137 137.202
11.4139 141.512 148.443
29.6521 131.599 168.477
28.0494 132.118 133.45
36.0399 122.544 90.0577
55.8996 141.028 150.489
36.3797 149.312 158.465
58.3548 85.4579 101.53
18.1684 43.613 172.917
40.7327 81.4575 102.797
22.7349 159.802 120.896
47.1238 85.7158 90.8538
28.901 118.918 156.058
40.8838 103.749 132.152
30.1372 117.269 89.1355
9.76004 137.064 100.238
11.2936 9.22448 167.341
20.6467 24.4509 191.847
16.674 147.886 144.261
10.2058 10.8934 111.961
13.2709 152.769 126.928
28.7921 24.5726 178.268
51.285 137.036 130.65
30.4977 161.503 104.968
53.5899 145.651 65.3679
10.1475 138.701 109.315
49.3232 120.204 157.313
21.4876 15.4057 95.774
4.91185 10.183 94.2889
42.798 2.01403 100.116
50.0724 139.34 61.2802
13.1076 141.148 115.693
4.79189 2.66623 82.6883
76.7292 109.159 178.857
47.9581 97.8699 74.5455
20.1253 156.263 112.919
42.2407 102.511 140.258
72.5771 205.415 136.709
39.1006 155.261 78.1724
15.1935 124.486 89.1882
86.1391 151.972 184.522
33.3275 85.3833 116.457
50.5557 103.11 115.499
50.9706 110.006 93.8161
20.9487 137.201 158.26
39.58 145.811 108.103
19.8658 27.5654 156.122
41.8838 151.236 131.889
33.8094 155.739 158.732
32.8891 157.751 112.72
30.0764 39.6449 171.159
35.9401 17.4841 167.193
26.4949 129.26 160.398
46.0526 144.081 142.544
32.2982 130.812 114.225
17.3656 33.5144 170.56
35.4454 160.272 91.6145
73.0397 106.833 170.873
20.4569 149.225 156.394
54.6117 101.406 73.204
20.2407 81.2589 129.481
47.7142 82.7672 105.206
2.08501 1.88716 91.989
38.9049 11.1922 105.38
27.9441 81.8755 119.725
70.452 207.936 128.864
60.5313 124.152 64.8987
35.7235 155.182 104.378
46.3174 152.256 71.1972
47.4232 132.035 169.779
62.8637 102.701 68.2242
22.4966 125.711 137.711
60.9639 113.057 96.4978
62.3883 90.4478 83.3901
28.7458 142.741 105.286
17.1435 128.683 116.969
32.3588 136.306 160.664
47.216 103.898 71.6787
54.1881 140.512 89.5006
18.4825 25.2549 184.276
43.0879 128.228 172.147
44.8429 93.8713 121.583
44.1089 110.041 118.028
42.393 150.929 161.99
32.1333 123.065 144.944
17.1963 107.279 129.582
28.5144 141.994 156.078
60.653 93.3543 73.0326
29.5151 103.15 146.75
59.3306 125.641 144.5
24.3655 1.62537 99.2859
41.8813 23.2265 94.6324
35.0826 151.873 92.9598
55.4502 133.827 65.6727
36.412 2.27121 119.936
64.3859 145.939 79.2316
26.4529 141.681 76.5613
54.8471 111.637 88.9361
30.3934 145.795 84.1684
20.4427 118.175 135.28
16.6222 18.1102 92.0836
37.6685 151.909 118.194
55.0157 127.561 72.2663
36.7898 127.533 173.127
60.7465 137.96 69.2973
61.8048 147.859 194.294
50.3164 116.55 60.8406
37.6681 83.1158 127.598
16.6449 14.6814 108.239
52.7187 99.1284 91.0339
56.8738 66.7085 114.394
31.9309 145.767 164.322
54.9826 126.25 161.706
58.8587 102.85 83.2618
58.2641 135.394 162.777
43.864 86.6585 127.313
24.3739 163.209 139.902
54.6971 117.377 79.6189
40.7917 121.899 114.807
31.4147 119.742 97.1709
26.7422 138.243 162.412
53.1084 154.349 77.7117
13.1212 25.7007 189.585
56.1534 4.93073 108.111
21.5633 22.4731 179.871
65.788 208.847 135.556
61.2696 130.541 70.3707
45.8379 157.123 78.8461
4.11904 27.6309 164.962
28.6448 159.231 118.785
55.4751 111.402 139.152
40.3626 178.646 113.12
22.5878 19.6342 104.668
22.0749 123.409 145.053
45.0578 143.272 168.465
34.1268 162.847 117.09
21.2037 118.874 128.088
43.1736 114.685 93.3602
31.3437 138.199 112.337
37.7803 128.841 120.362
44.8885 8.12816 98.7511
26.6778 133.255 80.3631
29.5877 149.869 162.833
42.292 17.6455 102.758
54.3612 143.077 144.366
17.1481 12.2943 104.344
46.5485 146.127 128.944
52.7473 131.869 145.79
40.8517 104.68 148.311
39.3012 157.438 157.261
43.1691 161.475 128.562
34.993 115.541 164.655
57.9936 118.179 61.7852
27.3529 16.4549 103.3
20.1419 129.086 158.359
20.4395 39.9998 161.051
52.9479 114.989 152.144
14.2231 35.1851 158.379
39.8372 83.3612 111.535
28.0702 97.1997 108.017
52.0915 133.249 166.778
15.5233 69.2484 130.614
28.7197 2.14808 87.3498
59.5883 124.961 83.1202
59.5166 153.343 96.3948
28.1571 104.561 99.1002
39.5576 106.52 69.1766
57.2063 88.6177 111.164
49.3586 129.981 196.6
9.23736 36.6374 166.168
47.418 118.717 126.595
10.953 179.882 101.314
56.7964 124.914 91.0026
24.4345 124.219 132.59
45.4989 14.5058 89.561
18.3384 145.12 86.781
30.3412 136.932 80.4801
45.6053 159.224 102.844
42.6177 95.1482 138.59
28.0013 134.641 70.5594
40.507 163.315 94.8247
19.1019 98.6421 160.027
50.1416 154.447 109.566
62.3142 90.819 105.203
32.5506 9.14198 103.931
49.0749 130.09 66.1056
37.2059 112.485 92.7707
12.1129 16.4402 104.652
31.878 139.483 168.631
50.3508 158.749 88.4057
55.0955 143.789 97.4959
38.5046 189.932 120.617
37.305 99.516 146.31
43.9714 100.308 115.44
26.7095 123.589 127.025
19.8729 11.0664 184.147
48.1535 3.48044 117.292
39.3565 13.4369 111.805
33.6889 135.905 71.1687
42.9865 127.678 126.854
38.8624 124.999 137.615
26.3408 129.227 110.784
51.0019 92.7674 122.538
45.8184 152.861 137.819
48.8122 149.221 91.1689
45.4477 157.676 124.27
12.8063 149.972 114.283
54.1359 107.914 81.5331
9.43954 9.00872 174.448
51.9853 88.3283 105.261
42.726 122.79 104.47
31.5479 141.774 70.4573
55.6444 118.225 142.178
21.795 93.5746 112.473
43.7908 154.821 109.413
16.9265 107.095 61.0327
18.4322 95.8759 116.338
25.5169 2.77925 92.1674
50.3497 101.109 129.054
18.6774 181.647 125.231
58.1889 105.474 131.036
31.3921 19.6999 169.687
55.1633 157.621 103.131
61.3289 96.4693 114.646
19.1267 11.1408 115.421
51.8207 153.946 142.453
38.3617 158.439 109.357
66.0896 101.337 72.2957
45.4602 130.653 77.3379
15.6971 194.611 116.81
33.2463 83.5855 108.921
45.0598 143.247 134.851
51.9962 94.2129 131.134
39.4976 137.863 109.764
24.6049 176.123 124.884
69.133 88.7472 102.657
50.208 3.04345 109.598
39.3853 161.055 121.006
43.8428 161.258 135.415
64.7912 190.282 148.054
38.8229 134.879 135.199
62.2369 112.557 80.0902
19.6604 199.105 110.487
45.4659 128.486 136.204
27.9805 158.778 96.1667
50.354 13.2975 97.6772
44.8473 143.669 107.956
25.9169 126.651 82.2778
55.7744 152 150.659
47.4186 153.487 132.238
11.3314 147.631 119.133
47.1147 108.99 127.923
2.75682 1.0484 99.7382
59.3156 128.76 154.055
38.3241 134.249 96.3435
37.765 111.488 115.788
24.3993 42.0892 176.619
29.444 130.493 106.319
23.5208 40.888 166.824
24.1728 78.0856 125.615
37.0705 135.406 101.421
48.0759 90.8129 130.619
54.3905 150.946 88.9428
71.6504 90.5027 85.5077
68.0148 139.178 73.0879
