ply
format ascii 1.0
comment Created by Open3D
element vertex 1207
property double x
property double y
property double z
end_header
12.8061 26.4039 28.1033
7.56577 17.5513 55.7947
166.763 25.2846 139.756
25.8021 228.936 67.3456
36.3584 110.009 159.068
13.9568 202.341 164.265
114.636 68.7031 119.827
38.3349 172.82 179.55
52.4364 116.825 60.1308
7.50533 62.1124 110.996
27.1763 127.075 127.33
94.2017 67.2785 199.537
56.518 171.924 73.8036
8.02601 153.516 31.6892
115.178 52.8681 48.9278
41.515 111.6 133.477
95.4198 135.978 60.418
90.8036 102.092 211.912
9.03481 46.0553 103.247
19.5399 153.598 89.1532
74.1669 84.2569 185.135
61.0092 104.583 202.706
81.951 131.364 75.4062
31.7885 213.469 69.6792
11.8178 146.643 42.865
29.8326 121.992 171.206
31.5368 216.202 111.972
50.1714 170.783 202.586
18.2679 148.049 12.1208
12.1334 25.1874 18.7931
84.9334 204.423 36.7391
37.1976 213.928 151.989
5.65936 69.482 164.973
36.0726 193.956 154.101
76.4235 180.374 25.0734
55.9223 129.574 188.681
53.1419 206.454 49.9423
22.1152 156.102 15.5664
12.8112 125.218 102.324
36.053 156.517 166.732
82.9801 144.226 18.6114
34.2479 154.602 149.757
48.8896 87.8719 183.078
4.53113 55.0483 209.572
99.6622 62.0109 34.7082
31.1713 150.048 136.216
24.1301 157.67 165.073
5.56052 144.595 270.386
29.8569 180.918 153.875
14.4991 175.008 29.675
45.5816 113.934 176.714
22.3654 174.568 39.334
26.1071 144.652 81.9477
40.5232 216.168 160.788
87.1999 186.184 21.0021
28.1325 204.661 81.3678
61.1716 211.015 179.172
49.5248 149.758 164.362
19.0716 227.139 80.3541
60.1592 181.541 68.8715
98.6837 100.129 212.613
42.0474 100.513 137.551
35.1189 205.979 88.5196
69.5933 173.886 208.265
80.9551 190.884 29.7236
59.8868 89.5235 180.318
80.7305 153.816 216.418
8.96597 53.2762 109.407
82.1392 197.935 25.4468
68.5874 159.618 199.637
40.8429 107.321 166.155
78.1499 161.735 212.817
77.9857 132.082 207.146
9.25908 132.36 105.861
57.403 119.832 94.265
47.1814 107.007 147.206
82.5496 109.46 204.812
21.7296 130.89 128.876
9.95089 44.5795 13.7604
22.0937 171.043 136.592
24.2464 137.658 29.8485
47.6632 211.209 242.812
65.98 169.075 199.766
36.5232 130.696 129.034
44.9352 102.324 151.708
26.4535 145.631 92.1385
20.017 122.115 93.2118
79.4457 92.5623 141.961
40.6852 180.296 177.144
18.2572 138.365 38.1026
62.9092 87.5685 141.988
14.1646 44.1284 98.9804
81.3298 180.283 56.4461
59.2433 120.078 206.36
33.9998 145.727 165.953
145.244 160.248 10.6713
57.2662 135.66 208.061
25.417 54.1125 95.098
41.7116 199.35 159.386
30.357 145.264 174.05
46.1218 180.048 183.468
50.6971 161.219 112.575
74.9765 196.938 166.523
37.0037 143.27 156.451
92.1565 83.1886 160.372
53.8866 103.637 154.499
29.5287 215.424 4.88016
61.2105 156.254 166.146
23.7453 124.826 171.663
27.6708 174.992 147.753
43.4283 133.76 173.95
24.3875 152.733 83.1303
45.5071 118.036 121.964
37.1747 163.185 38.945
28.0536 179.997 110.779
32.3239 181.017 129.904
33.3124 220.32 131.305
45.4029 187.961 180.02
79.9821 179.809 35.2168
30.9274 131.727 132.551
40.3589 176.593 91.2622
57.2038 51.7477 55.0067
27.1839 225.267 76.4576
46.5151 121.195 113.706
59.4524 109.562 187.74
115.784 25.3781 83.0096
59.4943 191.661 142.808
56.2104 120.768 116.001
75.1771 96.9538 150.387
51.172 160.115 164.283
30.8646 220.042 85.73
74.7997 113.102 192.166
49.13 96.8395 139.38
49.197 137.085 179.786
47.1628 215.713 61.2247
62.0679 220.504 163.288
18.8227 121.03 83.1173
94.9979 172.784 208.942
26.7262 3.16883 270.518
34.9208 204.28 146.276
34.1311 224.301 73.3699
35.8478 188.803 154.628
127.612 148.686 25.2941
68.8522 84.8681 165.746
25.7193 157.008 145.91
118.269 67.2912 273.125
55.3365 122.188 101.666
46.5816 208.727 129.89
34.1394 193.191 83.1841
45.3335 110.486 153.525
87.3795 85.8403 176.717
29.4641 173.686 157.492
52.6521 131.485 194.015
35.0114 124.865 136.019
89.3033 197.808 61.7315
26.959 147.659 155.083
32.4409 213.527 83.0438
39.4933 165.229 180.015
121.179 34.1253 43.2471
61.0388 109.255 164.587
20.0736 131.302 143.045
44.4687 220.03 167.806
69.9996 180.903 37.2279
28.0573 209.382 94.5572
64.0623 206.193 184.67
53.1104 187.431 189.056
48.3273 209.063 72.2895
25.8346 150.778 125.838
33.9165 221.06 121.853
71.0183 208.724 59.496
47.1482 225.328 53.5049
116.971 140.951 38.5956
34.4408 182.06 167.976
57.2377 228.208 202.275
28.6758 125.264 136.849
56.1091 177.028 182.773
68.1244 97.4005 197.848
37.6559 116.925 171.983
30.964 221.64 10.3327
91.7765 90.2321 182.609
31.0147 177.256 163.786
46.1844 103.427 173.157
40.3177 103.715 157.767
63.8567 166.005 171.141
125.175 140.971 20.9541
42.3927 113.926 169.823
59.7303 120.931 191.184
69.8842 90.5361 132.09
63.4542 99.7887 136.951
83.923 201.801 194.076
36.618 145.756 114.453
78.6115 203.613 62.8683
49.5286 167.049 169.267
37.0227 162.127 152.917
95.5656 52.9291 31.3984
63.7638 88.8606 162.495
70.5019 84.9264 158.524
59.0728 165.637 200.164
30.8911 125.83 121.2
33.979 139.748 125.58
50.4183 201.732 146.115
47.7254 97.501 152.649
76.9772 187.398 19.8687
54.7194 230.499 171.19
56.1021 190.598 90.8215
18.9691 49.5954 8.07018
30.673 163.264 16.3659
27.1542 167.904 130.539
32.5462 3.39767 273.704
39.8583 105.782 142.324
116.36 151.567 26.1255
26.4917 213.68 79.3156
25.9413 147.484 166.355
85.0676 204.717 69.2441
39.1669 104.071 149.762
31.9999 117.511 123.835
9.86623 63.8513 101.396
63.7763 133.559 207.839
36.8696 151.609 159.41
18.3326 152.013 32.4309
20.1232 49.4603 108.037
35.6096 186.27 125.415
103.899 150.959 55.9738
15.5686 66.4053 98.4637
46.0573 157.508 173.968
32.5542 133.856 122.688
62.6427 158.791 196.893
49.2935 110.091 179.701
42.0941 211.399 171.795
64.6394 204.411 167.58
52.1921 223.082 163.425
63.0432 220.708 51.4197
91.1066 227.97 191.113
70.4582 180.625 205.133
55.917 107.318 160.722
53.1905 201.534 93.4733
67.5244 84.9196 153.194
23.632 138.018 70.8285
83.0813 139.843 76.1388
68.6068 114.473 96.0745
22.5542 28.5302 18.652
65.9628 73.6985 101.859
77.8574 83.603 157.387
55.6093 113.221 101.212
26.2362 149.13 35.2479
59.6217 102.105 149.514
19.1891 151.154 123.439
88.2274 216.035 187.026
68.0344 114.498 103.446
74.2942 170.088 215.91
29.98 228.757 99.6668
10.0396 125.174 87.0156
44.6595 126.024 121.464
45.78 189.644 104.038
26.0173 163.656 46.4031
36.4911 159.198 12.7896
96.1021 180.898 60.4817
40.746 190.82 136.119
19.86 152.861 148.185
34.2372 214.19 133.942
59.4714 216.993 155.683
60.3021 99.1591 142.959
93.1506 137.195 195.011
61.0064 97.0906 131.45
60.49 198.486 180.896
25.0096 182.969 158.484
44.4198 214.843 132.19
64.7408 108.151 182.41
53.4704 93.7679 135.561
71.78 117.999 189.453
23.8516 229.841 86.9544
24.6901 140.438 119.278
27.9754 207.407 101.694
63.4736 186.715 170.982
21.1347 62.0354 108.581
65.0583 207.313 173.607
92.6604 111.681 232.905
67.1674 179.919 165.176
39.664 171.897 103.932
37.8944 127.039 122.47
14.8881 33.0696 32.0395
73.9316 137.079 171.63
22.9608 162.803 123.608
60.8803 105.479 195.44
92.6912 207.616 182.756
74.1993 206.927 177.344
37.7685 196.985 132.435
23.9304 163.125 5.72424
25.4215 143.229 144.07
83.9791 135.58 204.153
60.9305 225.757 172.209
60.3474 174.018 203.475
25.437 122.584 86.0499
15.0284 165.42 11.6359
4.836 56.8636 103.846
67.5794 222.693 44.3484
57.3263 94.9418 187.016
27.9184 195.038 81.8762
26.529 140.08 169.193
89.9303 183.882 43.6055
55.0472 206.031 179.586
24.5968 130.714 99.1439
40.4794 168.746 149.391
32.753 137.667 133.755
39.3616 188.908 143.659
34.107 171.714 163.723
33.3317 163.456 165.438
72.8663 91.4302 194.993
10.6441 157.647 12.3835
70.0326 125.289 141.602
45.2627 152.061 178.21
67.2399 145.22 163.025
66.9215 107.954 187.582
63.3144 143.326 171.074
50.3322 157.5 171.465
65.4028 197.862 188.082
7.87252 146.223 27.4676
22.407 62.5675 93.734
86.2475 179.389 208.608
16.3482 142.322 28.5863
37.0041 203.236 168.858
54.174 126.012 95.4724
29.2374 167.342 40.6392
42.8877 152.153 166.789
65.6482 184.914 158.858
82.1092 91.1968 124.546
90.3868 136.197 206.336
20.9739 176.964 16.0154
125.447 135.84 30.0725
35.2638 187.174 100.37
23.123 217.561 71.9701
45.2943 223.479 138.934
52.2181 210.116 100.084
8.94943 93.3366 135.015
85.0283 206.35 189.371
60.3392 155.527 189.03
72.3492 86.6093 173.641
43.9712 124.629 175.113
63.3822 194.447 162.692
20.621 2.84309 268.799
38.474 119.835 156.118
89.3807 86.349 167.194
14.3827 161.417 20.2663
31.305 135.983 89.0963
68.9369 121.033 198.988
62.0579 134.524 171.831
45.9742 203.954 88.452
56.1205 122.251 172.665
37.1167 183.084 132.954
40.6509 147.194 21.815
37.7635 211.36 140.793
8.73674 130.341 78.9972
69.4253 128.231 191.78
18.8049 159.633 144.538
22.6467 140.079 46.0226
40.564 203.38 133.558
49.9744 194.47 184.47
62.006 171.883 190.326
68.2513 148.043 199.701
30.4472 112.416 159.183
60.1089 100.032 189.976
24.9305 127.395 75.8019
22.7516 172.748 122.035
39.9245 201.505 151.027
38.0911 188.21 170.55
75.2989 186.314 195.263
41.4256 221.708 150.912
39.3285 166.937 170.294
69.9152 174.5 63.8936
79.9641 171.492 216.398
41.5331 147.994 176.303
44.4448 208.006 138.787
41.8312 141.403 174.807
86.433 193.96 27.1894
107.52 155.679 49.3143
55.0925 156.348 198.749
18.3873 165.678 137.6
44.4395 201.674 176.61
72.1095 110.849 110.808
39.5234 127.545 183.25
95.3875 199.675 195.215
78.0696 96.6048 135.094
36.4651 113.399 166.258
27.4203 50.209 101.935
51.3387 91.9223 154.622
41.9816 159.138 145.5
49.4165 132.672 199.542
55.1821 171.977 175.119
19.608 127.246 135.016
37.1454 181.745 117.629
82.6566 202.523 180.297
6.04485 37.8523 13.9803
68.2597 127.679 211.575
49.0768 217.728 107.062
42.5011 205.174 101.763
37.9248 154.958 28.6746
12.7085 152.04 88.9661
34.403 205.94 157.835
28.9676 162.016 170.397
45.7541 190.05 145.11
54.5695 185.609 178.057
82.3331 83.7059 165.095
59.1452 213.095 41.8683
53.4288 203.712 153.158
90.4232 130.111 75.7576
53.5505 201.859 139.23
41.6839 228.938 111.57
40.4434 164.6 107.376
71.4245 134.82 209.349
61.5282 136.748 178.61
39.6908 156.876 182.468
59.5074 22.9315 163.692
22.3602 166.429 147.482
32.1068 160.847 48.702
23.0588 133.036 156.799
69.5631 97.6345 143.123
67.5167 197.669 44.8491
14.4956 66.7712 107.832
29.0339 169.916 169.431
75.0261 115.791 105.595
6.87572 95.0452 147.807
53.3584 179.634 97.5193
18.3878 224.125 94.0131
55.4304 211.253 93.4523
33.5192 173.32 140.31
13.4264 153.489 81.6222
60.2653 175.737 197.594
150.632 28.752 125.67
103.102 211.431 2.37128
78.1832 177.752 185.733
65.2099 106.745 116.098
58.2012 206.321 84.0308
24.4337 155.426 7.46254
23.7572 118.094 131.901
34.5899 159.387 96.6579
43.4602 189.875 171.856
28.8337 165.191 126.188
82.4756 194.701 35.6596
14.2423 146.629 76.7042
69.0411 170.601 180.002
15.8402 151.031 97.0854
17.543 139.132 133.049
70.7975 123.828 204.091
53.0953 140.131 79.9883
152.393 143.893 51.3664
15.1919 135.588 106.107
49.1047 192.501 97.6183
40.4492 195.648 172.004
49.4348 229.555 116.144
69.4723 158.114 215.926
27.3347 121.445 160.929
50.7607 96.6789 174.662
110.811 96.2455 152.853
54.4515 91.8364 147.337
39.4318 118.357 127.187
32.6453 140.475 169.243
28.3177 168.743 142.908
24.6691 179.358 31.4949
36.2093 130.067 159.723
55.2259 100.077 195.571
47.3156 201.406 131.493
64.2227 131.542 155.183
87.061 169.943 207.634
23.4739 152.037 157.543
41.4131 140.15 116.148
50.5527 108.823 159.884
40.9438 155.924 172.983
23.3327 123.596 138.779
23.253 141.643 136.306
36.8452 123.024 113.3
59.71 97.001 177.211
61.8663 148.98 193.015
32.2368 114.494 170.636
23.8641 144.829 74.2727
33.3319 106.275 147.425
16.3856 161.555 132.282
78.0947 188.8 39.4076
66.124 152.067 195.831
47.5381 223.252 158.665
33.7396 144.67 102.833
12.8706 133.96 72.4211
7.35423 146.654 84.6429
56.9089 99.8163 134.123
26.4665 134.123 163.756
68.519 131.121 178.698
17.8661 132.219 154.082
60.8923 104.268 159.51
50.0833 218.01 168.999
34.953 106.699 136.583
100.63 111.484 109.354
46.233 100.707 128.724
71.4798 109.758 120.787
101.95 172.013 209.577
65.8613 99.2126 149.646
75.4234 178.962 179.001
31.2845 168.312 101.394
54.9807 119.042 187.551
17.1884 136.705 69.8496
62.7557 183.486 84.5208
64.5902 92.0371 153.209
55.1434 218.545 167.271
28.5952 146.183 124.036
90.5852 203.524 172.395
25.3696 167.988 156.594
73.072 223.584 47.8862
62.3076 149.621 185.198
15.9365 126.137 96.2151
54.9443 187.867 153.778
52.2747 198.547 104.333
74.1024 122.12 93.4701
44.158 122.687 102.275
39.3973 138.201 166.106
41.6952 168.158 159.335
75.8453 227.489 35.0226
21.9631 131.768 167.914
82.5556 89.3586 180.502
76.9625 188.746 203.437
70.3664 141.966 203.998
23.2125 229.114 95.7673
46.1366 176.024 176.648
87.2608 149.353 199.258
93.2733 125.277 204.653
69.7807 204.206 187.221
6.56823 124.761 96.3438
91.9755 164.873 214.059
78.1208 82.6217 177.493
24.2883 129.904 86.5326
69.4299 153.933 183.476
69.7385 188.366 81.4362
101.194 131.39 199.242
25.3726 130.519 177.433
83.3481 2.59596 47.1584
38.1886 179.173 124.462
8.28084 164.975 31.6635
59.0073 136.343 195.735
49.7659 107.503 193.598
76.441 203.662 186.311
34.3137 183.321 145.701
57.2 192.462 175.197
42.8337 119.785 172.678
56.4677 150.96 167.854
58.7682 106.706 182.307
35.5166 103.648 116.117
24.028 167.677 37.1948
33.7658 134.467 77.8919
22.1738 143.353 129.322
72.0185 144.173 167.174
63.3503 160.4 158.362
62.7391 125.624 170.65
88.4116 92.3223 139.033
52.8253 99.8554 147.308
110.441 154.901 199.285
16.3618 178.994 35.4103
30.5988 174.524 133.949
76.8611 86.5747 165.739
25.1582 33.4573 9.48561
14.6843 143.312 22.4166
66.8841 200.102 160.592
75.92 134.194 189.57
21.5587 139.368 100.002
73.1818 109.586 134.155
81.3862 125.902 197.797
7.76695 138.535 90.174
61.1372 97.0592 124.229
88.3833 105.622 200.901
14.6321 162.877 47.9675
28.2093 112.468 142.546
58.7961 190.838 158.784
67.6254 125.981 171.621
6.30846 30.306 17.2487
75.8736 162.236 218.83
60.9055 139.853 187.222
94.7984 182.963 204.96
46.3071 210.98 154.851
65.6568 164.845 207.239
29.1711 175.702 27.4995
50.127 127.222 174.39
59.9662 132.669 149.345
53.6973 141.143 200.427
45.5621 111.289 189.692
83.985 101.653 130.516
81.1212 117.587 98.2725
48.168 220.171 147.966
65.739 101.756 179.612
76.0539 104.727 144.739
24.4017 178.247 21.3195
35.4322 135.866 177.828
47.068 171.726 187.201
68.9789 197.7 150.141
53.6154 181.469 147.3
78.1365 88.454 130.964
75.1314 124.069 209.424
87.7993 186.621 204.436
34.1895 122.783 146.899
31.1651 145.6 117.388
25.8978 139.303 94.1015
27.2293 124.69 146.924
49.8034 151.92 110.905
36.1573 120.152 121.865
76.7996 198.221 193.138
34.8891 153.304 47.597
53.6821 192.962 111.288
29.8598 112.188 126.402
33.5838 121.698 155.059
74.5484 85.293 151.095
60.2969 97.0959 168.978
59.9982 142.845 203.995
59.9991 190.657 192.323
54.0309 115.902 109.4
34.5989 162.449 177.326
91.3303 205.742 70.1538
6.75225 50.7804 96.4199
22.1816 165.755 106.889
68.6503 221.404 52.1556
27.2052 169.717 114.942
77.5952 153.243 210.307
26.4755 155.955 123.374
19.0466 39.1914 4.56073
20.5188 162.058 42.2062
23.635 156.516 114.953
81.588 193.069 192.614
50.2425 201.798 179.122
29.4757 139.59 153.048
56.8704 198.642 149.016
20.9082 148.261 82.9785
68.6199 110 175.177
94.4901 80.0003 138.512
48.8081 208.525 175.282
58.9613 162.13 193.953
19.3136 122.865 149.463
44.2422 108.122 141.149
51.1813 208.571 144.89
48.6507 120.196 100.13
13.7505 167.514 30.8109
81.2891 166.523 219.249
30.3419 143.294 75.3017
25.7313 132.168 147.111
111.252 161.848 39.8994
63.7594 125.543 89.7276
17.9864 145.36 146.341
87.4818 129.769 198.42
82.2559 121.16 203.203
8.36273 139.895 80.3499
45.7435 172.664 102.477
22.0475 125.016 158.27
93.7202 90.8242 121.952
26.5646 138.115 136.054
77.8308 82.4556 140.121
39.7812 230.501 151.479
50.7756 219.528 99.3044
35.6218 199.067 143.582
35.8244 143.463 177.495
36.6884 152.195 145.492
52.6545 216.121 118.89
42.7946 229.105 135.153
57.7359 180.226 87.7095
32.6273 201.64 79.8762
67.2149 178.186 200.368
41.4231 200.076 140.582
94.5446 167.497 199.967
70.0868 90.1373 141.149
60.5478 225.224 62.451
32.6743 130.176 141.033
59.6289 170.052 85.5967
50.1743 122.605 166.617
46.9142 146.519 170.977
94.3547 196.813 31.5686
28.9518 173.378 120.227
39.3638 113.437 149.444
29.896 1.99316 265.127
75.0735 136.521 201.815
22.1023 147.738 91.1505
29.3964 175.912 8.01491
63.1369 119.802 94.8954
78.8306 176.278 210.548
56.1581 89.4504 169.945
49.348 212.342 66.4142
64.0927 207.799 137.531
46.6608 110.193 162.827
42.729 146.863 113.787
76.1453 149.304 204.593
57.7795 133.125 169.915
46.3716 175.634 126.335
18.1456 50.0813 92.365
52.3099 216.561 179.298
65.673 228.447 140.771
71.6514 211.464 79.5123
45.4063 189.559 133.977
77.8782 91.1146 161.328
44.4594 126.084 188.589
81.0681 103.769 199.37
32.4211 161.233 143.996
34.9157 136.945 114.795
68.0805 110.477 165.769
25.3136 144.952 10.4796
32.3535 136.355 162.114
52.4264 188.897 129.142
64.9352 117.793 201.178
57.0913 141.147 170.516
80.6957 116.199 110.805
56.4114 104.51 177.822
120.627 147.585 36.6336
19.857 141.757 93.9298
19.5072 148.759 153.867
68.7294 119.729 91.1794
49.2048 111.762 169.658
70.6942 96.2469 137.905
76.2936 125.385 171.096
60.7682 142.445 166.003
64.1748 118.191 109.391
82.2847 155.335 200.924
109.694 220.464 2.67454
93.7677 130.286 201.566
45.1692 148.77 94.7695
26.7534 178.241 14.0702
91.6444 213.348 16.0171
50.9617 137.025 186.597
57.3898 222.595 102.202
24.2112 142.324 163.22
30.561 156.563 168.727
65.277 99.1091 170.31
71.3887 86.6564 145.962
83.0457 104.287 181.776
22.9703 38.1283 16.9821
76.6034 150.699 178.037
19.7006 129.918 100.784
62.6751 162.774 182.284
20.4689 34.9633 27.0572
68.5594 188.652 165.099
33.7846 117.56 148.997
43.1917 215.102 147.89
67.3092 88.4147 184.249
46.931 163.023 183.838
64.5579 212.642 161.898
33.0707 131.019 150.471
32.9163 141.612 31.6101
78.1806 87.2799 172.855
54.3737 112.257 174.372
41.784 230.255 105.181
19.3141 144.216 72.8613
28.296 133.413 94.8753
67.9138 166.609 96.8114
66.9187 104.788 196.792
87.5348 182.748 59.1645
42.7163 115.367 116.611
142.892 177.757 9.40155
46.0362 199.084 151.156
67.8874 139.283 171.115
86.6784 113.88 203.643
101.037 126.886 193.273
33.759 171.985 116.57
93.2642 217.441 10.474
79.2341 82.7922 149.932
71.9826 102.295 119.077
89.7682 193.65 188.416
39.8426 230.423 118.743
68.8361 148.331 178.514
58.2869 222.025 149.769
62.0816 207.784 95.4283
66.9042 192.813 193.061
37.3588 118.261 136.809
54.5685 108.581 170.179
59.315 149.128 201.587
29.2408 166.105 107.512
21.5955 115.315 139.466
16.4303 174.688 17.2076
70.029 212.727 53.2149
65.1142 112.589 195.605
77.8802 226.687 45.9212
26.2151 114.248 159.476
42.8874 179.961 134.988
31.8536 197.175 78.7266
44.5675 135.254 185.746
39.1508 174.934 135.66
84.4461 204.833 78.635
64.7337 141.919 204.486
54.0845 196.426 94.737
54.8813 173.515 93.5195
46.9516 97.6709 145.006
29.5683 112.678 150.025
51.6955 182.285 114.436
51.7282 189.806 145.389
60.435 114.57 105.967
67.8994 193.191 92.9778
84.6796 163.38 214.22
81.1663 148.337 171.806
30.1931 172.607 21.7496
100.586 88.8198 150.488
39.214 174.709 127.915
51.8382 177.347 175.075
68.8682 123.601 100.836
62.1187 144.724 197.134
18.1093 1.61503 264.054
16.8832 164.257 118.982
53.6132 224.162 141.981
71.048 160.249 188.744
83.0081 88.7537 163.39
41.4957 113.802 158.274
93.8075 104.581 109.483
58.1651 189.423 86.1334
71.7121 199.624 191.753
68.8744 200.488 176.42
58.81 142.87 181.021
56.7913 153.676 177.406
41.9671 170.83 122.649
66.9733 83.0819 182.031
100.121 156.719 48.7957
70.4762 182.569 173.212
43.0972 183.216 107.189
83.1277 96.0169 194.811
9.72774 141.747 75.7286
61.0051 195.161 189.623
41.6047 165.828 117.518
55.6842 165.245 186.308
37.6341 164.585 133.668
80.8417 116.142 211.88
62.9744 130.413 191.21
33.8063 158.223 112.579
27.5042 134.598 111.269
85.5983 195.885 199.842
55.3534 230.195 52.8031
73.9514 103.02 111.779
10.2179 128.424 95.2156
37.6724 123.172 177.129
69.4323 196.101 165.093
55.827 198.087 125.338
59.6175 181.832 189.798
35.4634 129.003 167.896
66.6093 185.342 195.05
79.5039 95.8809 175.356
52.7674 137.341 172.449
88.1442 121.741 209.402
80.9445 192.304 72.4102
29.3661 131.211 175.421
31.1117 151.214 111.227
36.7201 125.441 104.575
73.955 108.003 196.096
78.647 109.553 209.521
71.102 200.054 89.0029
53.4638 187.357 93.5627
55.4682 111.354 182.182
64.6869 224.352 156.491
49.6322 194.915 149.268
63.4713 177.999 171.001
67.3076 180.509 69.46
65.0557 177.353 87.6408
54.7792 152.493 107.986
62.4624 179.984 127.85
43.0016 182.1 128.763
44.0098 223.03 129.404
102.726 193.635 196.199
47.9781 217.087 123.078
144.769 176.309 1.82873
67.2779 140.526 198.437
76.1586 1.89445 45.463
38.5059 148.78 170.419
103.94 211.502 61.6257
76.5358 186.547 80.7101
27.6515 112.753 134.028
11.0299 146.814 99.8417
87.811 185.88 194.831
40.0407 1.94509 269.756
21.8161 146.508 116.43
55.8558 220.889 135.406
37.3458 193.557 140.03
70.0986 181.939 85.4155
52.4033 154.497 182.225
49.6845 167.851 97.2998
33.5241 146.215 155.47
52.8587 213.312 152.766
53.4012 225.471 152.912
54.4155 217.62 150.225
66.2782 199.537 74.4104
71.0753 129.547 198.706
33.5527 179.015 149.653
68.6534 119.422 170.248
50.4203 216.224 140.074
60.4184 89.116 153.11
66.0096 205.411 145.646
37.2884 140.568 118.183
102.182 181.845 216.776
76.9921 176.812 167.889
14.6 38.4779 10.4659
17.4031 138.06 23.4972
50.1531 184.297 178.038
99.1323 92.6888 144.289
60.9452 230.5 48.5749
47.3276 186.612 128.483
47.4167 124.947 183.439
101.793 95.732 180.047
46.5812 186.161 140.728
33.1679 158.283 173.832
97.1041 195.387 188.391
88.3688 197.398 184.641
50.236 231.228 142.786
53.9319 222.801 88.1339
88.0087 120.77 201.98
49.4138 229.212 135.857
72.4425 156.343 209.404
82.4554 225.788 34.7794
81.1578 149.396 204.899
8.49602 152.895 17.7021
88.7566 110.752 105.943
34.3171 1.40937 267.245
63.1436 223.144 58.4009
90.3827 217.193 40.9206
52.4807 97.975 189.153
23.945 173.504 9.0532
24.2972 163.151 110.662
61.692 130.663 180.756
71.4763 164.063 213.494
78.5035 200.621 80.4496
109.946 210.567 24.4319
33.4616 158.427 126.411
87.8042 110.853 197.251
52.2877 226.051 119.723
95.2858 194.276 200.186
32.5366 146.165 145.944
47.4621 226.053 96.5664
64.5608 90.8907 203.652
41.8517 156.297 101.428
75.8963 178.9 197.286
35.8896 150.406 109.246
82.7279 90.1762 147.614
63.6387 173.128 152.657
79.4749 170.289 173.809
48.6927 224.432 125.221
67.1996 161.544 89.9633
46.4943 170.665 170.624
18.1575 144.191 141.629
26.6219 155.441 109.661
52.8212 143.894 170.798
68.7721 100.462 133.006
82.2076 97.4325 149.075
30.2887 130.016 156.547
43.107 107.654 123.174
41.304 134.357 120.694
96.1501 228.118 180.626
81.6708 203.138 170.371
82.582 183.667 169.942
33.9436 155.828 40.2394
73.0199 202.183 144.45
80.6107 199.46 149.907
49.6871 140.845 107.849
99.9319 188.194 190.934
59.3843 224.501 87.5158
63.7753 198.705 171.13
93.773 150.773 185.322
92.5838 84.9864 127.089
68.9502 155.846 173.323
91.6281 98.2311 129.094
88.856 193.94 195.219
39.1921 180.493 143.687
78.8174 98.4571 114.545
22.997 154.18 108.123
45.9481 112.767 183.802
40.5963 164.314 98.0834
43.2347 198.199 129.175
33.5042 168.953 130.323
81.3329 156.718 161.7
16.6521 30.6611 11.4716
49.1573 228.917 61.612
56.2299 149.011 194.129
66.83 196.004 81.1143
97.9697 161.544 189.058
65.6084 132.305 144.202
69.2777 177.568 181.855
37.9163 192.041 127.501
60.5381 91.3471 139.636
52.8427 95.9108 160.597
79.3318 223.006 58.9802
44.7099 231.289 127.43
49.2514 146.63 181.159
64.4649 189.881 85.7359
33.6344 166.731 149.095
56.6426 228.652 110.4
104.629 155.297 197.669
24.9356 128.929 115.234
45.8982 220.876 85.6537
75.7679 118.679 166.435
65.9076 211.163 69.9555
57.2228 206.798 127.312
44.5855 163.412 153.6
74.9096 103.808 198.587
91.6696 226.006 176.82
58.055 171.009 169.303
39.4599 148.47 35.9995
58.5979 206.796 144.789
46.2818 191.223 110.91
53.5505 147.368 175.213
65.6539 195.141 132.036
137.462 147.585 34.3874
69.9997 147.228 190.398
34.44 170.808 33.2573
75.6792 178.891 85.5263
45.0095 209.631 162.619
76.3945 124.986 189.804
6.10675 137.36 106.631
53.5101 169.233 185.418
70.4013 130.407 171.64
47.6456 181.023 97.6376
51.8931 157.507 90.3299
83.7376 214.618 42.8977
71.7501 205.627 68.5026
89.8494 175.755 196.657
68.859 176.778 192.881
37.1001 202.907 136.259
84.2469 173.841 199.986
77.8022 126.483 100.859
56.9751 200.328 134.512
61.4337 196.15 84.4019
87.253 154.269 166.744
72.2357 168.92 164.686
43.7783 189.346 114.56
115.038 132.432 54.7163
41.1811 169.483 131.219
96.1385 114.191 187.076
68.6711 164.754 160.616
25.9801 231.185 162.887
71.3658 215.611 146.417
63.4491 200.813 145.892
67.1854 120.724 206.442
78.1505 220.5 40.7287
25.5559 197.277 119.418
62.7063 127.644 150.079
48.3019 102.963 142.703
43.9252 124.849 107.876
76.2275 192.775 91.2908
75.8083 182.664 190.346
80.0436 92.1579 117.403
37.2844 167.191 123.058
116.733 225.883 13.3403
56.3447 214.821 71.737
77.3989 151.567 160.928
64.3694 217.491 143.656
52.4321 165.254 104.688
72.8478 197.953 71.6263
55.1581 128.415 173.447
53.2704 226.692 64.9928
49.4015 188.773 120.627
85.4822 118.858 184.498
40.7156 228.957 97.8632
49.1635 136.72 167.8
76.0667 130.698 94.5787
63.0972 192.816 97.684
67.0074 188.041 184.295
36.7972 134.525 102.66
107.129 91.3041 146.452
121.35 203.03 181.452
71.8698 202.204 171.398
50.1932 164.358 175.547
48.3765 194.428 170.045
118.36 157.343 45.4825
84.6407 183.316 181.311
67.8475 80.9832 176.902
73.3753 93.0817 124.143
6.89628 148.24 93.7751
56.8758 184.948 164.863
56.1103 230.573 103.69
94.4755 163.004 46.9102
40.4144 162.714 200
51.8439 170.372 103.811
69.1319 133.596 185.84
77.6815 181.46 204.442
83.3801 144.724 200.424
106.22 86.4139 148.81
26.204 58.0116 106.431
67.964 107.005 134.453
87.4494 106.2 148.38
71.3322 93.6726 166.362
100.417 103.483 114.21
59.9669 118.708 170.94
53.2558 175.933 151.371
52.4422 230.18 131.269
51.8646 152.457 196.281
36.7466 197.899 120.06
46.7465 150.958 104.224
91.7673 143.327 204.492
62.4892 173.13 95.8753
83.407 84.5775 139.239
64.1108 118.02 117.292
68.4005 229.109 40.9417
61.9603 226.36 131.204
44.8603 175.929 147.17
84.622 107.168 107.287
51.6345 199.992 114.375
51.2649 102.885 166.488
85.4813 151.755 176.469
65.8863 164.327 191.086
80.3434 170.702 167.276
59.0132 176.196 164.544
58.5715 188.592 105.584
36.2157 197.977 115.901
38.8783 156.745 18.7596
92.1504 165.892 193.278
88.9224 159.07 214.323
96.8579 216.848 39.8029
91.3004 153.416 207.295
39.1898 148.254 95.4047
43.1816 153.648 110.654
86.3143 181.234 38.6412
48.89 229.012 65.0777
85.9002 118.873 192.401
39.0376 140.37 100.947
11.1041 139.104 99.4653
82.4025 180.029 86.9559
68.45 221.765 126.741
91.8307 145.927 194.007
62.8554 201.135 81.2753
73.5332 115.671 123.023
62.7405 108.555 109.156
55.6872 139.975 194.873
28.6213 59.6038 99.867
59.5825 215.739 173.359
60.4368 204.869 150.358
62.3924 114.722 190.324
57.4672 118.072 176.16
67.7341 196.246 172.391
62.8395 229.634 42.2571
72.5607 154.587 201.366
53.7577 162.529 197.649
56.6435 222.279 114.969
99.7182 205.861 178.527
45.8782 227.673 86.5827
99.3535 139.783 201.442
69.1789 168.699 170.432
60.7158 188.646 90.6338
110.242 165.247 210.113
58.1263 218.612 122.443
8.94709 34.3679 37.9393
87.9981 177.559 165.065
42.7092 131.198 100.756
61.879 96.5345 155.783
31.8422 169.864 110.066
104.594 164.005 208.549
43.6192 107.384 180.132
28.6287 130.953 118.486
72.1865 105.351 191.137
82.7277 79.1493 152.029
70.8713 99.7013 150.629
92.5143 127.558 194.811
5.36619 141.769 100.554
81.4614 106.501 146.218
7.99823 144.189 104.785
58.1501 231.168 129.929
66.1799 1.18791 141.852
40.8704 209.319 146.641
88.3022 118.893 101.088
91.7454 114.887 196.944
32.1605 167.377 121.548
25.3698 35.1116 23.2682
63.1176 227.424 89.8893
79.2798 115.87 185.757
56.7261 157.468 94.3955
7.40543 73.0801 162.472
59.2295 231.393 145.539
79.1667 177.511 161.448
62.7782 190.684 150.624
38.5183 162.814 24.1126
74.399 189.022 160.814
41.4705 112.405 142.529
97.483 161.213 208.348
95.5855 110.29 110.031
15.1568 168.28 43.6
34.1681 167.587 159.833
78.5036 110.862 133.893
103.01 165.256 196.734
51.9131 231.173 87.2419
84.2008 106.745 135.642
87.5824 155.844 200.718
86.7838 89.436 127.391
76.1377 132.282 182.116
41.02 121.674 112.195
83.3079 109.983 185.521
56.9691 185.248 96.0364
41.3085 204.984 166.742
61.7853 125.124 147.382
38.798 155.629 112.91
72.157 227.407 146.474
69.0403 174.549 95.7606
84.4641 78.2008 143.992
13.9521 1.52364 274.63
96.2717 213.199 12.4071
59.4146 215.708 148.428
46.0041 216.334 140.104
102.479 183.698 201.127
80.5771 104.231 106.533
45.9403 139.924 113.932
58.8086 227.859 79.6674
74.1414 170.984 180.289
64.9691 84.807 178.509
64.8363 90.4877 190.207
93.8698 115.847 104.342
62.0216 222.171 115.2
30.6213 167.508 157.902
53.6663 231.518 154.021
43.881 129.424 116.153
103.515 86.0747 159.092
93.2847 100.679 146.107
80.1987 125.342 173.909
59.1271 220.122 71.9483
80.3249 137.637 166.965
44.1507 136.972 167.733
62.5872 169.938 107.951
77.0837 141.78 162.088
74.2502 94.827 141.914
90.774 169.565 60.7182
