ply
format ascii 1.0
comment Created by Open3D
element vertex 799
property double x
property double y
property double z
end_header
48.9495 104.132 134.72
47.3368 168.496 182.111
38.4191 163.77 173.363
62.2942 71.1616 155.559
67.5179 72.1622 103.598
59.4971 97.3901 115.745
58.5575 84.2521 126.702
59.4938 84.0942 90.7251
54.8195 150.516 171.246
50.6603 83.0575 162.309
76.2313 198.375 66.8632
60.1672 208.857 99.5904
50.7769 70.5385 140.463
64.0827 151.689 84.0584
52.0522 81.9183 131.222
61.2697 63.9653 161.571
54.4179 147.937 142.234
68.4452 95.5346 120.096
50.9916 85.1054 154.521
34.6874 154.711 157.347
69.7293 182.201 107.503
99.1005 100.957 67.0398
52.1058 223.234 89.587
74.9374 200.292 96.0991
54.5184 176.238 187.06
66.7886 116.262 43.6906
55.035 185.591 124.952
65.7399 133.897 149.417
68.9448 73.1346 94.6556
86.133 59.6044 98.2502
52.5068 102.624 125.071
75.8294 80.0667 178.224
80.1119 53.5957 110.909
62.4762 146.309 171.92
66.8442 202.4 95.8107
90.786 68.6578 143.695
79.8914 104.047 64.4861
53.7741 216.845 84.7511
66.8152 148.667 77.4335
53.498 166.223 190.35
97.5885 177.488 37.0817
66.0668 92.9261 103.449
55.4087 102.339 101.873
87.8382 220.269 137.746
82.2652 136.563 175.326
62.3771 166.926 106.106
71.7798 209.164 84.5444
61.3292 92.102 178.643
51.7328 94.1458 165.619
86.9279 57.926 106.251
71.6453 168.885 181.284
63.3821 218.108 82.2881
75.8671 131.446 162.006
66.4019 124.34 35.1794
61.4771 83.2403 102.198
60.4822 91.0742 162.913
59.5098 91.6199 124.196
68.8177 76.1058 180.512
51.1673 134.864 117.546
69.6204 156.916 106.888
73.0006 64.4175 120.41
74.3514 228.949 56.7339
54.683 153.872 123.126
64.0136 173.679 185.757
111.111 59.284 105.639
64.5955 67.2371 127.612
39.416 160.701 149.596
68.8534 101.382 166.65
77.5949 168.924 104.204
52.373 178.71 170.969
68.0796 224.204 65.5901
53.8968 100.654 152.655
68.8328 76.1029 112.71
108.675 59.6297 96.1312
48.4403 93.1983 155.655
81.0201 145.591 51.4117
62.9488 139.239 168.142
60.9043 168.085 179.188
111.833 119.576 129.062
78.8053 224.611 61.2415
67.2954 228.702 128.007
75.4561 214.65 59.5557
119.29 86.1332 108.423
63.3264 142.721 96.0418
60.0466 82.2577 165.95
51.4509 92.4375 126.421
70.1985 151.51 99.7327
84.9404 126.549 75.9785
116.377 64.5749 113.286
66.752 166.762 149.896
79.8795 192.509 129.665
60.6962 229.159 65.3898
83.5178 190.714 101.385
121.414 100.984 111.658
116.999 148.66 181.159
57.8507 89.7875 109.882
55.1071 96.9282 106.867
78.0393 117.352 76.5084
54.9452 108.332 88.708
69.6631 136.46 172.394
63.0743 141.163 151.167
26.0104 167.721 164.241
112.159 104.485 135.524
82.249 66.1091 144.204
58.3059 167.097 114.796
96.8639 85.8705 165.075
56.8075 155.468 149.172
79.2262 201.633 142.049
98.3928 154.303 50.2611
78.9117 219.386 68.1671
89.8675 159.112 63.1609
159.18 15.9542 263.348
73.6544 222.416 139.144
53.2289 101.994 118.11
98.2588 139.117 174.142
73.4687 153.601 65.6018
95.7771 199.216 60.2317
90.9421 204.735 93.6826
96.9163 163.351 45.9124
88.102 165.051 107.637
54.8112 215.874 95.1159
59.6091 107.806 165.56
70.3179 140.99 160.241
50.827 119.971 89.6653
57.6365 136.667 142.357
64.0574 169.797 164.278
69.4354 108.132 79.9148
84.7171 178.677 57.2851
50.9811 156.079 175.138
79.7256 146.464 182.021
65.2107 83.9597 110.472
68.8407 144.485 175.268
78.5061 73.0602 86.9618
65.0113 88.0558 170.464
97.3104 113.031 161.64
65.2088 144.911 183.18
57.8852 172.332 132.124
84.0485 208.263 131.637
111.374 215.052 75.7421
69.571 208.684 71.8348
68.6302 116.012 69.5009
104.58 87.7178 153.772
84.7008 69.1384 81.4063
113.536 193.713 173.392
119.914 178.444 190.153
60.3318 209.266 84.5137
84.5237 203.778 124.27
98.9235 79.5588 159.784
67.4095 163.153 173.71
65.0066 99.1815 96.7523
91.2714 100.771 61.7417
89.4684 152.635 50.669
97.017 52.0374 111.679
129.666 105.849 109.048
72.4495 136.614 182.57
115.666 99.1406 124.072
86.3767 208.066 65.8756
72.1123 157.834 80.6782
50.8849 91.5217 146.382
67.8337 125.476 55.7277
91.9399 178.259 44.3606
47.4689 164.848 144.588
86.2633 104.936 163.309
54.2383 74.4289 157.532
84.243 77.0571 76.9441
58.1334 107.23 81.65
103.052 67.3698 122.312
67.5183 60.681 152.919
61.0495 118.182 139.538
69.7186 62.292 163.941
99.8848 60.4345 91.6879
56.533 115.914 86.1264
90.5827 192.531 61.1675
28.1236 180.081 154.889
81.8662 108.913 168.916
73.7558 222.712 124.209
77.4618 101.266 175.011
92.3378 100.222 168.198
58.8426 103.597 94.3939
81.3497 130.255 32.8479
89.7444 178.727 51.0255
51.4745 119.056 133.03
101.939 82.8178 74.6929
51.2118 123.908 125.971
54.0768 75.7303 167.52
54.603 116.348 100.235
121.121 172.166 43.0561
58.5674 96.2632 89.7595
66.579 113.387 80.678
116.513 119.877 141.444
66.9227 104.199 175.596
53.5831 117.802 120.757
64.6496 103.117 81.2087
87.9649 80.9573 159.353
59.0268 86.4153 137.82
58.4063 148.628 126.363
30.7565 161.269 161.366
52.4118 111.039 123.826
113.995 171.143 185.857
78.1063 125.089 52.3086
124.686 173.052 194.765
81.8719 179.262 119.287
56.9841 97.8532 82.3315
69.2487 116.154 51.4813
103.342 74.9298 79.7257
94.9365 62.0003 122.426
56.5917 89.2075 96.2156
78.4736 61.7227 94.2836
105.081 110.911 79.2255
85.2571 132.31 60.766
62.2654 107.879 148.008
79.544 208.776 104.951
75.4831 216.707 77.1854
79.6445 90.2787 178.299
57.7067 188.14 135.474
66.18 203.651 102.69
61.3599 86.31 117.935
78.8717 111.361 67.8185
75.794 149.326 189.826
73.4129 66.2925 156.989
106.611 74.2741 87.5608
91.1395 52.7963 103.09
81.4413 228.289 146.798
74.4899 69.5434 165.359
53.8753 109.71 103.556
96.579 66.0635 128.989
90.5067 91.991 69.5026
50.5913 123.591 114.683
68.0978 208.298 64.2104
97.8921 178.979 174.49
55.9038 106.199 111.7
113.299 113.652 179.593
56.2712 127.456 145.525
65.1029 77.8527 90.9637
85.436 183.858 69.2565
116.094 91.3578 101.514
80.0532 204.639 88.7122
54.1135 138.518 134.868
82.3375 161.083 59.7468
99.1794 188.981 95.3051
93.6005 159.605 54.2008
83.1147 66.2684 89.7363
115.01 180.859 180.402
90.4148 112.158 168.12
57.1464 133.616 149.471
61.2216 63.4238 139.575
60.1946 150.126 90.5219
112.775 115.192 85.1502
35.2736 156.788 166.573
87.8073 59.4695 124.409
55.9841 172.101 123.639
71.6899 128.858 152.52
57.0733 125.235 80.2357
113.19 188.363 192.665
65.6914 97.3043 74.4305
87.3747 78.5296 168.11
99.8745 59.4465 116.815
61.825 95.8948 169.324
77.909 160.746 178.729
63.8554 79.6409 174.597
49.7168 159.739 183.345
92.6714 124.884 168.648
118.741 117.316 111.329
51.4518 131.123 125.67
43.5317 74.0032 143.564
104.421 55.6225 110.268
102.097 163.907 66.959
64.016 113.297 162.234
51.4122 141.793 148.833
62.0888 97.9958 103.261
116.779 199.517 163.636
60.4751 221.766 95.9646
88.863 55.1844 114.73
59.7609 220.515 75.9781
69.455 65.763 110.461
30.3537 176.3 163.136
32.8256 162.64 147.344
76.9172 94.1788 66.0296
119.886 166.369 189.858
100.22 94.8672 165.416
82.5919 199.183 103.463
107.809 97.929 168.25
72.2567 67.6481 146.535
80.3288 88.9423 62.2616
72.5126 131.808 168.906
102.077 124.08 73.2168
91.2917 145.908 175.12
88.7236 162.933 100.148
57.2171 164.129 154.46
81.4098 199.891 131.92
98.8627 52.014 38.9977
105.256 157.325 180.252
35.7375 181.139 158.861
68.8456 115.942 156.622
105.096 181.57 90.4039
52.2731 177.991 135.536
62.1801 226.988 100.812
87.3145 87.1257 61.4236
119.093 66.6937 101.868
94.6871 145.758 50.7823
85.1568 93.4853 169.102
63.0796 74.5332 118.64
109.984 181.781 83.0698
96.2225 69.3882 138.127
75.7615 175.111 106.396
111.44 86.8497 77.9675
87.1158 206.077 78.8356
61.3553 113.392 133.257
109.948 180.264 72.55
75.9543 214.495 107.729
124.385 97.4381 103.764
93.5861 132.024 61.4455
80.56 218.32 149.712
60.3419 122.499 146.235
96.0101 171.801 44.7571
92.5302 69.7686 43.7647
107.693 106.284 172.771
39.0846 174.487 155.637
65.8786 126.961 148.177
59.3379 63.9031 153.928
68.0068 128.715 46.9412
71.0344 202.584 88.5103
77.6246 56.5472 103.374
53.952 158.319 131.683
53.9367 177.936 163.61
88.1175 140.474 49.0777
84.0765 187.38 60.5214
85.0818 197.931 62.7255
86.6186 188.101 127.669
79.4251 73.0622 129.69
79.8946 180.072 130.173
76.9629 127.058 64.7256
50.7501 174.274 155.344
72.396 138.242 70.1468
45.8878 95.3899 135.045
80.0684 59.9824 123.986
62.1741 134.868 158.316
90.4502 197.593 104.868
69.2771 168.97 103.08
98.7373 196.479 67.8423
69.4282 103.379 70.5205
78.4365 118.396 148.366
113.351 187.1 185.102
90.7618 58.5351 38.8234
72.76 113.263 163.762
71.1293 70.5292 134.584
84.1677 192.666 73.0944
54.9036 131.105 133.395
76.2821 142.961 60.4511
43.0768 157.525 173.598
76.6526 61.0859 112.186
32.119 169.028 153.602
71.3337 83.4951 73.98
99.9321 102.03 168.811
105.53 67.4055 90.0167
91.6445 173.619 109.212
86.703 64.9784 131.522
58.7643 179.412 143.648
110.791 80.2762 81.6125
92.066 166.188 55.0608
66.0701 211.944 107.896
49.8594 109.317 141.595
109.44 108.323 130.456
80.1293 64.2766 162.94
107.74 107.673 70.7505
70.6308 117.798 148.455
70.4518 207.857 115.259
69.1938 230.631 63.0913
69.1964 225.191 101.707
111.918 113.615 122.283
110.169 127.961 174.005
51.9389 227.811 97.2573
83.5321 123.719 155.539
55.5382 169.812 160.746
90.5708 201.37 99.2241
23.6499 173.895 159.322
63.5954 228.706 109.454
65.8563 220.412 109.797
64.4679 212.973 74.651
117.712 83.2715 100.207
93.0358 197.267 69.1888
71.1699 125.579 71.074
80.4014 214.919 141.59
80.4623 211.931 126.781
100.565 179.954 105.172
55.7845 63.5771 148.404
103.75 160.936 85.5495
67.6012 78.7903 100.663
65.8411 170.162 112.348
71.8581 75.0547 78.4442
71.5713 180.851 118.103
83.0821 198.045 82.8826
86.4904 158.986 94.1394
67.9309 217.185 129.268
103.723 72.2813 149.528
62.1428 177.477 190.096
54.5265 230.743 86.2673
96.8935 119.828 65.4916
97.8684 56.3274 102.828
107.35 99.267 71.341
70.2107 191.213 126.829
89.1572 172.005 56.605
68.6562 216.788 68.2308
119.727 116.355 40.3605
60.9304 166.917 135.755
97.0109 205.161 151.384
72.0121 70.9244 87.1632
92.675 90.3879 166.797
109.826 61.6847 120.091
84.1221 198.864 151.009
110.62 98.6135 141.984
70.4022 92.2558 69.6164
84.5759 130.523 171.21
56.4743 170.169 144.586
87.8812 204.999 108.299
62.3973 181.513 117.948
84.4541 177.875 114.215
61.8765 118.582 79.557
94.1308 201.47 74.5783
57.8226 147.787 135.127
77.194 125.882 158.038
96.8969 199.391 99.635
71.8674 225.993 119.583
97.1382 76.0455 151.301
70.9538 134.242 157.034
84.2029 72.4067 160.61
72.0094 195.601 138.489
83.5618 180.216 64.8303
52.5572 224.241 79.3783
63.986 115.663 147.103
57.5138 124.235 135.099
57.1843 131.661 79.5225
50.3594 130.415 105.904
49.0384 72.9992 151.136
67.7973 62.5715 143.342
58.5594 73.578 124.191
86.4299 123.452 163.509
101.224 114.916 71.3126
110.839 175.627 79.2171
104.668 119.021 79.608
97.2405 76.0786 70.9943
123.243 94.4498 120.407
111.484 91.9426 86.148
80.1855 197.836 95.6804
86.9068 163.745 178.804
74.383 208.79 141.913
97.3499 179.914 166.834
104.258 69.1456 135.266
51.9872 89.4091 135.085
106.196 171.913 73.9285
83.3149 87.2616 168.513
95.7936 66.0978 89.0234
83.972 157.305 71.0919
117.517 86.7101 118.095
73.7475 198.289 103.869
48.1308 120.357 99.4606
74.3202 167.194 97.4938
118.139 84.4826 137.86
119.621 76.5893 106.604
87.7465 158.354 86.5466
102.648 225.108 217.258
122.071 81.9821 114.768
77.8896 204.679 79.2779
53.33 112.824 146.999
101.259 120.349 175.638
116.556 112.199 144.36
82.1417 182.456 104.827
55.2483 162.127 123.344
115.645 153.683 54.7362
96.9297 185.903 161.039
78.3774 204.336 115.768
118.261 191.006 160.888
105.921 187.722 167.804
122.286 89.7864 92.4389
100.155 171.732 107.708
72.6786 205.842 106.772
90.6285 118.917 158.87
87.2622 209.87 150.325
83.2752 200.797 72.7455
120.03 145.148 173.944
73.3626 157.922 94.2903
119.582 74.9435 96.9052
91.9945 61.9451 92.2565
83.3125 80.6593 64.9674
89.0907 135.791 56.0189
59.7172 170.77 171.648
71.0869 186.885 58.3753
113.62 226.603 138.861
126.7 119.493 113.787
96.9176 183.491 64.4642
104.013 73.2087 140.604
100.709 194.138 162.534
77.8667 157.965 86.9077
65.139 127.904 41.5095
78.7883 212.92 120.84
70.6291 143.542 191.317
104.311 168.665 47.5969
44.1216 83.8526 147.87
113.254 176.175 90.4659
102.645 134.203 66.4936
77.3149 65.8914 138.506
44.676 172.964 149.644
62.9629 131.685 72.583
49.3549 102.275 143.966
112.105 137.371 179.761
64.8683 80.4918 74.6286
105.874 202.1 86.2717
85.2667 97.0039 59.5393
114.234 106.106 119.522
91.0581 116.117 72.6254
115.496 86.6178 154.206
57.4697 141.3 89.2538
75.3598 218.332 113.005
81.0537 81.2241 171.418
83.862 181.422 140.275
79.0871 171.576 157.398
108.592 141.492 49.6897
92.1815 58.4105 46.9976
55.2017 139.002 83.9309
107.416 119.508 180.037
100.029 150.687 172.844
91.0262 124.563 64.1331
79.1829 212.459 79.2178
125.103 113.158 110.063
59.2001 221.545 68.8896
104.232 202.226 76.854
62.7739 92.3144 79.8587
87.1378 167.433 45.6329
78.6359 125.204 147.339
125.518 123.265 122.741
106.444 187.033 68.4891
58.0636 101.731 175.428
75.7715 177.716 126.547
70.918 123.051 149.029
99.0986 128.652 67.6429
104.576 193.294 77.8201
106.248 114.65 172.513
83.6895 130.152 43.2746
90.5909 192.756 95.0993
84.8996 114.013 159.16
96.4941 135.109 48.8244
72.9875 216.456 133.975
54.5219 143.917 99.2714
97.5178 89.0535 70.3629
96.3895 155.811 174.499
64.2158 216.721 102.39
65.6367 122.257 155.738
78.9541 114.667 156.114
97.0958 157.139 85.9774
79.3441 134.419 63.5192
67.0568 90.8494 126.901
67.0194 229.311 116.447
91.3798 183.958 106.009
73.9294 66.5806 100.271
97.7657 120.611 165.101
106.314 160.789 51.2093
59.772 100.925 76.9438
100.757 210.214 87.3487
90.2124 156.791 75.5287
95.1445 165.233 106.463
98.1821 202.973 90.9614
107.412 171.295 39.9075
47.882 90.9501 140.362
103.126 179.123 76.5973
56.9935 100.281 144.725
119.187 113.81 131.66
83.8708 126.699 67.0745
83.7426 124.723 170.024
101.948 158.828 94.1762
101.695 109.416 168.192
54.2249 146.905 152.53
111.575 174.169 176.643
70.9893 174.069 113.476
101.848 90.3745 160.628
77.0862 163.578 92.6687
118.69 93.0461 113.123
91.1968 194.74 151.495
57.8512 94.6897 101.016
61.6792 85.3771 81.6644
86.5045 215.605 122.725
109.306 96.445 134.068
116.571 69.3407 119.386
101.524 177.923 69.0118
63.7164 172.277 118.639
77.8386 75.4243 76.5784
153.602 24.8601 274.146
91.1677 71.7284 155.851
82.8737 166.253 172.588
77.34 195.189 107.37
98.8611 126.878 176.575
69.051 107.703 165.052
113.405 173.553 44.0722
104.629 66.4655 128.866
119.409 165.439 58.9529
67.1302 168.393 141.169
93.9468 163.807 175.327
58.2796 231.086 78.9221
89.3642 164.349 78.9457
118.099 120.18 119.439
64.5724 141.226 74.3998
65.2969 122.684 73.0553
52.3032 130.817 89.9157
56.9882 162.163 137.765
95.0359 161.746 73.3805
62.2968 191.74 130.166
104.481 96.1222 81.394
118.658 208.188 154.93
81.9551 164.583 102.058
104.063 134.397 173.635
76.8619 160.014 72.1993
126.741 125.428 178.813
108.845 181.907 173.458
105.824 143.628 173.096
75.628 219.365 118.159
101.667 165.94 177.625
80.3825 158.069 94.7507
71.7042 230.169 134.671
64.1984 221.323 116.245
93.3082 175.387 65.5346
119.041 140.715 72.456
107.595 151.398 51.9043
90.7376 203.155 147.664
112.493 136.072 61.8153
120.309 119.882 84.2449
61.5397 148.348 106.729
95.3504 170.815 74.8925
114.341 76.5205 91.0042
80.9408 72.8564 102.264
51.8291 139.799 109.256
79.1613 160.09 80.0889
133.349 112.649 114.087
106.488 212.221 152.484
84.551 72.335 70.6269
76.6917 82.634 68.4419
80.0497 229.462 137.485
125.932 106.272 85.4575
112.262 128.917 74.0211
84.6835 156.863 80.1477
76.3104 207.284 68.525
110.977 92.8865 160.001
98.3161 67.7802 79.0776
80.3997 165.708 89.845
130.115 102.484 94.6265
94.3024 187.666 72.3725
57.0222 138.352 155.182
55.729 108.111 139.023
125.752 119.202 129.757
117.327 97.9975 82.5179
89.2718 199.983 116.741
123.597 74.8761 114.775
101.673 141.507 47.8472
124.81 170.646 53.3894
75.9118 122.111 70.3426
68.2807 175.117 158.76
69.3867 131.096 68.1916
88.4078 164.043 67.5238
91.5617 68.0398 80.6346
90.1301 195.513 77.3025
88.5419 185.786 114.494
59.5051 139.202 77.2463
81.9841 212.988 66.4503
99.6458 59.0498 98.2476
91.6317 132.622 176.42
116.321 121.854 178.813
54.216 144.886 121.231
118.841 76.8388 122.965
80.232 193.812 122.316
101.551 168.031 79.9504
65.2953 134.897 68.985
77.5126 124.931 41.3435
113.469 85.7464 90.8376
77.4389 185.176 136.08
83.6802 191.521 115.485
52.7963 112.245 133.387
108.741 204.255 149.536
72.6135 172.542 144.798
94.718 166.388 61.4495
120.501 89.4873 127.648
57.3229 231.284 112.844
114.823 87.1614 130.142
77.1657 171.784 172.643
79.2268 191.099 147.864
85.4346 197.833 35.9815
135.705 116.807 85.1788
76.2224 177.349 153.81
106.02 129.716 81.7343
93.8391 160.4 94.6835
87.0162 152.565 179.554
84.9001 164.89 90.6239
97.3259 163.33 81.4435
111.148 99.6512 82.138
71.0684 181.829 141.154
108.255 171.233 85.734
119.587 129.857 178.37
110.879 191.27 162.797
95.1139 169.332 67.9175
101.287 132.422 56.632
103.805 177.852 97.0328
86.3383 172.829 168.49
69.451 214.792 115.708
97.3197 186.823 102.811
113.318 106.497 77.4168
109.011 77.4415 142.774
109.595 134.866 71.846
127.955 125.551 82.9856
90.0754 79.2796 67.0359
105.867 205.032 155.974
114.618 161.864 51.2804
73.7576 165.759 165.773
99.9489 168.774 87.5296
93.6422 187.859 153.46
122.057 97.4034 88.8176
123.242 114.001 88.407
84.3689 195.56 109.383
115.722 158.837 183.443
90.9455 198.175 82.0051
66.5457 205.28 109.218
114.958 74.6842 138.592
82.1242 57.6355 128.49
106.567 188.462 74.9202
113.764 202.199 154.526
100.121 94.6106 76.7022
112.857 167.477 49.348
96.831 203.766 82.8236
123.638 137.749 180.465
61.9805 98.8682 85.3053
103.924 103.403 76.8969
99.9828 69.0537 45.4382
46.7202 86.0163 135.992
131.337 170.671 62.0591
62.1345 148.048 160.865
50.0613 140.368 125.284
98.1286 194.285 77.5288
110.193 149.717 176.824
81.9318 186.9 109.943
117.225 94.9478 142.685
119.914 126.684 80.0953
120.767 110.844 81.5766
68.8136 149.283 93.5144
74.6535 231.184 121.299
117.205 105.432 85.2408
83.1251 163.833 78.8908
95.9804 177.711 73.4929
116.367 109.657 113.701
100.979 172.073 101.001
112.338 125.453 82.5578
126.003 134.598 67.0092
73.3262 231.367 144.024
79.4052 167.005 167.432
86.3082 192.202 122.458
117.115 80.3328 127.666
131.921 162.137 64.3261
112.643 73.2727 132.681
89.7923 179.51 61.3108
56.4449 231.448 98.157
74.8708 119.161 154.561
71.4584 127.271 77.5724
84.6682 208.257 113.292
74.5683 107.996 74.1176
91.3452 182.791 160.363
82.9146 208.529 77.063
111.894 69.7897 126.524
126.245 100.062 141.818
74.7836 181.362 148.395
63.7725 153.363 95.3673
91.5659 174.441 169.262
86.524 191.002 46.4588
108.096 133.368 52.1784
83.1853 184.116 123.492
92.3481 158.211 82.1594
105.301 165.478 93.7928
77.439 176.485 166.64
94.8545 162.611 66.8477
70.0968 215.772 119.781
70.8469 124.244 40.4756
114.621 115.318 73.8369
86.2287 180.517 109.42
120.669 163.231 67.0869
120.399 129.11 71.7741
123.344 155.853 62.2341
115.579 112.476 35.2739
75.7289 209.983 113.422
57.2822 231.606 105.966
78.3586 187.135 119.926
95.772 175.266 103.968
66.487 231.617 168.321
66.234 178.344 111.732
110.194 210.611 66.1006
60.7376 231.189 1.23037
77.9768 193.265 142.158
104.716 171.983 93.7191
87.0231 186.501 142.337
127.892 116.876 84.9427
89.1846 184.32 150.5
99.6928 168.254 95.1521
78.6686 207.624 152.2
115.744 79.7092 146.123
66.6713 222.602 121.992
100.858 190.714 67.7036
