ply
format ascii 1.0
comment Created by Open3D
element vertex 365
property double x
property double y
property double z
end_header
27.5862 42.6175 134.997
25.972 80.5756 106.996
40.5039 97.9838 80.4797
17.7866 184.996 137.552
5.43539 215.875 88.2495
5.6498 180.719 131.861
4.63357 103.288 166.057
26.2887 107.652 138.429
50.8838 90.8092 4.13512
4.69311 129.133 37.919
4.14628 179.786 95.1476
24.2052 118.058 143.054
18.0236 97.3486 140.895
4.34464 75.2297 44.8147
8.33822 28.9036 128.713
66.4761 103.734 159.717
28.2114 129.709 105.646
3.39886 82.8232 120.497
6.12007 111.908 168.971
10.1543 202.007 71.6424
2.97564 128.566 102.174
18.9511 153.771 49.8472
16.517 29.2354 125.962
3.78998 188.064 143.719
66.0552 103.448 152.477
20.4701 107.125 148.603
37.2374 135.259 61.6497
31.335 91.2092 59.2461
4.58749 185.879 123.89
11.9975 194.706 124.063
21.4277 136.82 129.323
40.0876 183.388 201.634
3.59233 138.674 46.2419
9.63335 142.87 166.775
15.4289 93.7803 132.747
14.9343 119.009 40.4469
3.91754 8.47216 38.7439
3.18847 111.918 150.757
33.5445 132.02 132.446
6.12322 171.339 158.291
10.3846 214.205 62.2671
17.0959 141.026 166.164
2.80197 122.312 118.405
26.0902 138.681 138.001
5.90052 186.311 89.6676
6.89381 91.3652 37.8331
17.7998 162.948 92.0947
28.1571 223.605 168.215
3.97544 155.654 122.698
30.2846 182.734 128.465
16.6746 107.077 38.7452
8.38978 134.347 161.01
38.9496 94.8559 71.6044
21.9462 106.674 129.379
5.79019 127.377 49.2586
38.0121 86.7472 90.0457
17.4053 114.016 125.798
147.458 132.364 166.063
22.348 71.2909 69.8629
3.38652 118.628 78.3026
21.6005 95.7358 121.827
27.1901 161.348 56.5664
30.2729 149.298 150.155
16.1986 109.213 132.522
4.3801 178.27 53.3987
6.30308 176.358 140.049
33.7905 92.5706 102.429
23.1969 110.418 61.1671
37.3784 120.105 67.5614
26.6623 160.424 87.2784
10.7477 104.577 62.7793
18.925 92.9766 46.3423
77.759 188.862 186.534
75.1389 230.296 104.098
5.05521 100.61 35.6948
3.08304 57.3331 68.6792
25.1528 166.964 49.918
3.33741 150.852 158.419
11.3282 97.2751 53.8931
4.79776 193.706 66.9933
5.22173 70.3711 96.2365
5.09958 198.023 99.5643
32.5071 134.091 51.4581
13.28 75.8551 52.5558
24.7243 167.654 85.9501
40.4483 172.539 129.064
4.43365 208.296 116.179
25.5908 115.639 53.4767
25.8697 132.976 45.657
22.7587 183.357 131.595
3.95231 185.535 82.1399
5.77741 152.38 84.2846
4.46926 195.149 119.4
15.5924 68.943 56.7245
10.7414 87.6309 48.8344
32.4239 162.572 138.61
3.26455 154.879 71.5845
13.0215 102.461 136.626
39.4894 102.783 97.7094
6.13396 161.713 162.433
35.4438 121.408 126.986
43.0524 118.736 103.508
3.61488 66.0419 62.0572
29.5604 124.846 53.6902
10.8105 144.65 42.312
2.52103 120.2 156.476
22.7461 110.439 106.167
29.3638 147.719 53.1093
27.6936 114.462 120.268
13.1309 124.423 166.478
57.4056 217.797 126.051
6.96131 147.773 90.3515
9.54328 71.7989 106.09
31.5855 120.089 58.5812
40.9279 150.22 134.829
40.149 166.943 117.054
31.0438 105.75 118.684
3.26257 66.4485 52.955
20.7611 74.1588 63.3292
2.77316 91.9075 153.14
19.5436 192.244 117.274
39.5107 105.055 87.4429
16.4738 197.368 70.2179
25.7718 88.8644 51.9118
27.7501 171.936 67.1377
12.4542 194.889 107.147
5.75036 100.284 83.1625
14.7349 107.723 99.4074
10.0464 117.481 95.8885
4.79689 87.058 135.845
11.9622 180.966 51.2707
22.5736 89.478 113.184
25.986 131.577 137.641
8.16055 150.248 46.2762
29.6088 136.572 116.538
34.3011 105.801 100.017
6.88275 81.973 109.103
28.1534 153.822 95.9128
21.9993 66.7926 81.8056
12.3228 120.197 52.1811
27.4351 107.827 57.1841
73.3372 155.456 14.3082
3.59598 97.9385 69.1195
2.3328 108.276 122.043
5.90625 193.969 89.5037
18.7007 189.114 61.043
14.4888 160.711 163.147
18.498 102.557 107.772
7.86496 189.862 58.9316
6.96469 154.739 52.4031
10.2237 110.713 92.3376
17.005 127.102 159.861
31.0026 100.861 59.0061
16.6443 136.758 42.4099
43.8226 123.442 110
26.5351 142.131 152.021
12.2468 108.706 117.148
3.74889 164.168 98.147
33.4092 179.113 108.381
2.68147 111.48 85.9353
38.323 143.44 67.9627
22.8993 103.806 50.023
30.5503 137.279 125.973
33.7806 164.511 96.089
21.1453 141.986 159.616
33.2135 111.184 103.306
2.91289 157.042 130.807
36.5655 174.297 118.798
36.7066 170.51 87.7995
20.4799 179.543 139.914
35.6162 155.982 124.552
31.6526 103.614 109.992
18.2747 166.277 161.028
31.3673 124.898 148.371
13.8912 82.8931 110.032
9.5997 154.083 166.32
12.0226 72.1991 272.503
5.01161 62.8712 84.1759
40.4952 93.3629 97.4771
30.5988 150.627 73.8075
33.8881 184.45 93.5777
5.43881 23.7408 136.791
26.0751 190.633 98.0793
6.19153 93.3913 47.0036
30.2752 79.3721 64.7585
40.8109 69.8635 62.4723
14.8632 65.177 95.0936
4.31855 120.082 100.044
3.64127 167.741 68.6884
5.53547 100.501 137.136
40.2237 116.941 80.7868
38.5925 117.537 91.1457
13.3066 208.152 127.994
4.83049 176.401 103.753
26.9675 103.481 101.293
5.64709 53.6738 75.2049
18.8097 163.836 79.4195
2.97068 92.8572 131.645
32.2286 80.4358 98.9875
12.0535 142.463 129.02
38.0131 163.056 78.1237
2.80143 141.371 67.9295
4.49282 86.842 54.8593
33.3875 169.877 68.3999
41.9905 152.107 119.705
39.7896 140.738 133.87
29.2674 163.033 71.0313
27.537 113.067 146.951
11.5803 187.405 139.932
31.9432 172.642 76.5831
4.77758 115.066 67.4802
13.0902 150.689 123.387
3.38492 69.7021 273.282
5.13681 180.189 153.37
41.6841 97.8588 89.8205
34.7634 174.935 101.451
31.79 121.578 94.9591
4.90988 113.485 109.801
45.7275 163.086 98.3293
2.44938 89.564 107.477
5.80902 140.68 95.5698
38.7467 147.418 112.426
21.8467 103.348 118.893
17.276 153.79 129.624
16.9005 76.8695 107.51
36.0588 81.8292 75.6606
42.6544 173.418 97.2626
22.3603 140.585 124.282
45.1877 165.288 110.987
3.94361 165.467 87.034
21.5772 155.441 73.1983
41.5377 111.622 98.6691
18.2423 154.641 64.782
42.5861 186.808 28.9512
37.1453 120.807 120.154
7.10122 104.137 152.358
2.58213 69.5634 83.1626
43.0419 165.582 91.4016
24.5503 127.22 122.923
17.4438 108.965 62.6025
36.0386 115.498 107.564
20.7484 196.613 100.353
42.4476 127.014 117.133
39.7683 127.997 71.7453
16.5694 121.319 84.7382
10.0069 65.3859 77.4132
4.00377 111.279 129.74
32.1583 178.31 121.694
17.6357 87.0077 123.082
35.3301 178.043 89.2557
3.76941 132.943 124.715
12.4523 200.832 90.2474
14.9572 131.046 44.2118
3.14058 109.36 162.03
14.4717 96.7669 45.1241
32.7863 174.865 129.816
68.2969 110.684 58.9353
24.9649 123.504 107.183
3.69632 16.4621 254.002
4.53363 145.548 166.014
27.2915 151.242 125.255
15.7851 150.8 161.982
31.5207 73.5908 85.853
19.5945 159.793 85.691
2.51634 149.597 107.15
16.1317 164.433 60.8744
4.15286 167.417 53.5928
2.37406 143.601 151.447
11.7374 212.812 96.7341
39.6342 152.842 83.1811
41.7775 112.384 71.5672
27.0473 114.744 64.7212
38.5804 171.063 107.913
24.6512 96.2219 103.552
2.8117 73.1037 73.4993
32.648 191.177 91.6919
12.6892 122.81 114.052
4.72212 98.7229 53.9268
25.9862 174.698 149.49
25.2585 197.151 89.4083
8.70416 115.957 37.8468
17.5662 158.386 76.8136
14.4201 158.265 46.1464
45.0834 157.354 113.376
18.0243 202.191 82.8191
38.5297 154 62.9272
2.62016 139.965 117.458
11.374 71.3113 70.0234
2.37483 79.7028 100.561
11.1161 202.755 83.2034
30.2675 148.7 66.5115
25.5507 116.776 112.285
5.65264 143.913 23.1613
43.7984 141.706 81.4063
33.9948 138.083 106.568
9.33751 101.749 93.5836
48.2642 188.921 159.095
14.4294 102.152 147.81
44.0274 134.467 85.1001
5.38576 72.142 266.039
37.5913 148.71 145.479
45.3674 139.659 122.251
41.0221 130.83 91.7055
2.74555 166.193 118.157
30.0217 100.788 80.168
71.607 223.573 40.6714
29.5263 187.302 108.502
9.17337 106.74 158.346
6.80901 11.1108 148.506
13.2871 111.399 163.946
36.159 147.529 123.957
40.8091 104.996 75.0699
33.7522 157.849 82.2571
5.906 138.601 38.3082
59.7024 188.892 156.451
14.2298 64.6298 81.7859
2.46115 152.813 102.349
23.7448 130.127 149.563
2.36667 88.1292 85.2159
40.0351 164.086 104.645
6.3299 213.918 261.528
19.1222 149.067 53.325
45.8684 160.475 63.336
21.795 186.675 104.274
2.28825 138.59 89.3035
7.40331 170.908 82.2954
31.0972 181.074 64.7887
9.56778 100.448 102.772
14.4606 85.4593 273.44
2.78872 144.829 102.385
48.4836 153.718 109.608
40.2299 159.248 128.156
13.6415 95.7202 104.252
10.6549 107.775 142.472
28.9534 197.038 186.152
36.3913 179.046 74.0043
31.7384 130.781 140.128
2.03332 130.623 78.1154
42.9913 130.892 104.152
13.9056 169.236 45.648
7.26928 220.446 83.9712
43.3123 138.766 98.523
35.2982 142.427 109.601
36.0974 136.04 98.4722
49.4296 148.986 101.969
10.6869 58.5926 137.942
4.05307 113.52 39.3188
24.2266 173.587 1.13636
11.8525 1.53606 19.4036
18.1175 82.7628 270.715
28.747 155.542 69.8811
7.59389 191.02 81.0147
16.3289 154.901 106.769
8.44643 221.394 68.7579
23.2169 188.303 1.32098
10.1226 105.107 146.305
46.6057 145.963 95.3923
31.1485 208.55 188.865
20.5325 106.758 66.1024
38.9184 204.268 174.447
16.5435 68.7898 78.1157
6.82922 59.8175 137.633
8.14541 214.395 83.5463
14.1271 1.06939 39.9004
5.69566 108.092 114.521
