ply
format ascii 1.0
comment Created by Open3D
element vertex 1025
property double x
property double y
property double z
end_header
30.9155 35.7658 111.702
35.1392 22.2704 141.221
58.9022 10.6823 204.414
67.0554 144.972 39.361
48.7819 25.4572 4.2727
63.5217 5.01676 34.7234
35.7534 16.287 90.7765
29.7145 20.6939 179.995
41.9793 30.5867 45.9473
13.3297 3.62615 140.912
57.4426 29.2103 47.1315
48.2134 33.6298 68.2018
30.9886 28.4176 149.76
125.838 147.72 157.13
60.9222 157.133 24.9342
29.5603 17.3042 123.154
60.0138 176.853 57.9728
41.4119 50.9093 69.4636
44.8509 162.031 72.0023
34.0523 58.8393 84.2544
45.6618 94.4272 48.7991
52.4887 165.249 60.1554
28.6791 30.0932 140.883
132.635 84.9568 160.498
24.914 226.223 93.9661
25.9194 122.456 212.033
46.6346 31.6743 103.267
61.9047 81.5066 159.534
61.1766 13.2257 71.6105
77.3115 120.317 261.185
110.328 137.833 152.635
43.2606 97.7703 69.7162
39.3645 38.9364 103.908
64.01 174.374 36.4937
57.5725 149.735 39.2934
50.315 12.1819 76.1341
49.1478 39.4093 156.917
25.0644 15.5445 107.692
49.3384 20.8446 169.282
115.714 134.834 164.27
71.469 122.63 271.838
46.687 38.7899 112.085
46.8335 174.497 59.2606
68.6451 155.196 23.8367
45.582 40.5461 81
35.862 45.6492 112.1
25.9176 29.4535 105.871
52.4853 107.738 78.1473
22.4945 225.029 102.367
57.2738 165.074 47.8387
49.2834 90.3824 67.2551
47.4675 72.2282 84.0487
40.4046 22.6114 49.6504
45.6509 41.2723 139.611
41.8333 110.534 54.9745
15.0131 70.5291 126.503
56.4719 14.8747 23.2902
70.4667 168.946 40.8685
40.3264 217.245 90.6775
46.5855 175.217 112.826
32.5479 63.3381 28.3515
42.6677 59.6258 108.787
69.0811 5.33293 20.5393
26.3131 32.6152 130.594
63.369 87.364 89.9947
32.9562 110.911 54.6064
61.2273 42.1063 110.13
37.044 46.3194 59.3967
60.2888 183.806 65.5864
53.0601 189.518 73.5824
45.7263 182.994 106.629
60.6136 91.5553 79.8392
24.958 15.4238 115.896
40.6893 75.7993 116.725
69.8938 139.174 29.3744
48.7408 192.833 85.3655
37.4769 94.7263 36.188
27.2213 16.637 173.142
58.8719 159.9 125.569
73.1794 167.017 32.5482
60.3257 83.0753 146.814
118.144 158.344 156.893
55.7349 64.825 140.029
155.95 152.641 196.438
68.2396 142.43 108.657
157.63 121.214 194.568
69.1724 30.1218 61.9181
25.9934 20.9784 135.469
47.9338 147.41 97.0736
44.0188 164.751 61.7529
57.4821 224.445 52.9533
124.943 135.288 177.637
30.2211 57.3992 75.1095
52.6968 131.495 79.4223
125.601 71.6895 184.774
36.2237 12.5455 161.526
64.4287 14.2882 22.7199
68.6154 67.5219 97.2717
56.7874 156.425 51.0823
75.279 153.636 41.2512
33.8672 83.6634 28.2262
51.2343 154.225 86.0494
55.4635 44.04 153.203
59.0988 141.804 105.472
40.9512 23.4826 63.1333
141.996 108.405 193.766
51.0152 46.8181 60.466
62.5126 29.219 65.85
53.1763 182.336 70.4876
61.6104 153.976 252.785
63.9416 61.26 156.667
138.86 113.001 184.262
54.4558 147.591 101.603
158.442 160.387 197.299
95.9389 116.409 144.589
80.5468 77.3483 134.916
43.5466 163.962 81.4576
35.6858 44.0106 40.4218
52.4334 159.067 75.123
59.2322 60.5166 86.4663
83.0923 171.92 141.794
66.6244 146.124 68.5763
32.1051 4.74185 159.792
51.566 177.436 101.733
146.59 98.6013 167.887
47.5897 21.35 66.2199
107.604 104.508 158.834
68.922 183.051 114.793
44.7979 15.3817 60.7265
40.0885 154.979 110.393
40.697 214.908 67.6174
57.3232 9.00201 27.8218
29.5183 21.2041 160.542
127.326 159.946 160.557
67.7666 77.8995 101.159
55.7819 160.393 39.2203
58.6539 179.545 108.088
34.7584 43.2085 141.303
40.3726 88.9945 19.5131
33.766 19.9596 165.728
85.9819 3.67872 211.322
62.5482 97.2421 26.2922
58.451 76.7536 104.694
41.3537 3.56806 160.487
27.0392 218.669 97.2574
44.1446 70.3124 39.0439
64.1822 176.279 70.9656
46.1304 79.2016 78.9748
80.7275 72.3629 147.917
51.0454 30.6406 122.723
37.1567 149.298 94.5763
133.298 64.5366 191.693
71.061 35.0173 31.0504
42.676 11.5796 156.209
26.2552 229.964 86.6497
38.4572 167.246 110.905
59.8635 91.7477 122.372
79.628 140.019 239.24
65.1707 148.318 88.9435
47.4279 156.201 105.022
37.4236 100.149 41.7152
125.511 145.452 166.578
38.5596 30.3428 122.973
39.773 73.9668 71.1417
61.3512 69.2446 161.179
131.735 127.009 169.564
49.793 20.1829 127.038
52.9166 3.26886 180.449
109.801 150.597 156.942
46.1281 91.0497 91.4688
63.865 83.5444 78.9294
149.447 103.984 177.098
96.7607 76.1081 156.601
55.9918 147.026 84.8881
129.696 98.9714 182.045
54.1463 26.3571 71.7326
49.3109 99.0762 57.291
64.274 61.1396 137.911
73.7781 188.069 132.392
41.2688 12.3948 182.125
80.6472 126.686 48.528
73.9367 184.109 67.5734
36.909 103.996 47.209
64.5212 127.351 72.9152
50.9134 73.4702 112.546
59.834 5.8138 18.5311
65.3802 136.464 76.586
40.0045 4.06198 169.474
138.601 86.2106 194.182
71.8143 122 43.4244
85.9437 161.633 25.6814
60.3484 3.2406 198.559
87.3197 154.605 28.2697
21.9157 58.3123 46.0453
70.737 152.157 52.3295
92.5259 12.0794 14.869
12.2072 5.05457 110.21
50.6663 8.16295 174.843
64.3722 177.819 136.419
52.6013 135.58 65.4492
105.51 120.512 144.811
37.4085 70.9308 63.3227
53.2476 41.2984 136.582
69.8181 85.1604 157.77
59.1062 141.817 67.3862
108.53 145.218 142.065
83.1729 146.349 96.0024
45.5395 75.1903 104.074
68.276 126.336 263.534
54.8446 118.942 83.8901
70.563 114.768 249.304
63.3392 117.539 61.0773
61.6679 22.2227 34.282
87.2833 100.308 265.896
134.854 135.31 173.865
38.8131 163.615 101.965
21.5962 80.6349 44.2027
48.4581 69.0087 95.5967
30.8493 91.3228 46.0491
49.3594 11.1345 66.6378
58.7313 10.6511 165.905
49.9393 136.174 265.415
10.9708 77.1322 153.261
71.3985 141.86 49.5536
119.832 137.128 144.834
72.3501 165.65 76.5468
67.6508 85.749 113.619
33.5694 92.6521 25.8721
124.57 128.373 147.485
66.3055 4.3798 7.00469
29.0252 91.4407 35.5804
136.065 94.0027 191.589
42.3862 170.422 69.3623
137.904 64.7736 165.148
58.6219 178.902 94.2325
55.2223 154.374 43.7577
155.122 75.3323 4.91193
108.165 122.775 154.392
37.1362 33.6532 149.228
148.621 92.1043 192.29
87.2514 148.643 34.5159
61.9743 72.5991 144.949
118.149 147.156 170.701
152.598 152.992 178.849
44.3729 12.0695 164.77
76.6433 109.966 40.3695
97.2371 110.413 159.178
121.992 157.468 166.35
37.0998 156.778 98.2232
35.3608 10.0845 175.602
45.527 68.4736 103.852
88.9147 120.078 246.633
58.9016 142.326 77.6184
156.136 63.7651 179.462
52.2957 145.239 72.0968
69.4968 190.321 71.9043
160.372 138.037 190.81
70.928 183.652 138.166
147.949 19.1891 195.779
60.2988 223.301 37.6477
49.5204 63.7332 89.3005
47.6092 68.9008 77.7218
40.6585 19.804 135.798
50.1615 16.5303 179.306
129.585 90.2407 168.451
60.1236 15.9763 51.5657
101.919 102.116 148.254
80.8996 134.967 35.77
134.277 94.323 177.458
41.2137 164.848 89.4484
38.8328 20.0903 183.425
115.259 113.608 148.252
43.5243 28.4093 143.595
62.5415 72.7962 96.5176
71.7267 11.8705 10.7732
96.1382 102.181 157.698
51.6831 26.0293 190.76
64.2497 135.234 102.934
76.829 158 28.3625
60.4544 42.5534 88.055
159.485 175.579 154.774
77.5179 174.639 135.303
62.9898 18.5215 60.8442
62.707 181.51 44.4469
43.0943 175.522 77.4186
140.786 62.582 178.676
34.0668 29.004 103.685
111.341 148.074 164.607
56.3318 56.7214 54.5875
21.4704 4.76545 146.16
70.5067 146.779 264.189
58.2182 146.282 111.993
60.7743 228.58 6.90832
56.2181 85.0841 127.191
53.6417 19.0571 47.9012
56.8803 170.072 131.073
141.634 73.64 181.924
40.1675 172.018 99.7369
77.5344 65.8113 162.505
43.9783 150.421 89.7275
56.3385 38.8984 69.4069
50.4818 143.864 89.7041
58.2029 88.6071 111.866
48.6065 162.974 114.952
34.4121 170.75 106.079
69.009 80.8029 149.705
65.9402 169.334 32.5839
81.6712 136.316 91.3564
111.246 138.22 118.47
85.5001 120.698 257.451
54.3137 173.187 74.0992
65.0658 39.4567 34.1729
68.5829 74.2269 159.356
81.7846 35.6327 44.0662
33.3587 19.0465 105.142
110.832 107.304 145.507
48.3205 47.3778 143.011
160.857 101.064 177.303
50.6912 16.6828 189.167
73.7817 4.06241 38.0056
127.74 120.341 165.708
90.6222 130.153 245.996
31.4954 42.799 124.912
56.0896 9.51759 189.762
99.578 95.8552 153.569
37.777 103.403 61.4148
70.3853 170.923 84.5829
87.0071 137.642 108.312
56.0264 181.832 133.341
65.7777 23.0529 197.074
53.1087 39.2107 81.853
151.356 88.8468 185.767
41.2996 36.9477 132.657
82.4948 160.226 144.869
137.539 79.0282 166.09
107.952 53.9248 161.067
91.3299 140.633 102.542
44.2637 55.9591 96.3984
60.0198 10.2148 63.2758
63.0955 92.3394 37.0072
39.2203 84.1583 66.0697
52.3276 7.71763 96.2913
83.3621 5.13296 204.778
75.9192 146.952 55.4046
70.4432 132.747 92.6353
30.6567 23.4845 127.216
37.344 127.648 194.887
81.6904 24.0919 193.607
117.423 133.133 157.009
84.1942 142.135 27.3102
44.5907 27.3101 72.3511
74.1917 25.2583 70.909
56.7571 12.2403 13.2415
162.95 95.5662 187.913
77.8631 146.997 246.799
104.484 162.257 145.862
72.8404 140.843 88.4328
39.5885 11.6731 53.0633
151.122 177.327 151.642
85.0873 167.561 135.278
29.4244 7.71088 106.329
57.0948 111.048 52.1051
71.5107 129.061 23.8479
27.0317 36.2084 139.268
106.279 145.087 123.564
76.2627 193.73 80.2053
63.1821 50.1182 126.485
61.1568 86.2821 133.751
158.671 128.972 192.865
52.9237 23.6998 198.143
82.2056 185.451 131.393
123.867 155.59 142.718
45.878 58.5902 66.9931
66.5375 145.587 117.209
52.586 105.08 67.4155
60.322 160.902 33.2096
67.496 23.2446 133.092
155.886 86.1129 176.273
31.3223 35.8025 121.256
112.512 143.566 147.096
77.5226 18.9002 184.804
58.7685 19.8964 4.366
59.24 129.848 86.3068
71.59 80.7642 108.108
82.7541 162.277 33.4951
122.878 110.666 146.969
67.0251 77.8181 125.65
48.6381 17.4277 92.1626
59.0955 155.762 81.3146
68.3382 135.25 98.9934
64.5874 147.204 28.4652
47.0681 94.252 39.3776
23.3852 63.7243 51.9128
61.7859 164.933 135.326
63.8888 156.426 129.373
153.63 162.407 173.799
39.3092 180.063 96.3014
29.3175 101.513 57.3213
65.703 4.90957 193.373
52.4239 157.361 115.644
113.754 140.895 167.472
138.101 101.862 192.067
64.8495 100.298 58.1193
76.4349 124.569 236.709
40.0586 83.9647 76.6528
55.1423 23.7485 182.982
58.7969 130.985 70.8054
35.8238 8.98792 112.211
41.7858 28.5002 117.368
60.5301 165.495 83.0807
137.522 120.218 168.79
62.722 54.7535 90.6278
133.585 66.7718 177.084
54.418 26.4937 135.425
51.1077 86.3685 73.6619
83.1466 147.574 48.0828
50.7242 85.9354 20.1088
85.1405 158.417 40.1656
59.056 49.827 133.806
65.6815 192.984 128.171
57.2806 182.727 81.1818
36.957 77.2084 44.3777
62.9693 91.0611 65.6887
51.1704 149.245 108.95
61.4835 180.448 87.7678
109.221 156.428 149.848
31.4727 65.449 52.2351
83.0997 36.9549 189.18
72.2263 126.696 86.7559
53.3145 71.1633 103.705
29.1445 41.7937 135.845
66.0761 108.376 26.8653
73.0472 134.601 107.657
29.8713 11.4995 166.367
81.3614 190.505 121.077
155.476 95.9759 195.201
52.7519 184.193 95.1092
138.74 120.263 176.671
84.0499 141.288 251.878
54.6914 5.10815 71.9397
94.6581 138.475 111.605
138.187 94.2419 166.298
54.6406 19.5737 202.859
67.8492 2.79014 89.0272
72.4832 113.076 272.904
164.821 142.47 183.034
48.8155 32.9077 51.1838
41.901 96.6763 30.5744
81.2503 136.156 270.766
60.9095 33.7123 72.5369
59.7173 143.386 263.154
80.6988 150.469 127.251
50.5572 80.3873 61.4082
64.5443 26.9692 18.1299
56.8689 82.1231 78.4892
48.1194 206.372 40.8719
25.0236 230.618 20.5894
90.4649 195.297 97.2781
59.0104 14.0883 101.954
63.6719 16.0731 8.29943
57.6097 143.864 93.4861
65.9121 76.824 74.4513
75.6042 134.005 99.047
77.4311 142.198 34.6449
39.2188 177.912 107.391
44.6046 22.2314 107.003
54.9017 185.78 102.115
38.7741 80.2798 50.8629
74.0408 186.052 124.483
142.639 97.3772 175.545
117.645 130.368 150.344
62.7135 75.3766 63.2186
40.7957 23.5256 85.2145
29.346 116.031 211.615
72.8016 34.9834 46.8126
64.6728 172.218 62.8668
84.6065 2.32938 18.0871
86.7763 143.84 113.098
104.506 87.2895 151.846
65.4996 30.1793 26.5869
78.3669 4.89284 17.0362
44.618 28.2554 185.069
75.927 158.018 55.933
76.4018 133.474 25.904
46.67 225 133.471
92.2625 110.251 153.716
90.4982 179.26 137.418
137.349 156.729 149.945
73.3488 159.817 95.409
86.7638 3.97044 6.53526
57.0692 174.083 42.462
62.3833 151.161 73.1524
83.8946 129.949 65.2485
73.178 52.9707 83.3327
82.9863 2.52921 36.0871
162.349 110.27 191.057
54.5523 83.9155 117.436
46.0484 62.056 48.1545
144.121 84.3464 188.449
114.781 156.57 164.63
94.0505 159.87 111.043
70.4949 124.055 31.474
44.4986 158.788 89.2998
63.4311 140.196 61.1168
84.5369 144.207 122.183
67.7964 174.254 46.9813
54.6932 226.75 12.695
122.537 145.923 107.903
46.3228 176.794 89.3151
135.45 88.9118 186.51
94.7885 137.86 35.1698
60.6343 39.2334 138.332
60.2127 188.85 117.486
28.0139 49.7784 35.7258
48.4796 129.659 262.047
52.4188 181.697 121.53
149.846 109.932 183.504
62.6025 91.7497 45.6948
54.6635 30.6937 63.2997
87.1026 140.494 37.7816
69.1732 78.1046 118.219
60.3448 148.544 57.8138
79.2961 130.499 234.614
70.3497 4.62032 201.997
42.654 61.6552 81.1401
65.4995 129.515 267.74
66.4589 68.9635 71.7725
55.0297 32.4746 112.704
71.0843 90.9162 102.734
84.5739 139.087 98.8728
99.6445 166.154 97.6663
54.0515 212.963 35.2349
79.5014 78.336 118.341
140.359 99.305 183.101
59.4641 102.869 29.1449
57.2899 84.5483 33.1299
91.5946 149.595 96.9546
70.9411 162.68 137.861
64.9625 13.1809 187.457
76.365 137.886 112.72
101.457 12.9902 14.3797
83.0724 27.4417 33.0721
38.4152 25.9743 178.382
45.891 183.802 97.5459
141.911 119.568 185.095
80.692 121.881 244.34
51.7596 5.81091 166.217
60.4301 27.3345 157.252
157.96 89.3528 191.658
35.8324 3.21811 124.181
46.0751 17.7571 48.1998
83.6335 130.454 57.4437
54.3021 69.445 86.347
57.5822 139.53 98.1562
35.7268 53.5383 54.5737
71.5849 18.7768 14.8151
88.8316 110.18 81.4939
83.8653 31.2959 184.775
74.4861 23.8809 30.7487
26.4135 1.88972 186.601
51.7049 106.595 48.3537
77.6043 4.53429 209.289
82.2568 142.086 42.9686
49.1551 154.073 91.3857
63.5208 16.8065 110.314
58.3493 172.705 140.628
94.6059 139.218 23.6939
67.3923 87.8937 142.707
77.953 26.309 49.997
65.2595 33.5984 41.1876
37.0666 54.6414 61.9438
67.7563 157.706 261.417
23.7672 3.12373 139.337
140.05 106.898 182.804
60.6896 71.6958 54.8194
48.7416 25.4078 49.5797
90.5688 164.997 97.618
165.424 155.482 172.049
82.1257 132.581 111.435
55.6185 160.995 66.5333
165.994 41.0177 173.069
66.6837 92.5012 20.5773
79.107 111.006 53.6334
60.7215 166.179 61.7162
157.545 128.154 183.255
151.968 78.2683 181.374
52.0889 63.1666 128.551
61.5754 7.62331 81.4948
149.886 104.736 195.277
66.931 102.657 69.7329
67.176 30.3407 51.0956
59.8443 83.5152 68.4434
133.543 114.468 163.634
89.4523 149.929 118.929
63.1721 33.0221 114.146
89.8127 139.224 246.586
51.5937 78.1267 41.6522
37.6443 84.6635 13.4981
51.3357 127.827 228.329
55.3786 29.7676 128.575
40.6421 26.9911 128.737
53.6114 171.2 114.939
137.853 131.98 148.384
63.4862 156.896 120.002
53.3248 6.32609 87.8203
151.269 71.4241 16.5393
69.3727 169.86 100.041
102.936 50.5003 23.088
65.2814 6.23818 98.6878
86.0233 96.7278 11.2808
45.451 20.354 188.937
152.743 122.695 187.037
87.7748 187.868 103.316
64.7844 75.4928 133.102
36.1706 23.805 172.156
74.4726 170.126 142.754
94.1195 141.905 117.754
119.505 94.8839 142.035
65.3055 46.8211 62.7556
69.7836 113.867 47.7842
113.841 156.314 141.77
46.4613 178.752 66.7444
70.0625 26.6039 140.245
68.5668 168.308 56.2004
46.4931 28.5744 155.969
56.5978 153.135 114.248
94.2506 161.316 25.4839
98.3902 149.919 113.202
55.6487 81.4523 136.419
144.469 2.10195 206.473
41.4532 83.3748 127.208
88.4101 186.433 111.106
35.9197 229.236 18.4257
146.067 63.0376 185.654
78.6932 176.563 59.778
68.7498 124.806 241.031
93.2261 27.7633 179.634
70.8352 85.0406 129.055
86.7937 74.5276 17.2324
62.9767 107.774 60.4318
107.647 145.75 132.087
68.4963 69.7898 118.109
71.3176 145.047 81.7038
61.2454 73.9303 117.681
68.9326 146.698 249.592
76.9267 103.114 22.0692
103.244 136.52 111.637
149.44 58.2976 164.109
82.996 86.6514 122.581
100.593 159.598 21.4317
100.57 147.672 19.5679
131.618 125.049 158.363
57.8851 179.998 115.213
61.004 21.9979 148.516
75.2882 158.354 85.6112
113.06 141.927 109.015
29.7265 186.712 40.3695
79.9715 136.365 104.438
44.0357 9.99003 93.6528
32.6503 81.7248 40.8523
61.4879 127.469 244.445
39.2022 169.366 79.4268
160.982 117.147 189.486
66.1912 42.8507 122.576
73.8499 23.3485 18.6327
93.8126 76.6966 128.015
79.1551 70.5923 95.4324
139.524 6.61901 206.699
78.6479 31.2268 177.839
156.942 57.5924 165.88
83.8673 195.752 97.557
41.436 4.19699 123.659
142.522 91.4495 193.327
60.1216 106.907 78.1745
64.1372 177.324 267.404
68.2074 112.137 66.1172
62.5722 150.759 34.8334
77.8527 119.306 252.304
65.482 123.976 96.4328
56.3983 8.47576 78.6501
94.8969 65.9664 152.611
44.4816 87.6887 58.2192
67.6958 191.953 118.084
124.643 126.846 156.682
148.629 9.49126 201.41
95.5753 2.57178 28.3339
66.4684 181.61 130.302
79.8836 177.823 90.5029
76.428 194.745 69.8033
61.9209 181.644 122.958
69.1606 34.2799 116.279
84.2525 190.506 72.7166
50.5225 56.6903 106.949
67.2465 137.115 262.222
31.2973 96.8025 50.0744
40.4827 61.5337 70.1531
33.5972 219.63 92.0055
149.923 176.199 143.798
57.6556 74.1818 137.887
91.4326 16.8977 53.3473
72.6858 142.758 118.945
110.684 140.547 159.371
75.694 78.3984 124.242
51.2131 87.1943 44.3286
105.08 149.042 149.5
66.4985 112.67 75.0017
41.4116 17.0163 99.6063
28.4797 218.451 73.7775
60.0552 27.9012 194.702
90.3648 177.209 108.817
61.8538 30.1203 81.1553
158.727 110.839 178.859
85.6602 197.865 88.1879
56.8632 187.386 129.746
159.654 55.7317 173.535
163.25 95.0106 15.7025
99.6004 165.872 26.2326
98.2875 168.191 109.29
63.5266 151.69 116.518
140.922 187.069 136.228
66.6495 83.0394 59.8006
72.5912 52.4919 63.552
70.1996 60.9196 150.903
67.5362 169.126 136.23
44.3958 49.732 89.6426
64.9614 138.427 246.484
57.9342 176.781 265.549
106.142 94.2532 149.782
93.6328 142.076 76.6508
68.5881 54.5131 98.9538
93.4249 149.994 21.8881
19.3843 110.661 119.114
112.383 164.849 135.094
60.1182 46.5904 97.1015
91.108 129.461 256.472
67.3504 181.116 84.7043
75.0543 119.78 52.2343
66.5123 142.448 94.9055
107.508 154.111 23.7266
66.9889 135.602 235.764
139.458 174.096 157.218
108.68 100.465 144.192
86.875 96.5928 24.0107
72.7523 144.04 238.862
11.2696 230.568 66.2727
61.1224 79.7657 23.9119
67.4947 163.579 27.8291
71.8436 100.048 110.792
60.5924 5.79502 172.083
83.2037 64.8883 105.353
42.3769 230.935 79.603
101.006 173.27 29.2829
52.6402 26.2242 110.694
68.1601 155.362 131.966
69.041 26.2752 92.3901
69.3375 34.9421 137.498
66.0759 54.6466 56.44
58.7932 36.3236 81.1049
120.555 145.376 131.394
85.1988 31.0965 176.405
88.38 27.5005 191.738
104.107 141.106 117.625
100.561 143.844 106.063
61.8279 17.1445 90.132
43.7616 49.3015 76.5352
94.8174 3.14562 17.158
89.0666 173.169 130.085
100.093 166.464 120.684
106.02 26.8379 16.8355
69.448 112.93 32.518
86.2807 26.9624 24.1339
39.7958 128.847 248.143
60.2349 178.066 49.3905
129.844 4.58274 202.65
76.8861 66.6514 115.377
42.6981 11.0683 106.433
106.559 163.702 26.2773
39.3115 36.8172 165.95
146.194 156.565 170.981
137.638 115.524 123.708
104.423 74.922 159.541
52.6118 45.2107 90.338
48.0249 74.0772 27.9845
90.2111 128.253 52.0714
97.1422 28.4299 29.3747
77.4698 158.631 129.796
46.6885 19.2846 11.8138
99.3011 57.1125 161.958
60.3675 48.3024 56.4027
80.3188 157.112 121.65
34.5528 9.4364 103.697
65.7137 188.698 79.4514
48.0154 37.9527 168.58
90.7215 186.502 57.0626
134.111 83.3855 177.67
73.4818 82.413 98.6483
78.3981 182.781 138.147
153.752 99.5415 174.609
143.811 97.9474 196.895
71.3676 41.7572 126.949
26.3637 65.7252 55.4053
100.415 110.772 146.624
26.4402 158.756 150.998
130.087 105.979 140.972
82.8655 131.681 253.924
56.358 27.706 93.3308
78.393 79.4417 12.3976
82.4667 176.219 121.89
154.968 153.988 167.533
57.2385 68.2684 121.557
91.4454 5.28095 40.4223
94.5016 150.367 37.7876
75.3773 173.935 75.6427
26.6757 5.28894 180.095
41.3507 228.438 67.4638
70.7017 17.9938 191.543
68.5915 152.714 77.4417
78.9232 101.075 46.9272
113.388 162.67 151.02
74.4755 8.19474 31.1734
77.2611 194.759 92.6533
166.217 181.969 150.319
42.0645 67.293 61.0554
45.0403 1.34566 169.05
84.8202 158.364 128.059
125.914 116.426 104.208
86.0189 76.8207 118.032
143.004 74.8452 14.8296
73.7109 67.9679 150.532
156.444 104.902 192.753
77.4034 166.577 133.52
60.9441 184.278 130.778
89.1662 26.2547 15.6561
121.061 137.441 125.236
95.5144 28.5199 11.1927
76.6925 88.3027 122.361
159.618 105.908 171.264
160.26 160.579 160.55
141.204 24.964 187.89
136.677 6.94562 200.29
89.4099 3.23516 197.516
73.4603 9.44092 190.871
117.737 105.647 140.725
113.145 100.633 138.244
85.3147 121.754 57.4338
60.7727 68.969 152.691
88.4032 110.631 61.266
52.1083 9.4676 149.516
70.6639 26.1652 100.943
150.666 76.1681 171.665
42.3054 74.7102 64.3576
112.083 28.1025 16.3777
33.4312 89.6558 31.1659
113.722 150.18 136.454
116.733 143.451 120.518
62.2969 62.9561 46.8468
26.7235 50.1891 81.5767
72.3153 27.1198 177.731
92.8303 181.344 120.243
147.929 130.238 184.154
68.1026 104.38 31.6841
111.883 32.0541 8.33599
85.0839 77.5688 128.362
149.439 134.898 159.283
36.6029 54.0358 32.7342
49.8905 124.273 225.663
168.356 100.083 179.875
71.193 98.8117 23.3677
148.339 69.0659 180.033
98.6178 174.863 41.9396
47.0348 57.0099 123.055
167.259 99.4197 171.081
169.016 137.796 186.825
148.098 20.6929 187.587
86.8949 103.736 28.4327
71.8786 55.3966 140.049
141.107 120.225 140.649
147.534 74.1797 186.536
80.6837 104.65 273.547
65.3802 40.4359 69.1606
24.8816 26.0075 120.638
89.6172 20.4436 43.4719
82.7264 111.867 34.8262
157.795 163.851 155.058
146.229 145.333 170.472
82.6323 155.067 50.0582
154.44 17.7068 193.424
97.0572 51.7036 156.212
51.4848 72.5495 50.6402
154.751 3.95224 201.372
47.8983 1.35023 150.619
32.7166 120.471 193.49
166.852 125.125 192.827
158.849 129.838 163.963
156.784 123.686 163.804
30.151 1.62002 92.5202
90.6887 148.825 49.3987
75.1626 148.338 36.8298
61.9936 24.3912 137.902
75.9635 59.1516 68.8299
79.3393 14.2631 39.5495
14.2506 231.269 79.4156
97.5851 8.14571 32.4424
81.6541 180.88 116.362
81.1909 161.29 139.864
156.444 12.2876 200.514
96.5065 168.081 35.9513
70.4562 82.2687 29.7891
81.6045 167.2 90.4964
124.689 102.227 140.212
41.394 170.573 92.1585
153.607 137.612 166.794
84.5888 199.409 78.1064
73.7831 45.086 133.078
72.9055 51.5985 106.036
90.3292 133.147 63.5379
160.064 127.633 176.965
75.5827 63.7671 64.0223
32.6032 231.202 78.7371
127.658 99.1073 121.809
100.928 10.4394 2.4138
113.915 141.271 129.671
158.665 179.004 146.62
57.8562 15.946 150.221
62.102 161.959 253.436
82.9763 141.305 34.3183
61.2485 160.19 42.1589
65.0937 31.7954 140.122
57.5695 143.398 274.021
41.6637 52.5311 30.8301
61.3988 138.582 83.2404
133.468 123.484 149.907
61.7894 23.4293 114.065
64.3047 162.415 52.3909
127.758 107.643 103.497
88.17 20.4873 28.6677
79.1458 115.417 274.3
47.4635 4.5498 96.7632
164.857 92.0878 176.605
63.0109 59.3437 124.667
75.4443 23.1367 79.2924
73.921 41.7426 66.7733
159.766 159.421 168.561
136.961 18.7279 191.667
158.356 74.2739 177.231
158.313 99.9865 163.86
23.9192 30.3417 117.44
138.897 114.963 151.677
155.899 92.7761 16.3144
42.8941 152.257 97.0852
167.857 134.616 195.058
145.29 71.1605 170.764
62.03 138.298 90.0976
151.146 73.4464 10.3236
73.5685 89.0501 18.8931
99.3244 143.31 98.8253
74.1084 151.456 120.251
58.0734 165.863 252.649
74.9511 58.1346 97.3973
139.117 143.863 139.35
60.8507 102.035 36.0802
81.1236 158.312 74.4927
104.47 144.941 28.6899
75.0356 31.8064 93.8163
91.9468 4.05446 65.6649
67.6796 166.448 254.326
112.001 62.8351 159.679
159.199 105.143 20.4079
111.839 83.4904 148.425
79.6745 78.9737 24.7711
33.5456 129.89 236.515
94.3083 176.949 87.4237
155.02 143.476 174.665
89.2013 77.799 72.0365
84.9826 145.049 76.2513
135.102 152.933 139.033
156.138 68.8953 173.038
67.9586 132.755 257.754
67.4007 1.97868 185.633
68.7017 83.8885 42.8163
90.3242 169.735 74.5726
102.447 20.2581 8.93586
153.708 80.1263 13.7782
34.8359 132.546 198.998
99.0113 139.177 94.0762
140.115 88.5875 156.943
79.3119 8.5985 190.992
146.682 27.2993 181.448
100.302 153.883 24.3023
95.8134 155.589 88.0676
71.9319 47.1212 75.4209
46.1939 53.3723 105.47
84.6152 151.918 69.1158
112.349 136.258 125.137
85.3875 84.0554 19.6903
102.726 21.0628 177.373
131.154 111.487 97.3168
46.1234 11.4089 51.1086
65.7348 86.7631 24.5791
81.4792 168.904 125.287
160.446 82.0266 157.445
145.716 99.7142 158.16
154.793 150.884 158.761
132.308 123.553 124.538
133.084 79.852 174.796
30.7558 16.0531 111.253
102.006 15.7698 21.8685
131.985 120.592 97.0998
76.5609 70.9443 127.038
162.889 86.16 17.7011
74.5502 15.0866 88.9162
94.0001 162.656 43.887
165.709 130.751 169.958
70.4371 71.4165 59.5013
126.185 151.064 133.462
59.7916 41.9504 5.51936
139.27 129.412 158.262
70.177 81.0817 21.283
70.2932 34.9961 123.352
139.691 63.9196 20.904
61.7592 9.33788 10.0941
70.0811 66.6308 62.3316
97.7851 157.066 38.0035
69.8907 121.589 93.8279
86.3029 188.008 93.419
