ply
format ascii 1.0
comment Created by Open3D
element vertex 242
property double x
property double y
property double z
end_header
14.9858 52.6998 139.646
12.5566 159.171 144.482
28.9446 154.371 41.8337
29.2123 71.1629 163.343
133.642 97.2061 70.429
32.4864 73.4101 175.403
12.5108 157.798 127.955
15.1854 137.876 114.441
14.5392 140.542 136.73
25.8091 145.638 27.7913
21.8652 148.513 90.194
46.01 160.812 36.1728
15.2423 59.9006 163.874
7.13021 81.0843 178.83
36.1129 118.47 30.8388
27.8601 166.838 210.913
22.0457 173.251 53.7771
150.546 16.6684 134.352
24.4251 120.133 140.02
24.9263 112.472 125.278
31.1236 132.553 96.4425
56.7199 158.492 182.226
18.584 125.675 129.694
14.9746 6.12008 2.71439
7.75391 74.5796 153.717
19.6074 27.1913 72.7964
124.173 36.1683 207.794
132.466 73.5634 98.4357
36.2841 124.003 96.3397
6.58734 19.1869 86.6893
29.4931 194.269 68.22
143.879 19.3282 138.419
16.9871 150.706 122.676
23.8171 140.574 95.6854
51.9591 159.867 186.921
18.0603 84.2098 147.494
36.6955 109.587 136.397
28.7019 169.756 130.288
13.1279 9.30894 77.6705
27.5268 173.557 203.829
22.0121 42.205 52.8716
20.3005 51.1395 157.384
46.2284 41.0783 264.032
11.3626 25.3301 83.8128
14.7522 116.329 110.26
40.0314 170.833 187.808
29.5638 45.4445 149.401
18.1382 67.0393 176.98
18.2541 8.05667 67.1163
18.5368 95.9147 184.537
8.23007 7.84677 65.709
10.0839 55.0929 149.221
45.5756 59.5889 154.789
22.318 121.066 98.0342
27.8812 44.3804 139.69
28.1582 120.275 18.4684
35.601 202.336 62.7905
28.1483 3.02502 3.43483
29.4075 100.569 184.907
41.1725 137.645 96.9969
39.4551 101.265 139.861
60.0412 162.049 175.616
12.5441 86.6052 165.153
38.9592 61.4583 273.585
29.6346 191.287 61.063
33.8213 138.839 26.7328
12.9346 77.2927 169.686
10.1499 62.1302 152.851
28.8997 41.8077 68.2528
17.7622 2.30733 9.36094
32.8874 85.0949 167.436
23.5275 160.784 120.705
18.9457 133.941 138.756
12.4793 48.0257 148.171
28.5707 112.341 133.45
4.79987 127.416 118.802
47.6004 56.2502 272.888
138.32 40.8943 125.705
37.1677 137.75 39.0647
23.4689 146.596 138.394
20.6675 103.094 169.237
150.44 16.2519 126.709
10.1238 19.3176 63.0692
141.627 82.2376 101.58
39.6378 74.567 272.394
8.18548 17.3649 99.8623
41.0181 169.417 41.076
15.8289 220.189 84.969
24.016 175.418 132.923
26.397 124.931 38.0399
23.9663 131.794 31.3758
15.9123 140.424 103.814
30.2956 129.694 118.813
27.9883 118 116.153
165.351 5.0952 113.293
18.039 63.3692 147.916
12.6698 20.735 92.3493
35.4279 64.7422 265.865
16.5315 66.3158 158.15
25.1839 140.812 36.9369
32.894 127.576 28.0734
43.1539 146.673 99.6694
49.5366 58.3916 262.95
36.8802 158.826 202.751
136.386 84.9722 87.5949
23.7086 33.7334 131.744
137.896 90.3966 76.4599
19.0868 117.608 33.2875
167.87 40.1714 74.5847
23.6013 81.9303 164.499
17.5954 42.8538 70.2311
28.4254 178.22 70.9696
13.803 18.1575 76.0572
22.2255 59.5571 55.7736
25.7447 130.91 18.6067
8.66473 162.905 135.698
137.963 85.4398 67.2117
25.9686 68.2512 270.708
163.511 51.7657 66.5669
22.6794 37.2723 75.6408
42.2939 165.642 191.224
14.2628 157.352 2.24979
10.9427 159.961 17.2055
36.0568 40.985 144.756
33.5502 190.385 54.2606
26.1106 120.373 27.9469
21.808 59.3372 156.11
57.965 109.476 106.361
33.1513 165.869 44.2162
5.35267 162.841 15.6677
36.6398 115.254 114.268
47.3951 166.495 186.091
15.5346 94.8984 174.967
167.903 46.7125 71.1434
23.193 50.777 141.608
14.8664 169.222 44.7301
20.7871 21.6343 65.5469
5.96948 54.2573 162.312
41.2797 42.4128 260.118
12.3041 211.354 86.5062
22.6894 42.9047 156.189
33.2383 172.219 194.805
51.3197 112.337 102.401
79.4784 51.6391 5.44737
167.62 64.347 50.8861
27.0067 165.187 51.2691
23.222 73.5954 172.294
27.0378 72.8242 151.779
38.5648 66.8915 154.865
21.695 129.8 94.476
160.45 2.71125 105.854
21.4682 129.598 117.202
156.85 9.21884 121.718
7.09746 166.935 55.3454
167.709 60.8457 37.4354
30.1954 164.781 199.622
42.1363 92.8092 186.018
32.5859 91.2742 184.25
27.5867 41.5353 133.594
6.63796 89.8455 170.595
132.178 44.692 128.547
17.3844 32.5334 172.333
15.669 22.4445 99.2526
15.4572 166.801 62.7063
133.045 77.6582 89.0083
33.5743 111.662 110.833
39.4506 74.2717 259.704
26.96 163.124 35.9058
24.6537 147.921 126.79
37.7262 168.422 204.474
21.886 162.579 42.7347
29.9443 36.5033 146.475
20.0609 74.207 160.024
25.3099 33.9912 140.034
166.908 66.9259 43.0863
4.12195 49.2653 147.938
24 215.335 85.1904
161.229 12.316 114.682
168.544 47.0202 61.374
18.5568 173.769 137.844
158.526 13.1512 132.116
26.3127 90.6504 159.658
29.5672 179.616 58.3507
8.7305 152.473 9.38869
37.9032 79.1904 183.472
25.0344 89.2969 174.986
44.6277 114.7 103.609
38.0886 118.307 104.65
31.0292 60.3248 273.5
155.917 9.54504 111.513
23.5966 43.4816 168.466
146.021 89.185 70.8706
17.1715 164.901 138.665
48.0108 38.7358 254.147
20.4828 123.582 108.483
27.5097 25.4083 67.4775
20.2387 53.1505 68.7245
149.793 9.32056 121.364
21.4656 48.9297 60.6721
26.5663 149.589 100.439
24.4003 33.2311 173.666
17.0832 65.3923 270.904
37.915 160.018 41.4191
167.278 58.933 57.8183
20.83 62.4572 267.529
41.4693 129.75 205.883
154.634 1.49735 98.7281
9.95946 165.274 48.3189
30.9873 62.0534 157.3
13.4478 149.447 1.46264
25.0248 130.128 132.22
29.8398 42.3661 167.407
53.6233 42.3252 250.086
3.50818 26.6498 1.63972
7.13399 172.868 52.9376
148.707 52.2739 134.841
60.1382 59.3756 274.085
30.1738 56.7085 54.1781
12.6669 168.222 135.048
147.295 230.134 85.7368
24.7564 102.118 187.558
44.7281 90.4785 181.113
167.732 76.1323 45.5084
30.3362 68.4997 264.015
32.7158 143.246 95.5114
19.8851 133.491 130.806
163.216 1.32748 97.4571
28.549 74.7838 186.298
26.2059 159.704 46.1285
15.0534 76.5428 160.507
51.8266 157.097 178.013
11.4004 175.27 47.7012
40.8701 56.4766 153.902
108.285 148.553 173.01
64.6985 167.939 123.185
169.087 58.7656 64.0798
139.444 84.6778 107.228
145.782 12.9316 122.369
163.992 73.9583 47.283
32.9944 175.992 48.9963
20.4008 72.9358 274.695
5.97471 131.333 132.486
