ply
format ascii 1.0
comment Created by Open3D
element vertex 251
property double x
property double y
property double z
end_header
76.5998 167.133 146.769
53.9222 162.232 130.068
25.3888 68.3617 24.7939
121.051 108.497 10.6566
49.6877 192.618 48.046
13.2632 148.193 16.7625
53.2377 186.937 28.8263
83.4606 181.96 173.76
115.1 211.08 186.257
66.412 24.0372 132.944
41.8854 178.861 107.667
64.5873 166.24 139.91
110.412 197.78 91.6285
32.9961 69.8435 36.8083
61.4405 203.23 84.7061
45.9505 154.109 125.008
37.984 76.282 46.4228
39.2551 188.643 72.9183
12.3989 138.893 40.1946
90.5802 150.269 155.239
92.2072 204.689 178.78
14.6109 172.008 45.6341
66.3198 196.566 112.641
81.8531 178.176 142.514
46.5634 137.319 128.965
47.1191 143.83 20.8966
117.482 201.739 192.298
39.952 178.265 30.6998
122.668 212.809 195.397
122.528 187.735 166.043
8.00096 190.269 59.6126
54.8416 20.0228 119.891
31.118 174.362 37.7837
114.445 180.004 180.984
33.9995 117.415 113.735
7.82517 165.592 52.2675
22.2268 162.495 63.4237
58.366 199.714 69.1186
38.9795 148.571 119.235
26.183 116.866 85.9752
110.091 190.834 196.594
10.8379 171.438 23.0577
36.6399 62.3008 46.0896
125.024 213.547 181.539
110.789 98.8775 13.8288
43.0342 144.448 29.4246
7.75866 204.702 96.8886
71.1137 135.979 147.089
84.7811 197.334 173.895
11.1142 71.4899 113.044
126.29 95.8857 121.786
50.6755 191.565 104.552
115.66 193.098 176.771
46.797 134.144 32.2174
42.1646 140.838 35.857
47.2756 146.747 39.7
36.4947 80.354 38.7945
61.7288 84.3659 136.635
82.5879 153.215 153.255
62.0028 94.4615 20.0779
67.9915 180.173 17.2046
30.9696 55.2737 33.3606
27.8088 131.407 102.17
24.4595 143.698 195.177
87.7165 206.891 165.038
118.324 179.47 130.288
11.256 189.724 84.653
47.5529 189.421 38.9717
130.151 155.667 140.115
92.6253 201.398 107.042
42.9661 173.198 21.0423
47.7223 116.296 126.574
28.1848 177.706 68.2257
122.879 190.064 100.466
15.7736 92.6273 101.663
8.36504 106.372 86.5303
122.826 109.931 140.883
128.951 133.775 144.737
136.423 132.865 139.638
34.2254 126.601 115.556
14.4154 146.29 187.205
68.3645 152.731 145.002
112.896 187.939 160.524
124.275 190.341 69.4684
22.6041 137.685 186.235
17.6261 167.408 35.0322
32.3459 165.58 95.629
112.937 117.307 147.98
115.71 28.1213 82.4573
42.9667 136.774 43.1418
104.103 198.015 179.059
41.3874 156.165 15.2544
58.1854 175.917 127.555
61.7484 116.435 3.14771
30.2459 145.995 97.6289
94.899 95.7976 10.4967
80.2061 89.0625 22.1492
95.9184 128.431 151.136
52.3683 147.231 31.8971
100.581 202.912 87.4629
48.1895 132.855 5.14443
99.7741 195.345 165.662
58.4517 148.813 139.089
52.0069 179.895 117.98
41.0696 106.856 26.7438
64.7428 193.995 38.0405
52.3511 176.247 18.636
22.6973 53.9256 134.577
106.586 84.2766 48.931
12.828 200.936 64.8559
109.842 149.537 152.626
55.7008 21.1433 112.781
10.5341 155.912 197.817
38.6162 133.351 14.0905
78.4778 186.172 134.26
106.843 109.435 2.28229
110.292 198.665 167.983
119.455 99.7512 133.319
124.27 126.698 8.66014
108.759 89.4493 123.409
61.0903 21.9213 115.146
31.0441 181.654 54.3945
12.0472 100.391 85.7918
97.1219 163.948 152.4
28.0376 62.9674 132.559
55.7772 108.687 10.6929
18.8323 75.275 118.558
18.0802 140.274 201.31
132.18 184.229 73.8368
27.3163 121.749 32.1721
68.9387 200.481 58.426
31.775 138.462 112.259
52.3581 186.271 114.991
137.694 179.022 80.7831
22.319 130.44 76.5956
56.4847 97.0611 120.685
22.8635 147.597 71.2644
134.545 110.788 134.22
101.577 208.443 157.708
39.8999 107.899 113.349
45.6969 108.072 22.1059
108.087 194.121 112.206
103.55 194.292 199.074
76.8158 208.329 89.6454
124.815 183.589 117.795
68.6056 93.3928 17.3974
74.2494 99.2397 8.97162
71.6826 88.2855 119.275
98.3742 140.052 154.256
71.0167 186.747 24.9093
30.1848 108.009 43.0194
84.1116 114.88 145.802
79.0458 127.837 148.802
118.523 40.169 142.831
26.7049 111.576 72.1649
92.9053 157.7 2.30847
133.776 89.3309 63.0185
126.203 217.965 169.863
57.1012 147.565 39.277
124.694 189.819 84.7899
65.711 186.128 125.976
15.4477 197.367 72.9966
129.57 168.978 26.0755
58.5975 183.866 21.5081
100.19 209.062 173.277
9.87911 133.384 203.931
49.5695 179.556 23.236
76.2593 203.801 74.6499
95.0373 191.344 129.035
106.321 182.625 174.434
30.1796 110.957 85.9671
101.536 76.6766 87.6844
118.657 146.601 7.07322
31.0006 110.225 97.1262
21.4536 204.009 75.7921
134.384 165.737 131.46
121.926 152.503 147.802
81.6699 176.129 11.9181
137.675 144.045 137.523
61.9759 173.247 132.158
82.1893 198.394 121.034
136.86 180.189 102.736
59.4665 174.554 14.1513
62.7427 114.723 136.233
26.0554 119.474 100.37
60.5938 151.424 1.86832
120.282 187.186 40.5226
137.776 134.6 21.0984
57.9804 145.508 24.4175
65.8756 88.0605 29.5121
45.0333 95.9666 37.7693
118.229 131.949 151.193
76.37 82.4724 44.9747
104.455 201.676 74.6026
94.9218 201.753 58.5278
98.7798 107.093 144.738
136.901 93.4009 103.955
109.687 169.138 146.011
137.74 148.614 23.8509
130.029 183.89 52.7493
55.7258 146.945 18.1425
7.77746 200.989 87.4752
105.21 117.252 149.566
95.859 193.916 168.384
103.32 173.33 13.7723
136.272 172.426 122.197
118.238 193.597 58.8361
38.331 82.0328 143.349
29.4121 117.855 104.873
34.832 137.446 17.3795
60.48 81.7067 57.2753
64.9488 181.177 130.307
70.0608 105.757 135.649
55.3036 68.7246 131.797
60.6957 21.7725 119.32
52.4731 83.9762 80.4532
107.562 78.8787 86.6199
139.219 139.798 27.2202
75.4352 77.9076 74.872
132.92 97.4112 118.936
40.8096 92.8664 72.8395
112.29 184.14 167.95
131.539 195.14 171.947
66.0095 79.6719 71.0866
101.637 186.388 176.451
128.375 201.266 187.631
139.018 94.4979 71.4622
80.8366 207.962 83.788
72.8885 184.39 133.385
89.377 102.779 2.44611
69.6485 82.9774 45.206
107.694 156.297 5.32971
19.6608 198.83 62.1676
92.2398 192.355 32.413
58.1922 82.5275 82.8774
67.8337 101.147 130.644
104.198 173.107 145.011
50.6495 130.991 14.3351
90.8919 161.98 153.543
119.116 197.43 184.452
115.568 205.649 177.531
114.06 97.3045 132.882
39.6612 97.2137 40.6515
52.507 153.556 25.2905
30.2861 126.987 110.387
134.26 181.712 55.9913
56.3456 128.463 1.01756
83.457 148.669 1.35517
138.755 100.19 37.0078
115.801 193.254 189.481
120.08 188.265 115.87
