ply
format ascii 1.0
comment Created by Open3D
element vertex 988
property double x
property double y
property double z
end_header
18.2847 44.0887 247.88
94.0948 33.4394 136.685
28.3229 198.084 42.1059
66.3994 87.175 108.93
36.8099 111.565 104.733
13.37 30.4979 232.229
39.9766 33.4908 225.274
38.1038 159.324 250.82
8.44896 99.4332 208.655
16.3916 177.229 229.537
14.2467 20.4058 257.998
16.5205 128.279 139.8
21.5784 109.755 84.4145
26.8364 99.782 104.094
45.8167 90.0774 216.273
41.551 20.9087 217.999
23.4888 143.483 102.534
22.8536 65.682 111.594
10.286 6.06792 261.974
30.6464 38.11 39.7557
27.0666 126.112 95.7788
22.1746 13.4421 232.794
38.129 52.2731 102.99
37.8552 41.474 11.5603
21.3528 42.2065 229.336
12.4668 30.1564 75.3353
35.2228 94.0308 181.44
30.1419 74.5296 171.701
57.5209 113.182 146.211
26.7732 164.151 63.2171
28.7203 106.641 81.6895
19.566 145.037 133.326
14.2833 17.3894 263.779
40.441 30.84 258.523
40.4648 3.09376 269.549
19.8188 147.137 126.461
36.7812 120.786 249.715
30.671 121.389 103.73
26.5149 186.35 252.815
11.9204 116.351 117.853
28.675 101.482 137.025
25.2454 147.518 223.946
30.1678 82.1122 123.779
35.9291 63.192 41.0785
14.1414 96.2388 126.694
16.1616 174.342 242.744
17.9272 179.012 79.4502
42.7323 161.623 46.0282
22.9092 5.28492 62.8613
35.4858 84.379 106.505
18.9223 50.22 20.8977
38.8983 81.7344 206.288
22.1312 49.8117 235.65
41.9936 161.742 219.382
49.4828 103.54 92.6157
12.0747 5.37934 269.861
66.2903 97.6534 105.9
14.9306 36.8238 225.852
58.9626 103.523 102.592
20.3465 199.337 56.3921
23.6244 106.104 132.091
48.4688 42.7173 21.2993
53.0637 77.5195 55.0049
10.0523 85.9887 203.541
10.2079 103.43 107.641
40.1335 114.289 201.516
47.732 75.5013 155.358
12.567 166.302 245.862
34.8139 113.91 72.2821
57.4994 87.4414 113.388
46.0534 166.656 6.91714
61.8915 75.3659 60.5776
8.52334 94.9328 202.545
40.5868 180.608 64.8484
31.6197 45.0842 250.699
60.0142 93.3552 91.0858
9.23952 170.517 225.751
21.5557 197.173 48.1159
24.176 24.6791 216.376
37.9006 86.835 132.136
33.8516 112.765 145.92
29.0918 25.4174 248.996
18.3077 171.08 39.9497
27.2433 120.811 84.8898
18.5702 96.8462 96.6445
11.9054 183.459 245.545
29.3056 84.08 169.956
47.3939 31.2922 241.772
28.7209 191.1 73.363
58.4413 129.575 143.007
30.8048 113.109 266.873
32.3073 116.13 192.326
53.3823 97.5131 74.3497
47.1939 79.0827 57.1976
44.1774 106.907 186.772
18.6869 25.565 247.374
27.2474 108.775 182.406
19.1028 100.323 111.516
39.027 82.0584 193.794
55.996 83.5284 65.9271
44.6123 12.0743 221.787
47.5215 160.699 41.1157
82.5743 89.4445 125.68
17.7422 140.797 263.203
16.738 52.9667 128.81
48.0852 83.4532 64.6437
25.0119 88.6061 108.265
17.9649 15.0586 74.5047
41.9819 49.5175 109.712
39.3914 101.682 94.3235
26.7697 182.66 245.593
14.7151 58.308 41.7467
42.1094 64.282 160.519
30.8922 135.495 247.464
29.2933 14.6564 257.603
38.9713 136.691 262.381
16.224 165.252 54.1563
16.1327 196.175 265.605
13.8775 171.509 45.8382
8.70256 175.274 49.3433
28.2088 180.541 73.0735
71.9355 92.1779 137.938
40.105 167.756 223.109
54.343 70.4882 57.3673
35.0576 130.651 111.092
35.4135 97.8502 110.222
14.2543 120.728 248.448
22.6407 86.3941 215.409
58.7507 116.691 91.0177
64.0571 91.2142 85.1953
31.5756 27.8816 58.601
38.616 5.30384 219.814
16.0799 67.982 23.1188
31.3827 72.0979 15.3298
42.8572 51.7039 126.58
42.473 56.4154 113.924
28.4023 42.5317 226.845
41.1106 183.637 44.9265
39.4894 167.053 2.30652
12.6727 177.401 239.114
16.4422 124.57 124.776
13.1599 35.6837 60.906
37.3781 178.649 39.237
35.5351 98.4282 141.785
25.6898 107.073 143.686
20.3496 187.715 233.559
12.1645 187.016 69.2529
40.9181 53.1084 8.78776
15.8394 179.195 250.905
32.324 101.918 178.935
25.3908 123.196 245.691
27.3377 187.418 79.9982
69.9787 91.1411 120.393
17.6831 190.25 240.386
19.4095 56.3136 121.701
16.9677 119.05 139.234
54.8302 95.4804 142.704
13.2233 107.343 98.5055
22.7752 111.047 108.793
28.4009 9.37183 234.367
28.772 70.7664 43.3382
30.4645 88.5519 102.844
19.3197 84.6842 186.133
7.04181 48.8751 136.72
60.438 63.8907 61.5197
38.6415 84.2343 184.075
32.102 41.9914 215.038
25.4687 110.36 92.8375
17.3433 38.3644 236.035
37.5591 175.027 4.79203
45.9297 168.883 31.4693
42.4146 178.239 233.11
21.9666 78.5872 199.627
38.7363 170.397 50.6361
29.143 146.012 93.0124
76.1003 101.2 75.1226
61.2111 82.6584 95.1904
20.2806 229.748 268.821
12.3385 39.4005 27.7987
16.9547 110.88 215.242
43.1644 170.846 59.2753
29.92 77.4431 198.396
48.7559 103.947 100.637
14.2106 32.8771 56.6008
38.0292 134.015 253.531
35.9376 131.23 81.7268
21.2055 64.9864 130.821
10.8005 120.918 104.517
35.3326 180.865 241.987
20.8433 105.02 121.428
48.1348 189.424 43.462
38.7044 118.894 146.191
33.0047 84.9308 115.543
43.1863 92.4896 182.591
22.5657 39.919 13.3973
34.5474 136.436 118.109
11.2531 18.1532 68.8772
17.8827 208.47 263.633
20.7891 116.75 103.362
29.993 161.793 218.434
53.98 166.75 6.21365
45.2275 75.8563 70.8124
48.6286 100.28 193.029
36.6623 23.3419 221.712
18.5814 178.235 39.3428
31.6021 127.747 246.845
68.7315 83.8632 86.878
24.002 134.795 133.687
19.9228 12.4591 221.913
28.0755 47.5722 48.2185
23.1662 19.8212 266.914
21.2495 122.302 134.969
16.5912 99.2606 104.726
37.704 204.516 264.601
32.307 49.7362 235.263
16.4633 180.871 68.0851
10.3162 53.3045 18.9067
34.6467 12.523 237.545
18.9895 38.1533 219.194
29.555 157.413 69.4464
23.0163 86.4461 125.161
68.2635 114.081 98.0419
20.1817 149.417 238.179
37.9155 34.9261 33.4408
19.7801 109.493 99.9983
14.9447 63.2832 115.24
47.8386 115.781 206.645
37.2999 63.1748 9.96104
24.2088 126.62 141.574
29.3457 117.211 118.329
34.6788 149.565 100.016
29.7506 184.426 232.166
19.6098 144.757 116.932
32.4582 42.0757 107.429
47.0703 33.7184 234.134
52.6669 63.6689 58.1644
63.5583 86.3492 130.489
31.9288 119.847 203.909
8.91137 61.3491 23.7449
44.4198 21.9398 225.489
33.3796 7.56058 261.113
14.7796 59.7706 122.807
34.554 48.8178 47.0572
36.5541 164.724 30.7489
15.9686 108.242 188.794
19.5246 91.8359 181.483
62.9118 165.896 2.30572
42.0376 189.418 4.19564
59.4811 127.377 71.2677
45.2866 111.365 105.039
63.9631 96.574 95.9985
21.5791 102.327 182.275
42.5337 85.187 104.42
22.9824 136.15 142.975
31.3497 56.0575 7.87344
49.4346 169.862 48.0006
11.0682 93.0515 189.517
25.3629 115.355 141.556
85.4205 87.1614 113.167
35.4235 54.5286 131.953
26.7325 92.6251 180.866
33.7529 13.0692 268.373
34.8211 101.741 120.782
24.4373 201.752 264.077
6.11803 129.232 108.911
26.5076 14.2494 270.272
62.5127 106.159 92.1238
40.341 160.915 243.201
28.4367 35.4543 22.0643
49.1774 22.5032 252.281
26.1871 110.914 248.121
31.8511 23.1409 74.9574
29.9937 66.604 152.498
31.9803 187.272 239.684
28.0309 61.7068 131.818
10.0535 122.27 112.82
29.1558 177.129 253.858
41.2168 70.4607 27.6243
11.3948 42.5202 194.694
30.9762 62.735 104.715
27.3747 80.78 188.14
44.4359 42.8742 37.6765
22.4406 44.2228 239.035
34.537 45.7678 222.044
74.6166 89.8878 131.364
8.58839 121.655 256.576
36.5015 78.7743 156.895
11.1215 33.3889 240.462
30.8494 118.532 209.491
26.6748 32.7085 30.1209
17.9365 48.8613 36.6945
11.0445 108.707 212.71
61.0393 104.791 110.021
33.7953 152.547 51.6324
60.023 89.1556 140.506
15.9906 158.545 240.211
37.5154 148.48 108.035
69.6476 103.333 96.7197
9.39788 122.717 82.3395
15.8301 18.113 234.983
58.8218 102.47 144.993
48.6541 80.6955 128.993
12.6456 120.738 272.628
82.4975 104.954 110.242
31.1621 39.0895 117.785
77.2051 100.143 92.4641
39.6581 91.7225 140.907
41.8054 111.786 94.6576
33.5914 27.3769 217.07
20.562 169.591 255.295
16.5786 35.9763 69.1054
63.5147 77.1593 68.38
18.1687 117.82 197.171
35.5141 68.9387 32.2501
29.3667 32.277 18.6891
22.3604 23.7539 78.1087
39.9047 38.1596 235.662
38.8768 118.759 77.1845
29.253 202.313 55.2504
16.0184 229.251 258.916
19.8395 34.9947 31.8752
33.175 163.458 62.5609
37.3698 142.672 82.6435
27.6096 12.9228 62.415
30.5714 93.1201 120.989
22.4288 178.474 252.589
48.5385 187.55 63.9852
20.4946 93.0196 118.694
38.3651 131.482 102.172
12.0402 89.1981 212.482
45.4438 114.988 127.514
33.9445 168.563 79.7253
14.1187 92.321 117.984
34.6962 199.01 62.2578
10.1457 134.743 98.5869
13.8575 94.5608 216.466
24.1987 19.3766 48.85
46.1881 118.907 70.9554
35.7681 179.418 249.479
22.1346 191.03 265.976
50.5416 121.566 146.96
56.7868 139.451 75.0718
14.1633 11.342 56.539
74.4993 96.2286 106.318
33.175 131.677 142.275
40.8219 150.568 52.3696
44.8886 37.54 24.3571
58.1623 115.317 74.5856
50.6501 86.4951 95.6747
30.6624 118.395 76.3098
37.3729 184.264 231.984
24.3508 117.843 195.314
27.2615 41.668 221.64
67.4297 110.551 144.183
29.1774 45.3217 7.39794
40.7703 172.462 253.355
39.7717 41.8562 123.131
34.2442 83.4129 215.98
40.3032 75.4849 149.366
61.1504 93.9624 128.685
18.209 161.483 61.8079
29.6569 145.47 264.108
14.5467 177.92 220.614
34.0843 128.018 136.002
82.5594 84.0586 102.951
8.22526 128.265 80.4627
23.2405 43.7799 113.812
24.8291 56.6084 11.0161
65.4453 78.7377 93.3498
35.7899 192.976 37.4657
14.1347 113.839 205.244
35.9358 161.505 220.276
50.3778 174.803 54.9824
53.3281 102.187 202.852
41.663 5.16441 239.335
74.7181 128.331 136.986
8.39221 108.742 201.1
45.0594 97.01 112.033
30.0629 67.5148 120.71
39.8972 201.226 52.8727
41.97 112.469 221.104
11.1533 167.739 235.256
20.3157 108.517 267.79
9.36491 132.283 258.292
47.2675 87.6179 205.697
42.8978 155.269 235.955
39.8577 181.488 7.21317
44.8237 134.933 141.486
45.0864 46.8561 114.983
24.978 34.9524 255.897
16.9399 11.5577 269.555
57.0447 158.375 112.282
64.5434 98.0366 116.672
23.7383 162.838 40.4145
47.7236 89.2476 142.218
40.2417 120.292 94.0049
31.8174 32.4337 213.372
37.187 7.70984 251.784
34.5253 48.5669 241.952
28.36 65.4518 13.7096
46.0367 176.839 43.5568
45.6427 94.5154 137.601
26.853 11.266 51.9731
27.4854 15.4087 214.975
34.5608 161.055 51.4114
68.8802 122.08 141.179
56.3743 77.3745 125.499
25.5025 97.4256 113.48
49.4055 192.406 56.0655
47.6131 89.7548 195.838
34.2399 172.61 256.581
32.8335 177.739 30.6228
36.9707 154.044 221.823
18.4379 67.5276 41.8289
32.6944 107.206 94.6469
20.6945 119.753 128.286
36.4482 140.86 123.188
35.8313 32.3464 24.9937
43.7152 6.12865 259.208
39.4357 165.356 80.6274
29.2172 163.297 48.7451
25.6113 71.231 165.73
56.1119 177.688 11.0737
23.0066 194.347 273.063
20.1552 50.2645 109.721
38.2835 43.5173 111.237
31.235 216.187 266.846
26.6231 129.283 125.35
42.429 78.3852 170.204
53.9223 161.612 49.8658
30.2664 51.7194 103.854
24.848 34.0796 55.8758
34.8094 97.9128 80.4649
33.4555 168.795 222.305
26.5666 4.98979 229.113
13.7842 36.3298 251.446
33.7741 62.5261 162.905
26.7927 106.441 224.74
35.8559 20.7017 67.2919
15.8386 110.939 261.547
33.1729 154.082 72.2698
12.9086 170.716 74.0548
68.8097 209.966 53.5373
30.1251 47.6563 270.479
6.83037 127.057 122.719
31.9856 85.2918 162.181
27.78 121.434 144.658
57.3841 156.041 125.177
25.6253 100.632 126.285
45.2508 119.206 79.4608
19.7612 138.385 250.526
30.9506 27.9998 258.237
10.5455 99.0989 193.408
20.7804 117.292 207.954
42.9878 190.908 64.0811
49.1512 86.1528 100.902
30.6027 75.5656 35.1525
24.9704 110.371 117.362
29.6405 45.6834 129.516
15.5788 10.1645 64.5226
21.7406 59.9147 19.0402
17.5111 7.92453 274.215
28.059 142.59 253.709
29.5956 112.186 137.498
18.0064 36.1915 255.32
25.1248 40.5386 35.6423
28.7925 64.3124 36.9596
53.2659 106.929 148.111
18.0579 81.2414 193.871
41.3646 43.0442 219.087
40.6785 122.232 262.962
30.215 166.256 252.899
77.6014 114.356 94.974
54.6701 111.587 99.3372
19.3587 94.2194 104.374
30.1304 15.9828 220.704
56.3468 93.9965 135.611
34.2238 96.378 93.3089
40.5134 119.904 102.564
41.8576 132.295 136.405
29.2178 31.0454 70.7918
37.4311 74.127 23.8301
33.5488 154.8 43.9738
26.3194 188.496 68.5551
69.3307 83.8746 101.453
31.8572 45.6961 11.9992
60.771 100.178 73.3022
56.1887 76.9611 76.7107
11.4277 108.119 131.172
20.5 63.851 37.8632
11.1508 133.616 113.798
15.49 23.1328 224.235
18.9362 47.9299 122.013
14.8561 2.78277 250.166
26.6781 24.6194 69.1713
45.7072 96.3412 79.7194
23.8596 71.6144 22.7221
18.7879 29.8596 260.571
32.2419 106.08 108.296
27.4607 123.882 75.8791
12.8747 105.873 204.039
59.9933 170.043 7.04547
46.5854 111.374 200.543
38.4265 101.919 106.24
36.6345 120.199 108.64
10.6637 187.59 52.1333
51.2596 188.974 9.20887
24.915 44.2774 41.9201
39.4742 79.8393 101.946
67.4956 105.126 105.396
46.0751 102.473 199.254
37.5836 141.316 133.568
27.3215 46.1871 244.557
46.4093 72.2421 163.984
34.5289 189.413 244.874
41.531 121.202 86.553
14.7077 43.122 235.77
50.0017 61.7209 31.9159
18.0228 157.109 248.214
15.762 136.817 273.261
29.9278 118.255 136.469
76.9126 78.6073 104.913
23.0945 32.1652 248.345
44.6615 89.8155 108.796
33.5006 58.0705 46.6296
24.3869 132.244 87.4091
41.2222 135.828 80.2961
26.864 117.059 213.764
19.0842 45.8272 12.9009
35.4692 90.0803 166.172
17.5777 48.3593 43.5419
81.2683 125.668 125.48
44.9147 94.3898 209.77
40.6154 87.6416 168.237
46.2759 158.59 88.887
35.2932 69.4123 112.218
50.2605 21.9251 237.56
47.9883 83.2423 162.663
49.5877 175.558 10.1687
13.3692 165.938 217.609
20.7794 105.001 223.005
35.0311 110.525 259.514
28.6788 191.115 273.625
29.4763 75.8073 23.4491
12.1531 14.8296 238.444
59.9069 81.0258 115.111
36.3185 112.541 93.7907
9.02609 1.62202 252.789
66.9273 118.708 86.2935
34.4858 22.9817 252.227
37.2293 12.4226 244.131
27.9589 121.377 199.693
44.5498 71.1454 60.8516
38.478 145.798 94.1578
15.1346 139.592 255.806
21.3128 190.784 67.2447
17.9468 168.06 250.717
25.1275 175.604 77.5534
66.5905 115.521 79.2011
76.3619 110.037 100.343
23.8853 33.9573 19.3584
34.4671 172.216 42.8782
39.9847 146.636 126.805
24.4413 104.918 261.648
36.3996 35.7638 243.015
22.2926 112.309 198.825
49.9114 55.6645 16.6977
9.65825 21.3834 235.051
65.7208 98.0139 143.586
29.5303 110.052 121.694
25.695 11.3744 69.9576
31.6587 104.494 90.2989
23.6091 21.1841 259.379
19.469 186.541 248.743
69.2577 133.807 134.28
21.3934 43.761 200.509
62.3743 167.566 57.5635
71.5281 101.264 116.971
41.597 128.242 252.535
11.6546 113.867 111.223
58.8282 94.4285 109.854
29.4662 149.243 57.1409
44.1226 94.3305 190.054
23.5521 181.839 32.3298
47.5965 118.363 100.617
13.1462 109.648 90.6835
16.7755 121.106 82.9508
28.7383 36.5924 13.8686
40.9803 177.003 79.4432
21.7992 150.482 55.8029
18.9283 169.206 63.8407
65.8749 174.246 3.22414
17.1671 162.42 43.3235
53.57 75.4242 110.749
24.9537 134.195 227.706
23.7979 69.2134 122.994
15.9734 40.7105 18.23
26.2453 197.476 60.3733
49.8556 91.0478 137.114
79.6006 113.354 118.986
38.3754 202.005 273.338
33.7978 38.1302 255.567
29.98 139.071 134.997
47.231 67.1678 22.4857
35.4943 92.3285 115.335
23.2683 36.3689 262.086
8.69404 116.617 263.695
19.478 178.933 73.4246
89.3712 96.1745 122.279
45.6879 174.112 223.841
46.4614 110.619 211.39
31.8232 20.8879 61.0392
24.7558 140.739 273.645
19.9455 113.71 141.113
12.4318 46.5074 18.0672
73.9339 92.3713 82.0258
31.7161 185.174 32.7761
86.1115 93.8625 103.061
36.7109 148.669 117.604
14.3663 111.037 127.763
32.5325 116.471 251.846
47.2736 207.507 5.10135
26.2634 146.918 240.274
28.5044 192.009 260.505
37.2673 2.13549 231.644
64.366 93.9391 137.62
46.022 62.3195 12.8594
13.5873 230.643 272.412
45.7719 188.01 52.0102
33.5185 90.4081 157.777
11.8886 157.883 57.653
14.7741 25.6379 243.626
38.8981 79.495 124.226
30.8202 141.568 100.499
22.047 115.974 273.743
21.1689 18.9082 56.5432
78.4561 86.9107 111.959
7.78138 15.5518 61.1086
43.0814 61.7149 119.193
41.0664 109.334 147.666
15.8489 189.018 52.1365
22.7539 66.2509 45.497
41.7486 16.0232 250.521
25.6497 56.362 49.7356
37.7602 15.6266 259.003
23.2928 158.307 214.351
28.5907 167.194 73.2306
16.6196 189.811 62.2495
42.891 89.3045 161.165
47.9348 153.401 103.711
24.5126 155.844 54.9999
17.5844 108.368 136.331
6.8332 129.671 85.2411
22.8721 169.177 213.559
36.9122 116.765 217.914
8.05114 46.0439 22.7546
13.7015 111.752 196.586
44.3467 23.4017 258.949
17.0417 154.194 63.0611
44.9686 131.26 74.2147
48.9284 45.6899 28.7347
10.8913 35.107 247.01
39.2594 157.03 38.4276
22.4538 126.734 130.77
34.9274 162.34 79.9297
21.9309 151.529 245.754
43.6645 16.9457 234.3
31.6991 77.1869 117.28
28.4653 48.569 13.2287
28.96 177.16 215.772
33.0764 91.2843 137.276
45.8274 150.603 87.9781
25.5978 171.99 35.3141
52.6983 109.021 69.3354
24.485 33.2523 217.755
19.0964 29.7118 219.101
23.5717 93.1664 221.099
15.0646 207.815 273.737
43.1404 144.577 131.452
8.17218 138.386 227.713
38.6015 44.0894 39.304
42.5485 154.732 83.2687
18.4084 109.933 246.505
72.3127 102.902 78.0549
42.0448 108.232 203.003
22.2478 144.022 92.9872
25.3745 217.437 259.635
27.8523 157.087 251.134
36.1647 126.214 145.24
36.7712 20.6127 258.239
41.882 197.998 45.7403
19.5239 75.0069 25.4939
23.2527 186.574 241.318
64.5103 136.877 76.3158
39.7124 56.056 44.2886
25.4933 92.9186 138.673
27.8414 112.581 197.483
38.3114 169.363 72.4759
84.912 97.8478 117.31
35.1383 192.373 67.4629
14.6045 61.7977 15.8736
18.8645 214.057 272.963
16.3797 133.53 126.156
28.4947 6.58147 223.836
42.152 178.787 245.236
75.5359 109.842 80.3813
16.8851 101.661 87.2167
22.6535 121.061 122.33
29.266 21.1191 50.8946
14.6066 37.8774 243.641
31.5741 139.295 128.417
56.7918 155.194 100.409
49.3515 151.175 80.8007
27.9848 137.842 93.9892
52.6019 90.3873 126.344
53.1347 109.293 208.733
45.4015 198.183 54.4584
66.2476 101.84 75.4141
24.0602 169.057 221.848
70.2019 85.283 125.651
40.6559 79.6189 111.021
27.7525 138.355 105.19
24.3682 211.782 274.34
32.2467 9.23984 273.842
12.263 126.044 252.377
26.205 63.8682 24.8499
37.3682 185.11 32.7956
12.3442 17.6773 248.058
22.223 114.055 125.923
16.5527 100.415 219.385
40.5548 146.58 118.89
49.2595 77.6817 106.402
21.0861 4.51319 243.067
15.3332 140.405 107.812
43.7308 29.3623 248.901
53.0343 179.229 70.0496
9.8462 113.788 252.343
67.4444 70.0363 62.7813
31.8071 152.982 110.583
36.6839 124.613 84.3174
34.8956 27.7313 69.8363
26.4458 141.723 120.63
17.2025 196.649 272.54
50.4858 21.5318 228.725
18.5329 58.102 12.4231
49.0998 196.054 49.8425
41.3526 107.877 192.965
29.8649 135.18 273.546
26.7965 96.4497 224.745
25.1277 22.643 57.3825
9.24967 156.961 238.232
46.6678 13.6935 246.618
24.6008 109.899 216.639
15.662 17.5399 49.2658
74.4757 106.357 140.507
45.209 101.565 108.026
48.0887 151.858 96.6427
55.4641 120.998 69.9663
31.7675 209.538 263.993
11.4932 21.7994 241.351
47.8115 108.799 219.454
34.5842 107.681 187.954
51.3601 78.3722 159.643
25.198 76.2704 155.288
45.8184 54.8593 37.8314
89.609 114.87 114.893
39.2536 27.3857 217.423
41.0749 22.9345 251.336
14.156 85.8797 191.535
47.2497 148.816 124.941
35.5416 150.937 113.25
44.3477 151.594 116.147
73.5656 141.215 132.333
53.4896 95.6718 104.32
43.314 176.803 69.5645
18.0334 188.656 38.9866
16.2999 127.057 274.399
66.1008 149.915 124.168
64.8581 155.612 98.9281
24.3333 130.502 244.804
37.3537 188.35 227.758
8.10281 167.039 50.7209
24.5733 139.211 224.973
30.1827 117.189 274.243
42.6443 185.918 32.0303
22.9614 114.59 131.899
16.553 106.822 107.105
74.9671 144.716 126.241
60.3179 93.5609 78.8805
17.2628 18.515 221.562
39.2063 130.485 72.5914
53.1034 1.52572 225.885
81.4749 96.69 107.174
25.6914 185.673 226.973
25.7579 41.4279 251.821
28.6896 80.6229 108.972
67.7714 104.441 70.6109
14.7709 157.776 49.0211
44.4383 80.1261 123.532
35.6685 148.3 88.0217
60.0147 145.243 136.037
33.1092 157.801 35.152
56.176 151.09 108.135
12.8455 135.952 92.3495
24.0541 131.139 79.2674
42.7754 154.21 103.857
30.0428 3.11612 219.972
24.8995 56.4066 134.784
40.8231 126.004 92.586
65.0146 85.8542 90.4018
64.5777 87.3017 124.23
23.8883 146.039 112.194
44.8614 137.241 73.4093
26.4985 104.214 92.1605
47.6093 105.496 204.36
67.6108 182.915 3.36642
11.5031 183.223 208.722
67.9882 109.37 86.7933
25.6276 55.3158 104.916
22.9065 4.93959 223.376
30.1377 101.896 118.017
47.2147 88.3465 117.645
15.2218 183.167 47.2152
53.8028 165.387 72.001
40.0714 142.914 141.159
71.0924 155.039 103.499
38.9574 31.9965 251.416
60.0112 187.525 6.31838
55.357 74.6246 102.021
33.0016 151.672 237.93
29.0322 146.244 118.585
27.6778 136.81 123.777
9.65095 21.6966 253.131
40.8877 157.837 78.3979
46.0958 64.5552 65.8572
53.7138 167.639 58.8079
64.5104 155.428 108.577
23.9074 47.3875 274.08
35.8973 101.996 149.297
29.3327 15.7164 67.9333
53.2797 181.833 58.3724
28.8202 188.306 266.242
28.3939 6.32054 246.005
40.1234 90.7104 118.671
20.995 126.308 80.8383
64.6401 167.285 14.8547
18.4962 56.5237 109.156
49.8745 11.935 238.673
51.876 152.161 89.8782
43.7208 28.5265 230.16
48.8059 111.991 145.781
33.9047 3.89775 271.906
74.9529 107.624 110.846
22.8469 152.193 217.565
40.8745 87.7824 125.838
34.544 104.651 145.924
6.07508 107.987 99.6097
37.9479 145.56 78.9401
25.9415 85.4584 112.883
48.5852 86.5331 83.5771
9.19239 98.2353 101.314
69.5321 83.4157 119.531
19.5648 108.083 251.958
16.9152 146.612 98.9944
34.29 139.952 269.217
6.73112 147.695 116.708
5.08449 121.214 110.194
22.9385 183.387 67.3626
79.3105 109.412 136.017
77.5585 153.459 104.568
39.321 155.624 114.237
9.90156 113.034 95.5123
46.2575 180.57 31.8011
36.1746 184.912 2.27174
35.1891 73.2639 39.3986
60.9607 144.287 81.4551
46.5663 99.119 222.89
37.9229 128.349 262.484
51.9335 98.1876 215.931
30.3814 127.736 146.779
21.5208 181.844 225.366
57.981 148.596 131.946
43.1105 123.725 69.2297
14.2106 30.0519 223.839
32.0728 1.42615 240.406
40.9288 83.2053 119.424
13.8918 136.293 123.403
35.6829 80.3352 118.956
38.0614 165.36 90.0749
35.4087 126.094 93.6194
73.6763 121.893 90.2693
75.4686 92.3974 110.845
51.4265 91.9642 87.9743
31.0994 145.579 129.28
30.0413 11.1205 245.917
14.1049 191.555 47.997
80.2091 109.631 84.841
65.455 138.149 129.388
42.8142 74.7856 108.252
30.258 87.4594 136.899
23.1413 193.612 241.139
19.6378 159.923 108.248
23.1863 72.7146 42.1904
16.7729 107.471 256.233
68.7161 119.189 94.1769
21.2718 106.357 272.769
31.0158 151.291 116.841
30.158 90.0644 223.439
51.0376 50.9991 30.1981
46.3028 62.087 39.3446
39.1362 65.3789 123.757
56.2086 97.589 210.726
5.8814 117.095 105.328
42.6615 1.35651 260.981
56.8641 89.5694 128.575
31.9841 154.941 233.409
47.589 179.473 73.2274
66.2244 75.6638 102.694
17.3112 151.836 219.034
47.8224 155.181 111.456
66.1308 85.3102 95.1696
28.9357 70.1192 127.318
43.0057 167.385 233.616
21.5174 191.69 38.0104
37.193 68.4028 18.0957
68.4109 119.392 71.8238
38.8722 116.431 208.275
64.5703 142.099 132.438
31.1236 116.093 220.199
66.5621 98.3253 81.8379
32.6299 22.8659 216.522
47.0673 5.29091 263.865
31.0323 190.292 226.707
69.208 141.388 95.7185
37.1231 121.15 272.147
9.24173 32.2743 64.328
27.8666 170.443 31.3685
87.3624 109.036 88.5621
77.6251 135.943 125.484
52.0733 110.33 201.584
29.9131 108.615 253.962
31.1874 111.369 97.1889
36.9405 133.853 272.673
58.3085 172.366 59.9311
58.5867 152.214 87.6661
20.0907 170.837 224.836
26.4652 145.911 53.6246
34.0197 108.166 265.532
37.9661 152.711 74.2355
49.7084 141.187 142.692
61.6959 139.043 134.223
52.0373 146.55 140.905
32.8103 39.2938 236.724
89.5271 103.642 100.768
23.3721 11.9808 245.678
47.4953 166.536 228.975
78.0207 81.2755 113.017
48.4933 1.17552 259.009
28.8345 52.8243 134.913
67.2355 144.749 87.344
77.9327 146.186 98.3874
12.0531 135.292 225.345
75.982 121.682 74.6764
40.3744 102.875 145.147
17.5722 11.8255 50.7478
92.014 110.588 98.2246
60.5497 145.779 121.106
27.8405 210.602 267.449
51.9658 95.2659 112.744
18.0712 8.39792 228.394
39.8752 16.1843 265.368
55.6258 85.3097 130.954
32.4205 198.595 57.9999
85.1188 112.154 134.164
15.5916 121.345 131.826
27.678 36.7798 215.478
80.8189 121.934 118.576
10.4794 145.916 115.591
38.1145 86.3957 118.821
28.4313 116.649 247.967
37.6575 155.658 99.2814
29.24 91.1655 217.841
50.1067 1.132 232.47
52.3316 155.288 104.157
28.2803 35.4041 250.509
48.4232 162.243 50.8527
35.0555 171.519 1.11725
27.8983 83.496 217.325
