ply
format ascii 1.0
comment Created by Open3D
element vertex 1052
property double x
property double y
property double z
end_header
31.2687 30.7362 211.694
7.41845 128.685 142.629
17.7688 118.111 101.199
45.6345 54.1032 119.766
22.1707 134.597 73.8385
29.5996 63.5825 169.466
16.7323 135.289 182.561
29.067 56.3753 140.327
54.5776 219.18 101.24
30.4424 121.382 70.5054
67.1668 224.61 107.905
13.5687 173.087 126.305
70.2502 213.895 88.4699
57.3472 209.239 88.2857
17.6836 103.757 133.212
21.1707 109.01 100.424
20.6072 49.112 181.114
28.6434 63.3055 157.507
53.2397 220.631 161.9
49.5847 213.181 94.6805
57.6643 147 43.9273
14.2527 189.22 142.978
43.3648 35.4943 213.899
20.7308 174.808 85.4082
28.638 59.9414 179.173
29.5211 50.1297 196.047
14.9389 105.185 170.774
41.9041 44.0211 205.97
60.9186 154.976 61.3842
54.7244 109.725 207.375
39.343 175.987 206.59
57.8722 221.907 110.523
56.8321 145.995 35.0924
7.01406 141.979 131.141
26.0964 118.821 78.2138
57.5136 82.7766 108.744
18.4791 140.675 81.4361
38.2089 115.02 69.411
20.4815 92.7339 121.962
37.7716 68.2676 161.958
18.5808 51.1767 169.15
56.5036 119.053 214.017
30.3435 199.384 93.6783
28.5206 83.1979 147.094
45.8911 137.61 214.483
5.03237 110.651 153.519
14.2799 129.301 98.3862
22.7437 51.8827 143.172
42.2381 172.425 50.5769
27.8227 191.955 97.9377
18.6913 39.6959 189.727
39.7171 182.595 200.277
46.7361 149.004 217.786
39.7806 96.2654 89.8983
31.0225 182.812 190.52
5.7325 109.362 161.15
134.224 214.191 6.06003
23.6994 170.984 78.1931
17.2159 172.875 91.6967
138.611 197.97 36.1061
104.022 32.4467 134.928
22.5338 89.7963 130.651
74.5661 118.131 65.9014
37.7851 175.475 43.021
23.879 207.354 140.968
9.84516 167.602 106.709
89.2335 83.142 95.6085
48.1414 166.216 53.5078
22.2382 46.3084 137.096
30.0566 87.3516 127.475
42.5208 211.182 49.0098
20.9691 166.875 189.856
152.149 174.139 141.563
22.6157 102.078 181.542
125.069 149.341 2.92671
7.71996 163.369 99.5519
36.0315 210.08 20.8462
50.727 44.6538 207.051
9.70897 154.748 97.35
22.5105 176.871 185.139
7.60326 120.81 157.128
31.3711 110.32 78.392
39.5335 87.0798 100.159
57.7505 218.36 172.709
100.09 39.902 177.142
36.6062 200.26 32.9953
105.917 32.7971 161.802
15.9574 104.018 153.43
26.6713 208.898 151.183
28.3132 128.777 203.064
8.506 101.804 162.9
26.7461 187.323 184.094
33.1337 102.456 86.4049
29.885 201.091 138.942
61.1002 85.2308 100.213
34.111 11.2816 214.314
112.454 139.509 22.8071
39.3426 161.318 30.7266
41.3453 218.754 145.586
43.4936 14.8988 101.601
72.0185 138.271 10.8164
113.303 143.445 15.3047
39.0418 182.14 51.2999
55.0159 204.819 65.6723
41.589 82.1741 163.532
37.5617 190.033 47.4176
36.3707 169.041 198.353
7.76203 162.42 131.534
35.9199 206.723 39.8217
15.9624 123.793 90.6154
44.6685 226.743 36.6284
34.3753 157.378 63.0189
141.155 184.745 24.5178
55.7957 175.993 210.531
34.2727 95.0115 98.1449
90.7504 135.387 30.2643
5.54051 15.4751 141.642
81.7382 35.4454 112.583
26.2175 109.717 88.2816
57.4211 90.2299 84.4438
38.1042 22.6218 215.697
15.5671 144.811 97.3821
16.248 183.446 126.599
27.0441 52.4502 130.296
48.1613 26.1787 217.865
35.3041 186.646 18.3472
32.3539 189.501 29.3631
11.9952 152.945 178.719
48.9795 126.069 215.396
37.3632 87.5018 171.344
36.4488 202.79 109.726
153.969 149.75 150.847
106.602 18.1871 165.91
27.1413 59.9012 148.879
10.4717 138.566 178.574
10.9849 181.354 166.7
54.1231 156.072 49.0151
36.4744 114.775 204.669
75.5585 137.402 39.0302
9.55539 158.667 167.865
24.7416 38.8614 200.797
93.3199 30.1766 117.811
16.3213 131.234 88.3379
139.033 186.531 35.6629
14.7105 110.485 159.168
20.6508 117.839 84.5508
9.53918 119.582 165.451
11.8781 129.697 164.521
8.22732 144.564 171.294
33.4157 205.541 123.279
98.696 20.1345 119.985
35.6078 65.3933 150.512
11.8537 36.3435 177.414
67.6942 203.36 198.147
64.1618 135.52 220.411
66.7051 139.79 33.1241
28.2218 103.338 95.8836
63.4336 213.595 186.926
32.9868 182.815 35.262
14.5729 136.822 169.278
64.3975 224.268 119.226
33.3344 208.267 131.22
15.656 148.369 166.993
19.0444 195.988 119.973
40.1098 107.808 75.1929
19.3523 21.0579 202.032
57.2366 184.601 75.4117
32.832 161.522 194.826
46.5018 135.758 56.2991
14.769 94.4828 148.422
35.9697 203.644 12.4412
106.216 17.4916 127.382
31.2562 202.154 115.859
73.3116 92.7664 195.825
13.119 177.141 118.037
33.9267 135.845 198.199
40.2342 217.607 16.6615
40.6364 206.643 93.5254
151.816 149.419 161.14
42.0438 220.463 120.6
13.2365 137.012 91.3308
48.3417 164.888 205.366
115.566 142.512 31.0443
44.5624 166.182 44.24
13.5734 176.83 98.9586
156.273 160.359 127.586
40.0709 169.523 4.31119
28.5748 196.115 107.568
108.466 7.06791 172.243
35.1095 212.648 118.23
50.5025 86.0817 185.045
67.9333 51.4089 205.372
35.2302 179.392 12.0113
66.9539 224.373 66.2442
12.1763 165.098 176.964
33.3394 213.406 143.715
38.2857 210.298 4.07266
42.7014 207.666 160.033
40.4702 76.7662 146.969
56.0008 206.48 182.048
63.0137 203.643 82.8618
55.3722 33.1732 215.435
25.0535 97.6605 134.358
70.8629 222.166 98.3898
154.772 166.394 134.613
67.9 83.3536 130.78
23.8259 201.388 128.063
39.0461 5.9559 99.0589
32.769 14.3957 104.16
55.2117 17.1882 220.518
38.4504 63.4858 141.35
55.9034 54.2184 203.331
11.7191 162.422 142.565
48.1119 81.9191 169.646
10.5724 100.412 139.561
138.044 174.183 35.5154
103.966 138.109 16.7811
33.9476 211.623 29.3561
10.5109 132.113 134.119
27.7777 149.697 66.161
140.012 187.189 163.923
114.343 144.969 2.81422
20.4375 19.5796 116.804
102.951 139.392 34.407
37.0079 179.615 28.9233
13.1025 181.564 135.739
43.5202 197.587 190.483
55.2156 221.883 152.071
27.7361 88.5983 167.701
75.4626 134.347 19.3166
11.5397 156.529 122.262
6.97672 27.6816 170.511
70.8692 195.952 196.115
137.485 199.989 6.6711
32.121 175.753 198.416
11.2171 171.649 112.401
35.4484 214.541 153.628
39.8742 164.821 61.7997
15.7824 35.6476 136.806
80.7317 224.502 71.7728
46.3005 126.71 58.8715
49.2731 211.136 179.015
71.828 134.359 28.0766
7.2788 111.791 170.511
61.3128 143.476 22.5779
65.6186 82.8378 178.644
22.2926 28.6049 201.125
39.6949 200.949 183.178
150.039 159.919 157.854
6.56894 128.787 151.759
71.3058 132.283 215.246
55.6887 223.225 126.141
63.4476 213.76 71.1089
72.4304 216.448 77.0708
20.8026 102.142 105.117
22.2954 169.192 179.973
146.618 193.98 132.97
30.3192 198.378 175.759
33.5419 129.067 63.5152
50.6158 147.912 15.2143
40.4744 163.032 20.0089
47.1797 93.3557 83.3448
55.606 4.21935 95.7136
54.3064 131.064 56.0401
41.2167 155.058 128.6
73.9696 230.143 126.742
43.5161 219.341 6.41213
13.8445 189.012 152.743
33.4611 202.868 102.323
15.9479 192.059 126.297
17.7657 182.908 157.235
54.3404 133.102 217.93
149.378 172.367 153.109
25.5762 3.66199 211.419
140.864 192.363 17.5748
55.6878 95.5366 77.1346
20.6162 184.515 112.829
45.6567 75.7474 138.85
136.387 191.184 44.6067
27.2707 194.818 120.141
104.697 27.0367 174.998
79.021 201 201.133
112.317 10.6797 163.562
52.3492 175.278 68.5728
34.2744 172.845 32.6194
12.3325 144.78 88.7229
26.4509 101.106 169.971
36.8963 110.015 195.865
53.956 143.09 220.959
48.2076 201.55 85.1794
103.623 12.9332 188.744
68.5175 32.1122 213.402
28.5623 94.7807 144.06
17.997 129.957 176.603
50.5497 174.383 60.8871
30.8928 195.529 19.4806
64.7205 208.772 77.8814
37.1531 198.953 46.1839
150.994 139.128 98.5118
71.5296 142.707 2.71343
15.7266 124.045 187.423
37.0434 192.638 75.5544
22.567 136.77 194.111
6.34487 134.665 161.749
16.9997 152.276 80.4064
72.2629 141.856 216.737
62.1749 217.159 95.7751
34.1368 194.944 84.7501
6.38577 163.244 160.737
88.1977 54.1853 144.79
65.985 22.2101 220.493
148.593 185.193 142.581
138.386 201.656 15.8212
62.7259 225.444 157.072
10.7423 153.932 157.484
72.0862 213.421 181.58
25.1776 17.0488 111.835
20.5685 150.09 184.582
74.4226 210.166 192.069
80.594 124.516 211.179
18.677 106.498 116.446
20.0427 190.833 114.967
145.343 168.52 162.377
45.277 69.8446 156.607
45.1472 211.904 105.229
53.3958 166.43 213.885
12.3215 101.082 123.863
20.6793 128.789 80.8225
31.6135 208.417 160.707
32.4351 141.875 62.3465
39.7154 220.976 136.496
25.1578 101.673 115.53
94.5041 19.0645 207.508
59.8692 146.163 5.71846
68.7169 219.28 173.771
13.1418 4.15101 126.431
21.6449 26.8689 115.405
57.1244 65.4861 187.561
158.896 140.625 133.94
47.5675 199.352 183.882
27.0773 136.488 67.7818
103.026 30.2833 125.897
131.703 222.409 10.7541
69.1341 77.5146 148.665
27.3637 87.4992 119.202
6.59674 157.356 107.238
60.2688 76.886 138.149
41.5839 92.5339 177.226
44.0269 118.006 63.486
34.5558 86.418 163.542
51.0155 220.518 144.006
84.0677 86.8389 84.3479
155.314 150.11 131.635
68.185 139.395 22.2623
41.3613 128.025 209.116
141.266 177.567 27.7048
53.6249 225.513 135.246
80.6646 134.613 11.9019
39.297 188.605 193.052
92.6935 49.8501 165.941
80.1994 138.077 214.059
65.9075 230.008 60.1022
10.4911 153.732 136.411
63.5831 188.377 198.832
46.2924 186.028 62.0343
56.728 82.1745 92.5055
132.525 187.519 94.4431
20.33 151.056 192.914
89.7719 47.8153 187.88
82.967 217.385 77.031
43.8003 217.829 153.721
28.2306 30.4802 115.561
8.63387 165.652 121.499
64.1655 195.289 76.8805
104.124 33.7162 171.68
36.9048 171.852 20.3269
43.587 100.706 78.0744
14.6396 21.6588 123.864
111.225 3.68932 179.078
49.1273 82.859 103.121
69.4946 227.735 134.018
62.6785 41.8227 211.041
57.5301 198.401 196.135
41.395 66.5433 181.129
143.764 177.258 161.51
81.8574 140.466 4.38197
86.5674 54.3988 134.66
156.308 147.108 142.019
110.094 8.75866 148.149
108.763 18.3002 156.284
46.2237 159.4 215.381
52.629 212.515 58.4869
52.4704 146.722 26.6028
13.4267 154.037 90.0063
59.5984 166.378 66.6506
106.94 138.482 5.80288
33.1543 193.867 39.3017
38.1512 93.6961 190.465
16.6113 192.814 134.49
31.5968 155.607 204.671
77.7027 83.876 180.8
145.459 159.545 168.366
73.3265 75.0224 112.893
108.399 12.0108 140.156
14.6498 166.902 96.6513
34.3694 216.533 132.94
23.5667 36.0774 122.36
42.9402 153.192 207.582
9.29005 116.464 113.317
20.5603 182.473 91.3302
6.5658 8.36907 189.818
20.8863 180.714 166.021
134.977 176.444 44.2557
60.0992 140.59 15.321
62.7346 105.57 200.95
25.2882 94.5065 108.326
5.14206 131.117 124.211
39.807 218.014 34.9348
82.1049 215.825 182.561
7.79407 171.166 164.046
57.8467 68.9832 152.867
18.8377 100.249 174.35
91.5166 224.022 73.0568
9.55003 38.903 162.669
30.0633 201.098 169.397
134.757 164.099 36.2288
47.3067 67.839 147.047
43.933 152.251 23.113
52.0497 104.674 70.6021
89.1093 57.6152 153.103
135.613 160.63 17.2382
13.6977 171.246 144.827
143.69 199.551 139.122
77.6036 88.6967 174.776
46.3978 116.364 209.401
95.1329 136.369 18.6329
134.96 166.062 9.55132
107.178 22.8443 136.8
154.193 143 116.355
145.004 183.678 152.372
135.166 204.946 42.9932
53.8337 190.362 200.571
140.814 182.523 11.2897
70.9627 170.437 215.075
64.1135 212.196 176.696
41.3171 195.086 55.266
87.6751 187.989 199.354
41.9711 99.474 199.156
28.0802 181.167 86.8609
55.9123 162.995 58.6213
31.5946 101.621 105.864
6.67711 22.598 136.451
58.8768 124.665 55.0401
43.4422 209.087 172.151
27.0005 144.47 198.452
22.9205 187.138 177.359
8.30744 139.453 101.565
77.0905 79.5681 142.988
14.7765 109.873 106.584
75.3695 228.735 153.116
13.9167 156.446 114.018
67.2802 62.3849 193.88
18.3541 173.583 174.399
6.49504 158.19 147.741
6.3844 145.577 141.483
17.1139 98.9266 160.49
48.5617 197.6 65.2941
102.134 7.27118 118.279
46.3758 218.382 136.217
5.58854 18.2051 168.009
40.8167 2.67991 218.963
64.9697 152.911 54.1747
6.17313 8.00085 133.532
42.1426 145.168 208.93
83.9472 132.757 20.3805
98.6966 139.292 4.25909
18.9033 117.575 190.227
44.8776 83.9096 174.799
60.8107 185.949 207.014
55.8934 221.592 59.8824
32.3954 137.977 207.181
152.509 160.674 104.525
50.6293 91.6565 177.916
105.62 18.6709 183.638
57.9569 54.7439 119.646
9.45322 30.2731 148.404
137.717 209.236 32.9925
15.5087 123.146 169.2
69.3494 79.8219 138.598
87.1965 109.84 67.0247
17.2229 167.575 169.787
16.4155 108.215 183.915
107.075 99.4134 81.6969
66.2875 177.634 209.365
52.0624 45.1012 112.558
133.669 159.951 26.189
18.4981 114.727 94.0809
41.7631 181.426 74.1099
79.2108 78.957 100.607
30.8769 96.0286 183.755
5.29277 5.45995 145.601
46.8826 86.0535 91.0641
66.6756 203.515 188.495
38.4624 182.087 2.53829
87.8469 95.5801 81.176
154.106 163.132 146.969
28.8065 92.1529 176.928
58.5225 206.607 191.338
139.49 199.383 25.9798
68.2502 143.868 46.1804
35.1845 56.4329 191.102
72.6709 121.274 215.058
54.457 36.1597 106.108
151.344 161.527 94.8242
83.3407 223.324 101.612
51.0915 212.533 167.647
155.451 160.113 114.841
61.665 102.269 70.3825
101.221 2.90274 198.129
150.243 187.858 125.66
79.4345 130.97 218.72
92.398 48.5276 179.3
50.3516 222.585 116.756
73.8474 16.1848 221.737
120.319 204.8 166.842
138.717 158.605 176.343
34.1398 123.506 204.318
78.2478 190.745 201.9
51.3724 95.9155 192.431
91.3767 104.639 76.631
128.33 196.317 174.846
77.2277 39.7407 207.757
123.143 152.731 11.1631
80.4681 48.0942 121.376
30.9871 99.852 123.39
121.733 153.129 44.7235
96.0911 10.7444 206.167
86.1674 59.1604 163.489
51.5415 123.414 64.5488
81.3136 101.432 71.117
71.1253 188.947 207.004
11.7205 149.643 104.55
155.687 136.042 111.068
87.2132 179.437 204.66
30.3153 169.996 71.0851
68.8537 83.7593 93.4518
64.1157 75.4036 120.281
5.60332 7.96334 176.823
79.7943 218.571 94.5941
35.1169 183.619 81.1072
48.1499 223.818 47.6934
7.12977 149.688 123.295
65.5644 114.331 213.314
37.9597 83.5051 123.199
40.4464 196.958 4.0178
44.9899 179.538 69.3807
22.3699 102.639 124.95
10.4439 181.02 149.691
151.126 143.99 107.197
54.743 138.764 55.0431
25.188 93.4838 159.166
75.8437 228.933 62.7954
44.1197 54.8297 198.115
93.0898 87.9049 86.8351
134.088 182.937 172.097
27.2822 172.905 193.459
15.6917 158.572 184.933
137.525 174.977 170.41
47.2236 26.8727 101.62
128.105 192.988 166.789
116.71 215.867 168.41
52.4375 187.025 68.9011
56.8067 79.4997 171.081
72.2807 160.198 65.1509
6.2046 121.527 133.18
65.3165 127.155 218.271
100.784 42.604 163.629
112.239 152.242 193.482
95.6374 134.551 199.779
46.194 106.919 204.367
44.0478 33.9117 107.01
75.8291 146.111 53.7565
86.901 44.7905 195.309
10.1109 121.392 105.742
75.8126 110.48 62.5435
127.226 177.315 183.076
84.5925 134.832 37.3126
156.201 168.856 121.374
38.6016 210.952 107.059
45.4478 70.8037 167.822
48.2452 224.287 129.081
83.5826 208.266 192.231
79.6482 80.1922 121.093
49.5727 230.712 22.8599
47.7998 159.077 61.8662
5.08009 175.557 157.356
57.6892 202.555 73.1819
153.687 180.249 120.967
88.3812 25.7201 110.681
13.84 167.044 163.895
82.3902 228.492 109.254
25.4439 184.127 99.557
156.968 134.174 123.881
80.6408 62.2167 150.073
44.6293 156.859 14.0005
27.5954 212.112 132.798
67.6198 89.9501 83.1746
96.5176 216.495 177.827
42.7655 172.892 12.9168
20.2579 97.4806 142.611
38.1788 163.571 206.088
158.604 152.914 119.06
39.1834 218.69 127.925
105.685 127.403 197.121
80.2212 225.706 173.667
58.9247 87.8514 170.535
41.2181 198.939 88.6237
67.1846 6.58597 221.502
49.04 181.724 205.353
94.1522 2.48443 206.993
82.1754 5.93854 215.727
44.3974 92.0318 115.887
128.644 220.012 42.7486
81.9097 213.537 87.5528
107.726 12.9618 181.014
78.5816 176.524 211.065
40.6076 151.4 59.9802
23.0245 10.4825 201.904
133.43 170.838 181.033
8.20373 173.687 134.616
46.1683 147.389 57.8912
151.998 179.066 131.877
14.7072 122.113 176.709
45.2343 172.041 205.793
58.438 121.739 61.2375
53.5277 197.759 79.2253
129.446 202.156 164.11
68.3769 228.841 153.376
36.9502 205.328 173.131
63.7108 229.111 142.447
155.778 147.928 123.556
71.2669 150.118 61.3461
5.06719 119.297 147.677
42.4369 203.688 57.6071
16.498 182.372 105.541
64.3012 81.8457 163.939
6.3295 112.112 139.793
62.2248 227.058 130.381
54.9851 4.85182 221.979
35.5315 192.718 186.915
31.9701 201.811 24.7801
34.105 147.194 207.822
123.692 149.158 23.0163
113.964 218.56 66.9857
134.989 193.85 159.965
99.1695 37.5205 185.87
110.734 127.22 189.719
68.4449 109.694 206.595
151.463 150.001 97.8276
152.556 173.056 103.85
64.6044 68.8107 174.666
23.0704 198.45 162.23
22.6096 107.57 196.038
51.5142 156.497 38.4876
28.3997 47.2662 126.497
96.3476 228.767 66.3933
151.988 137.464 159.29
132.155 224.351 21.7374
48.4811 107.666 194.59
111.596 161.461 193.459
67.5038 8.66757 96.1277
46.3352 193.018 75.3407
70.4048 100.496 71.3312
5.88756 105.039 123.841
6.02639 144.528 160.612
150.683 167.748 113.617
149.911 176.087 116.854
18.2337 201.156 147.464
18.0116 88.0686 140.851
42.2197 173.02 63.411
94.4593 109.377 194.004
54.3168 112.664 64.3503
100.619 41.4151 139.282
136.332 178.217 15.2972
139.629 170.189 21.1118
32.6598 79.9004 135.33
51.2474 63.9882 136.645
130.599 211.593 38.5509
6.17488 3.9017 163.395
152.188 156.788 139.229
48.7205 193.939 28.623
43.1036 157.203 38.8815
46.5522 189.683 197.116
93.2305 48.0177 140.318
99.8402 19.5958 200.032
65.3794 150.819 219.713
153.954 114.91 139.357
76.4283 93.5282 77.974
139.653 196.903 107.094
22.5164 195.656 142.183
135.317 184.197 49.5944
89.2421 138.26 10.8133
71.6243 202.54 82.271
85.76 133.723 209.804
142.384 194.605 156.13
61.9739 143.046 219.677
73.9572 63.8395 180.465
82.481 165.955 212.165
21.9536 47.6497 129.06
60.1124 144.337 56.2852
154.125 124.648 158.834
45.878 201.643 177.245
88.7493 157.891 214.487
22.8061 198.254 152.551
50.8827 193.217 189.872
5.46459 138.169 116.811
90.9757 30.1844 202.274
60.2959 230.464 54.008
107.004 213.082 179.62
96.7774 34.16 126.928
73.8886 228.961 115.883
85.3329 142.065 49.7747
139.551 189.907 4.25184
67.2655 61.7059 130.673
71.6961 150.443 216.417
78.8577 127.553 55.5249
33.4767 176.586 76.0997
75.864 116.441 206.219
125.239 194.63 90.7642
48.328 152.851 52.2726
100.321 99.586 84.6101
77.1981 54.8793 193.057
10.2645 111.806 132.193
90.3256 127.197 66.1055
100.424 39.3577 151.962
54.3394 200.751 187.915
107.292 26.7237 153.717
141.093 173.717 4.71464
154.589 151.21 110.008
154.101 122.865 126.903
37.9783 79.8096 156.382
116.913 144.999 39.4698
16.8326 48.7977 154.58
128.17 161.852 43.0457
97.3727 108.977 68.3693
124.358 167.459 187.329
144.527 148.615 174.259
97.2786 28.2707 191.966
118.846 177.221 192.063
133.965 201.48 156.399
68.3626 124.166 61.9072
109.102 156.952 201.95
103.385 137.014 198.968
122.307 216.466 57.4364
26.42 118.452 193.828
78.2341 64.1635 157.18
43.521 87.0987 140.953
11.5482 15.5184 191.963
75.0939 162.237 213.756
37.424 106.15 190.15
88.4498 124.789 212.539
57.4058 227.156 143.071
29.657 190.563 89.3005
73.5127 225.616 172.852
126.861 187.555 181.474
36.1616 172.822 66.677
93.7777 137.592 43.3961
64.7454 132.864 54.9461
6.60398 114.42 124.937
47.1308 1.95077 96.5084
24.2413 195.336 172.051
76.707 72.0841 125.321
87.1022 172.582 209.971
75.2187 168.733 72.2868
143.885 196.413 147.878
36.5907 93.8276 107.632
72.7493 137.997 55.4302
42.2131 41.9817 113.999
32.4498 25.4783 109.042
72.4611 77.6151 101.713
82.6371 228.545 153.27
154.52 128.855 116.232
136.404 206.413 2.03103
13.1197 13.2012 128.518
86.036 21.0556 208.688
52.7278 230.973 39.5834
49.8435 77.6636 123.473
152.624 130.369 104.916
158.522 130.865 135.737
17.2569 192.97 156.372
138.586 167.359 170.368
118.661 210.868 175.153
32.0658 194.927 7.71124
115.994 197.06 72.4004
87.1436 88.8667 179.019
69.712 80.559 171.189
94.0664 177.196 207.293
87.274 41.4705 119.884
89.8804 56.2192 179.171
129.117 196.905 61.4608
134.127 201.907 114.304
53.9641 71.2662 173.768
90.1848 144.409 216.62
12.7711 26.849 187.781
84.9737 29.846 107.158
13.6825 1.63971 194.836
107.979 168.194 201.774
109.181 2.05439 132.741
77.6992 58.3545 133.646
96.2562 181.508 200.104
35.4875 88.4647 114.674
61.5737 90.1595 189.02
126.18 226.059 3.6387
146.145 123.678 101.066
24.5866 146.589 75.3169
131.158 208.177 150.761
68.7431 171.175 66.5308
140.912 203.02 122.809
48.1006 158.121 3.16351
130.579 195.617 99.4434
118.557 224.382 60.6773
6.57432 104.514 132.857
79.248 29.784 212.962
76.172 107.255 204.739
44.4587 224.767 22.9624
62.7255 167.688 212.697
117.157 104.69 78.2578
57.5134 67.1402 143.232
71.2032 179.368 75.8106
12.2655 113.024 148.981
44.0841 140.181 63.9004
72.2341 125.068 56.7
84.5308 230.747 65.4329
89.1124 229.837 149.124
80.3123 156.094 214.589
85.3559 77.3022 108.335
126.684 185.842 84.7559
82.5021 58.6289 183.083
90.5801 43.3929 128.593
98.3742 48.4996 151.547
100.504 90.626 94.951
62.2883 175.392 71.8452
80.0734 48.788 202.822
127.9 169.661 53.4929
70.1158 158.368 214.834
52.4636 86.186 133.053
78.4796 74.0912 150.242
70.1833 228.611 163.04
115.594 209.28 69.5896
117.939 87.8348 100.336
113.159 196.874 187.663
59.6265 152.34 211.286
132.253 200.093 51.4824
133.59 210.165 122.271
94.6463 167.423 210.272
119.412 222.911 127.736
32.0912 2.06535 107.033
127.108 153.354 33.2417
143.05 189.107 117.895
119.966 193.466 183.246
65.015 42.1976 109.879
47.0512 210.253 60.7059
39.137 140.091 65.4968
90.2937 228.327 140.124
78.2382 18.7127 214.626
5.14436 169.208 151.006
113.387 205.886 183.938
138.181 139.06 171.693
81.3875 198.273 79.4278
108.267 218.841 170.951
88.2617 118.713 201.798
21.3517 158.773 92.0486
85.7739 16.4154 211.711
120.52 168.482 194.649
62.1601 75.6769 127.043
83.5476 110.996 203.438
94.4972 227.11 111.485
83.128 147.758 214.397
132.446 215.042 19.2928
103.212 178.199 206.079
26.3494 159.861 197.381
13.9474 146.058 111.871
113.89 1.85548 157.637
81.3456 15.0862 101.661
90.4109 95.1442 195.413
83.1588 98.1182 191.908
117.523 97.5417 85.0523
105.324 223.408 109.945
142.309 143.041 86.7179
137.594 212.44 20.2147
133.874 165.672 1.98873
109.785 15.2582 147.015
86.9349 79.0621 125.249
77.0892 210.797 84.2917
119.739 187.118 190.091
106.812 1.30962 189.056
148.222 131.759 167.138
141.054 133.467 88.3265
98.6505 101.404 73.2449
151.023 120.651 116.761
92.0319 224.067 173.272
47.82 214.749 1.32682
130.532 140.012 80.8851
112.604 173.925 198.482
71.4251 79.7272 156.852
89.994 8.03345 213.406
106.479 106.702 71.4072
13.4721 140.8 151.049
73.1153 64.8794 144.197
106.85 140.513 43.7922
55.9708 229.157 1.8806
100.56 223.889 168.195
21.8064 122.903 187.095
101.358 228.106 121.078
68.2709 68.0657 160.804
145.017 111.159 113.994
56.8273 193.264 33.0451
36.4939 34.1045 112.811
119.245 229.461 49.7525
17.1289 132.789 109.609
8.73647 122.217 18.4359
144.823 155.335 87.0051
104.968 220.88 69.6337
104.384 99.3252 190.651
21.3308 106.84 190.349
107.387 80.4359 112.865
126.928 228.568 42.2689
84.4304 101.752 200.352
112.347 223.847 120.139
87.0672 70.838 134.655
136.498 207.606 143.864
107.545 226.1 163.081
74.9099 1.46742 218.486
105.457 204.107 190.672
91.0119 120.006 63.9724
102.271 86.9581 105.9
126.954 210.81 136.646
83.3057 120.559 59.3337
105.773 28.0992 145.083
124.249 205.706 55.9579
75.3842 100.5 205.057
146.139 127.529 94.376
148.937 118.033 107.176
72.6338 47.0943 116.915
46.2302 59.836 129.677
29.2993 161.652 77.6712
87.9542 197.746 200.18
88.7143 175.698 76.3595
148.853 112.213 122.024
33.2611 116.438 193.63
124.07 131.077 182.994
29.5333 121.139 188.96
76.901 84.4382 160.336
82.8409 189.374 81.2114
70.5972 112.596 74.4419
70.2036 230.989 144.092
48.3891 96.1864 187.1
125.135 155.878 188.349
139.965 187.523 100.494
127.207 230.048 18.7493
108.289 228.473 62.9735
95.3917 197.286 79.1325
44.3412 99.3857 188.748
72.189 88.0329 105.913
131.46 211.568 160.222
82.9478 155.838 62.3916
38.0373 23.4992 104.335
82.607 35.3471 204.716
97.902 115.991 204.053
22.6527 8.79639 114.636
131.732 156.258 11.0469
100.683 168.619 206.499
36.559 53.5899 130.03
115.481 111.543 73.5447
15.1235 110.255 144.714
32.4666 157.526 74.6256
147.277 143.355 92.1752
51.5891 231.354 9.60836
90.6175 210.379 189.544
79.3187 62.9853 169.979
157.703 124.395 137.527
138.932 172.258 90.8633
137.611 150.598 80.8987
124.876 218.741 50.3552
104.097 181.752 197.439
91.6387 140.867 1.28993
52.2855 227.558 3.99086
95.291 176.205 71.5857
102.463 123.54 207.564
20.8078 164.279 82.6057
74.9622 92.6001 185.402
117.793 169.397 77.6111
132.354 184.868 1.71676
97.3351 93.2608 79.1164
10.8333 133.06 111.014
71.8587 83.8013 111.258
57.6423 157.188 211.877
98.6313 210.015 187.516
39.6749 89.4657 135.615
112.707 228.623 53.6635
76.9849 185.865 208.62
152.374 111.594 132.482
20.6254 203.14 152.924
127.905 217.047 127.97
93.5038 124.509 203.292
56.738 153.271 1.14457
112.066 186.78 195.81
99.0885 139.019 63.4382
82.6935 136.74 53.4211
132.158 205.725 102.882
109.601 116.674 198.845
115.931 132.529 188.659
16.1337 142.826 182.346
131.653 149.296 183.286
105.428 90.7037 85.4289
130.419 182.474 56.1627
98.2737 191.389 202.903
127.701 215.908 117.4
53.5225 87.6501 152.258
97.3097 81.8793 111.996
91.5238 229.636 122.167
97.7387 4.13743 109.21
103.807 139.2 209.288
13.443 134.103 105.207
25.0595 101.387 190.553
126.951 218.687 140.921
119.07 223.92 136.863
125.413 230.994 27.1835
119.104 222.57 161.096
108.969 82.0562 102.804
145.461 106.893 141.069
102.892 160.37 210.618
82.4079 230.258 119.773
15.8857 195.157 151.334
90.0087 216.773 91.7728
78.322 40.8917 200.978
95.195 106.045 202.706
122.449 182.857 64.3464
123.058 230.796 34.9287
37.5795 94.0572 179.709
127.993 176.933 82.2008
30.2207 109.927 193.426
132.181 157.806 1.58102
42.8784 203.87 2.043
38.9972 83.9474 139.625
80.2163 91.674 95.944
11.3157 122.08 128.091
89.0753 210.293 83.6589
128.729 220.809 33.8194
120.28 201.678 177.175
137.728 120.506 97.2022
63.7963 118.574 66.6627
