ply
format ascii 1.0
comment Created by Open3D
element vertex 511
property double x
property double y
property double z
end_header
26.2386 130.368 158.324
47.7175 132.828 128.767
48.0849 142.35 136.346
46.6512 187.077 9.71359
43.0633 143.651 149.104
17.9692 137.533 126.685
39.3736 138.111 156.06
36.6146 116.867 81.3837
29.2093 151.748 155.196
17.957 110.348 104.59
18.2459 145.328 103.793
19.3974 119.095 268.392
44.606 98.8513 145.669
45.7931 152.347 133.894
34.6611 75.8826 103.558
27.3324 79.3352 74.7326
52.6666 61.056 63.7344
22.6781 74.3141 84.2093
58.3362 102.496 152.351
27.7178 162.422 111.427
19.3799 124.563 112.71
36.3863 124.896 138.6
19.2939 137.204 92.6894
30.8183 59.6402 78.5167
19.6097 131.738 121.214
45.4973 155.544 121.912
18.8277 155.66 142.132
31.1362 152.14 96.7993
58.0597 91.8789 147.287
45.9382 132.29 86.7041
38.6448 67.9585 102.743
37.6451 206.002 3.67637
23.5391 122.878 127.067
23.5544 161.609 119.614
38.3986 151.861 101.888
86.1696 79.8363 151.262
25.3527 133.948 130.31
37.6882 128.691 157.389
71.7496 99.3515 153.464
35.4523 106.33 147.332
72.6505 106.522 149.354
18.8495 145.563 113.687
81.038 85.384 148.639
53.6562 82.4421 71.4186
44.3171 125.024 138.83
41.8526 73.3473 67.2968
56.7487 94.7218 81.1577
77.9031 49.7525 98.3201
68.2679 51.4615 70.888
87.0954 47.153 82.1166
16.3746 147.954 128.104
40.5392 97.773 126.058
44.11 143.417 102.942
22.938 111.899 131.713
106.332 63.9045 147.556
66.1548 85.8346 147.917
17.7992 108.076 94.9383
47.3194 91.7989 136.765
54.7436 185.499 21.5427
29.6049 118.259 119.869
23.8247 87.441 104.351
17.179 155.861 129.808
71.1857 178.033 4.0333
46.1444 137.314 143.589
47.7898 123.827 149.253
60.0828 221.236 46.2883
49.97 93.1058 147.279
34.7344 225.115 16.267
19.9934 86.0291 90.6226
77.6529 185.627 7.5974
85.41 93.9496 151.37
65.8209 52.2533 92.1891
46.1303 150.481 143.011
70.4604 90.1751 141.622
22.5484 162.845 128.788
30.1216 167.083 133.044
110.415 57.4905 140.609
43.689 104.261 153.368
14.6431 126.544 143.693
31.9732 55.0361 84.8357
90.6781 52.4044 129.873
74.1801 46.7565 85.4687
44.8264 136.013 94.9487
38.5898 217.127 9.28901
105.902 200.127 36.2952
76.6834 106.805 85.8825
17.2295 154.203 118.334
18.9396 119.796 149.616
44.5977 128.915 152.108
15.2177 117.491 103.719
19.3438 95.7424 86.5801
33.0329 103.762 76.286
24.2513 97.4105 83.9916
115.26 73.7683 140.495
95.4263 59.7232 146.843
28.7285 116.234 78.3063
65.989 101.655 87.3903
80.1495 209.66 27.816
44.1575 100.687 76.0812
66.9972 68.9279 65.8433
61.4586 128.412 134.506
49.4085 196.688 127.708
43.0787 48.701 79.6018
14.9858 147.233 136.366
22.4447 99.5938 94.0194
24.4542 87.5298 79.1854
57.4699 98.5502 96.9747
25.8349 77.2951 106.349
85.5384 63.9481 128.324
47.7285 144.288 128.578
25.041 153.751 100.047
67.3643 53.1323 106.08
16.6453 122.857 137.693
50.6347 213.05 32.3081
55.5757 106.084 80.1974
25.0605 89.6605 87.2164
83.1768 107.927 154.883
72.3843 44.6292 75.1762
43.9485 219.705 17.1261
35.617 164.686 119.207
47.9921 127.665 112.575
48.4623 147.792 119.649
101.572 56.711 140.543
48.9178 96.2133 127.511
110.214 51.1668 131.302
37.7688 226.522 23.1628
31.1348 159.685 103.3
82.676 72.3613 146.712
24.1381 114.87 83.0761
51.7235 196.951 16.4144
31.8559 143.541 157.506
23.708 136.496 84.6154
92.4763 74.3511 145.711
71.2184 111.564 102.033
84.8614 195.905 11.686
70.856 202.164 32.9728
65.1997 109.682 144.225
24.4099 117.006 154.519
52.2195 223.539 40.5814
74.7075 210.054 38.6227
109.187 66.551 136.52
61.5532 59.9355 67.3009
57.9287 54.5808 91.3529
54.1304 45.0903 84.4085
60.7665 84.889 139.778
89.5532 221.04 8.42998
30.9547 230.185 12.1959
97.3765 58.3753 68.278
47.4887 111.111 77.1445
41.1025 199.858 10.129
73.224 58.2328 110.82
37.0212 163.724 134.843
89.833 73.1819 137.609
63.5444 97.3079 80.3208
83.4456 207.085 15.9742
28.8929 110.073 149.965
50.0616 99.3501 139.673
19.0518 118.05 87.0696
36.2223 114.897 117.527
39.9541 157.322 110.819
50.2421 72.4278 68.2111
42.5262 220.665 31.5599
109.667 62.9847 72.1419
77.6282 94.5345 147.156
45.0734 207.428 18.639
46.323 83.3238 104.704
107.218 76.0721 141.919
91.0567 49.8755 107.605
20.1819 122.867 121.42
55.8341 111.651 119.255
79.6147 50.0796 72.6644
51.8789 126.045 135.893
18.8977 114.104 113.971
88.5757 227.701 23.3206
87.5715 46.7392 116.98
42.1718 137.268 122.979
49.9188 140.436 106.771
44.2977 147.887 109.177
56.771 74.9911 131.419
20.9276 105.813 84.7934
34.7773 89.0728 110.677
32.2888 127.53 79.489
31.7201 121.768 155.11
99.2995 75.0741 147.32
37.8208 98.3042 144.298
114.083 53.6897 117.567
59.6151 199.495 22.3611
90.4923 207.472 4.45261
73.6739 74.7829 134.216
107.869 53.9591 108.202
54.7426 130.457 104.179
82.1817 73.2179 133.619
100.049 69.8047 141.038
63.8622 44.7224 88.5446
67.044 125.423 126.175
40.136 110.224 75.8749
35.3064 54.5882 93.0699
31.0053 127.088 126.052
29.2481 64.8602 97.9195
46.2847 47.9537 88.6812
79.515 56.551 105.764
61.6233 211.785 39.3931
45.4904 120.177 157.829
50.7137 69.824 99.7817
79.4503 195.688 5.03909
80.885 55.6329 138.257
101.641 101.797 151.28
15.791 121.364 258.565
16.5941 130.992 256.345
105.971 79.6602 149.58
41.5929 146.102 93.0893
75.9274 66.2402 66.6899
88.2311 60.8074 70.6247
77.5687 198.131 15.0008
58.6298 48.8309 76.7211
54.0919 184.534 9.25393
25.6069 65.2552 89.2667
44.6984 129.593 119.67
102.883 58.5906 131.837
59.785 76.3385 66.2717
51.8409 60.3881 98.3781
50.949 116.884 150.375
14.6814 132.829 133.465
72.7268 196.661 25.1105
60.3059 68.667 100.892
94.1456 49.2622 76.1368
67.434 104.897 152.837
49.7127 47.3234 73.4912
78.5395 71.1752 126.302
22.0123 106.295 115.502
43.1303 54.9944 69.372
48.1344 93.2422 73.8629
79.3666 87.6537 78.312
46.3388 87.7499 70.4644
39.2143 117.983 125.626
57.9193 136.3 134.112
27.6505 103.965 80.4533
60.1993 87.8235 75.6577
64.1077 116.311 95.8672
59.4365 203.775 31.3318
44.9606 70.6234 114.483
41.087 158.288 145.401
15.6766 137.148 114.977
53.8575 198.049 26.9512
67.0089 69.6651 128.788
34.722 66.076 69.2621
70.864 93.2013 77.1691
47.2557 126.055 95.8967
33.6297 221.8 222.106
74.9814 50.7247 113.89
60.0712 65.1136 107.754
15.5928 115.687 91.0952
39.3189 119.617 150.223
34.5969 228.431 5.27173
13.7137 144.5 118.73
120.108 200.92 118.887
84.3879 219.435 23.4013
41.6505 88.7402 113.001
44.3323 229.634 40.1668
99.2393 83.4574 152.691
117.284 55.8563 105.69
42.7641 58.5937 98.5841
81.2494 110.71 103.6
52.7251 52.7382 68.7923
10.8687 173.167 42.1824
27.2476 96.6348 113.891
36.8943 91.8076 71.7746
69.5468 57.6731 97.595
48.5128 120.8 84.0505
37.3884 230.518 32.0184
85.5958 59.4479 116.765
123.877 61.3819 98.6621
7.80606 38.2261 171.129
21.1929 141.555 153.232
88.5669 97.4077 157.688
72.0995 66.1518 119.403
35.4851 78.5277 70.7216
116.242 180.64 119.83
74.8579 68.0916 110.186
85.4444 116.301 115.489
57.448 113.742 89.2628
136.393 168.33 131.099
84.5709 224.115 39.5548
70.6077 109.807 93.6574
74.9187 118.847 134.628
56.3806 126.703 144.426
19.2048 8.77851 4.22889
20.2431 84.3292 96.8391
56.3419 112.457 155.741
21.2232 152.243 104.73
70.8012 59.7681 66.1634
30.2118 92.5049 77.7353
115.239 61.2313 129.972
69.6689 65.6393 134.827
63.6434 49.4544 80.0751
37.7229 172.026 170.001
59.5453 118.052 136.624
19.6629 99.4177 99.5027
17.3346 119.189 132.026
17.2266 148.438 146.583
90.2755 60.296 121.352
66.9391 62.7811 109.736
60.2243 60.3451 98.4855
83.8857 111.817 146.746
26.0245 71.1767 78.5004
84.9051 82.626 69.7299
52.6181 125.592 98.5946
65.444 107.736 133.519
40.4948 113.316 152.85
48.7037 113.102 122.441
39.6892 184.822 101.321
72.1789 229.15 49.0825
46.9123 100.659 118.122
101.763 45.8876 121.562
124.442 70.9365 125.098
71.1228 85.823 74.8926
86.075 43.3683 92.7173
89.9213 227.883 6.68396
49.8976 65.7974 107.152
42.4325 124.79 83.1395
59.6302 134.697 118.552
106.393 57.3171 124.728
67.8363 5.75241 48.3039
16.691 111.108 252.272
46.8364 134.637 110.85
26.0113 103.532 109.173
56.9549 98.6206 129.714
70.106 220.209 47.3943
71.0337 77.9207 68.5669
83.8702 205.199 9.0237
58.5962 180.001 12.8737
30.3972 104.691 131.041
85.9679 63.8429 111.11
134.83 173.163 124.339
24.551 76.0718 99.1119
22.2723 107.156 141.464
54.6861 130.661 90.6909
34.7354 133.921 84.3034
94.0994 80.3479 148.408
71.0716 188.115 18.6576
119.853 67.1713 95.4281
106.589 65.3574 76.9583
64.2422 75.1057 131.225
53.3519 88.4941 134.479
45.869 118.223 117.667
100.417 98.7518 142.619
81.9881 216.337 38.6611
89.5005 71.7899 127.805
84.566 51.4942 107.119
71.0431 97.2686 83.877
64.727 123.423 113.963
17.7167 138.769 148.182
78.433 76.9616 140.657
60.4527 80.2 130.657
52.1087 61.0509 112.509
55.5797 114.784 81.7176
66.5126 113.726 123.911
79.5363 92.3563 83.9141
79.17 103.256 140.301
38.7216 186.313 2.54685
79.9899 77.4463 96.1361
37.0479 97.2174 117.475
17.9743 135.435 105.681
116.168 58.4076 123.77
71.2716 99.0841 93.0166
68.6329 115.091 138.878
57.111 225.801 131.291
15.8685 136.934 139.057
59.8046 123.792 105.703
34.8583 140.61 90.6489
16.6305 123.602 96.3111
13.6305 129.493 105.09
87.6125 70.807 106.569
85.9864 76.2855 72.8157
115.411 58.657 80.6624
59.2319 69.887 114.253
42.4741 230.085 5.73028
79.1536 158.671 135.668
64.205 111.213 87.83
104.873 174.179 223.522
90.1799 78.0769 104.985
19.7537 105.366 243.136
61.3152 71.7345 123.238
68.3358 199.633 225.306
99.635 47.469 108.015
48.3059 75.8081 109.031
53.4184 108.849 105.253
56.6289 119.02 111.755
86.1893 91.8261 79.5772
96.3981 58.1921 124.868
99.8679 49.3151 96.0302
49.4886 136.933 193.805
76.9041 87.2333 94.1389
80.81 57.4659 132.018
96.4927 73.1244 69.4771
96.8687 63.708 132.666
91.266 50.7721 97.4469
58.3753 95.6162 141.803
117.819 78.5598 134.022
12.1079 230.916 91.7169
89.6266 93.2255 135.719
94.6022 59.5523 114.682
119.151 62.1102 87.2688
101.236 56.2014 118.949
108.576 52.3373 80.0592
46.6113 224.025 26.9498
93.0064 224.678 14.7054
77.2957 58.2053 70.6099
83.797 99.8309 80.4116
49.8025 50.1792 93.3621
37.51 221.974 56.886
10.751 195.235 51.7202
91.7992 117.06 121.442
42.0271 159.082 133.949
84.1778 106.501 134.735
113.661 96.5144 138.823
111.885 87.9993 141.073
39.6843 122.733 117.094
62.3419 105.471 128.56
42.5161 224.722 2.11683
88.9877 51.0028 119.157
79.1542 52.5333 122.774
5.94044 84.8606 147.653
81.6714 102.908 89.2554
94.9065 100.493 126.93
54.8102 126.085 116.485
62.3972 98.2833 72.4381
65.5658 116.773 113.995
21.4014 100.228 104.982
43.0132 93.9292 117.64
5.20297 176.143 132.736
35.623 97.6819 133.21
73.6238 93.617 87.9131
49.3485 96.0819 105.463
92.1679 122.681 15.0781
59.9823 180.074 76.9367
57.7018 91.0456 130.315
117.828 68.0795 80.501
39.8363 128.571 130.85
5.85943 226.897 98.7502
138.281 169.86 236.633
75.5262 119.739 122.126
83.4947 204.064 1.59973
80.8087 70.7912 118.891
82.6471 131.827 182.346
138.279 180.126 127.407
120.81 89.3771 129.199
79.3069 97.6003 93.8104
123.86 65.0418 117.744
94.0554 94.0805 83.8996
78.0284 110.607 131.564
85.8245 115.071 136.04
23.7626 69.7523 147.542
132.373 205.12 124.475
78.5368 167.135 108.243
80.1846 61.4768 114.037
55.551 217.62 193.145
52.9072 221.57 134.991
58.6896 120.438 148.649
105.311 54.0743 95.8937
92.5977 64.9893 139.028
17.0123 8.42677 10.7386
89.8429 110.648 128.455
60.6502 81.391 95.6092
73.848 139.616 207.375
34.454 198.664 220.884
121.273 73.8991 112.37
57.3258 106.459 130.576
100.42 85.1546 164.862
101.496 46.3368 89.4407
115.855 71.204 130.76
117.006 55.3392 95.7164
120.665 180.81 39.3892
119.456 212.913 112.459
29.3251 101.798 118.711
69.3993 81.1764 147.785
75.7145 84.6143 136.461
68.2824 226.493 172.035
96.421 88.0677 94.7613
75.1909 119.315 110.95
123.26 201.203 78.1389
89.0724 95.261 98.8699
120.389 76.3903 122.817
88.3493 67.9286 70.5457
59.2639 119.056 95.7446
103.504 109.13 122.843
98.3521 92.4144 77.2862
68.9053 221.169 166.418
122.157 74.5678 92.61
94.3463 115.952 142.128
10.3918 197.632 39.8882
123.734 61.7373 107.203
138.967 163.511 236.629
59.7764 231.512 49.1659
19.9515 193.684 168.121
23.7082 118.016 114.327
78.8178 125.46 155.629
59.9442 222.558 13.9751
37.2287 167.152 173.356
131.324 169.814 125.063
52.0011 132.517 192.652
49.8209 199.766 168.425
36.6466 215.975 1.19621
46.7097 183.176 0.997714
87.0462 102.942 101.29
75.0412 96.8653 116.571
124.705 69.6502 105.386
95.3321 86.0487 86.573
88.9686 84.0768 77.712
67.1351 229.723 175.252
119.098 69.2528 119.934
