ply
format ascii 1.0
comment Created by Open3D
element vertex 340
property double x
property double y
property double z
end_header
19.1927 18.61 110.066
13.3879 27.8837 94.5595
42.9069 85.8056 111.329
5.7559 123.792 144.382
63.2668 107.976 113.581
7.46165 164.857 145.971
35.5617 79.3768 120.534
45.2316 152.614 92.6502
38.6236 83.9948 143.812
52.146 97.2803 104.159
36.5248 87.2612 104.162
7.18112 150.048 160.321
6.13866 112.928 143.018
63.7033 123.496 105.818
12.1922 145.4 152.792
25.0219 88.7959 153.25
29.8419 82.875 110.109
5.60921 117.27 159.962
46.1887 83.2027 120.595
41.729 81.2617 133.65
30.6213 154.179 92.699
46.3149 99.1041 97.8883
24.6919 16.9436 103.071
50.6888 216.422 181.451
19.3634 26.3331 104.536
4.02565 140.898 138.676
16.0013 107.988 166.344
52.7906 89.5759 110.849
13.3111 175.506 144.715
27.2559 23.6709 68.5341
58.1153 108.681 102.4
21.6956 173.984 155.75
38.0496 107.867 169.042
17.2594 151.469 248.344
7.86477 171.897 249.187
58.1743 168.185 113.023
20.7266 159.584 97.7046
56.277 130.047 173.183
5.19464 131.964 134.167
46.4007 116.19 86.7367
22.5587 8.8334 112.373
47.4884 213.427 170.347
62.9511 116.207 152.545
4.37142 108.373 117.151
26.4903 158.694 173.943
5.50289 109.831 162.56
51.7053 134.911 178.045
44.052 142.293 200.149
5.62551 97.5115 142.534
4.44162 116.149 109.388
31.5287 3.18976 108.712
54.7475 175.35 121.691
14.482 110.815 157.049
4.56167 101.804 126.073
70.7954 114.79 111.676
44.9002 12.7691 95.8013
7.93546 115.446 152.023
67.1642 110.487 128.286
7.35545 172.885 140.853
28.97 179.052 152.459
33.1496 79.2032 137.718
37.4759 35.6014 83.6791
42.3377 179.496 233.858
42.3422 184.53 228.092
42.5207 23.3688 104.333
26.0013 35.3163 77.6604
15.1544 156.76 161.865
7.80851 148.101 171.992
8.67832 171.216 116.437
42.1414 123.193 184.303
33.8144 163.886 167.316
8.7599 141.002 178.383
4.67877 162.113 130.729
10.0507 165.209 107.911
36.1927 147.227 89.841
12.897 176.949 124.801
37.7361 28.5212 108.408
49.2193 127.148 179.917
37.2485 98.3344 95.8562
46.9396 141.295 185.355
10.0982 152.648 232.513
56.609 141.108 175.385
14.8499 157.626 223.811
33.8783 118.082 87.626
26.4316 127.498 87.9228
4.50012 153.517 139.1
58.2073 97.5768 125.593
74.5043 143.119 151.25
41.1458 161.079 94.8333
4.55972 163.279 120.366
25.9321 172.142 162.311
25.9482 78.1048 128.027
45.3498 211.122 185.297
8.72341 114.311 166.749
29.2635 184.615 134.463
54.6613 110.711 95.1788
66.6183 132.762 110.345
30.6529 28.0881 111.613
57.3236 159.781 102.835
13.7379 171.411 110.751
7.57546 129.593 102.034
29.5703 103.395 159.625
67.1842 154.06 115.882
66.8937 119.511 136.237
14.103 177.959 132.544
5.16481 158.631 151.389
20.4538 175.286 112.884
7.60942 48.7557 3.10253
57.3325 203.751 176.091
43.7756 27.1181 96.1502
17.9265 179.469 147.367
55.4162 120.503 171.508
39.7054 172.055 159.3
65.106 114.501 105.541
63.2338 157.953 109.972
48.603 127.75 165.599
112.751 183.184 249.584
71.5905 137.57 123.552
71.1007 138.733 111.34
61.9681 144.65 169.093
14.358 146.062 96.4278
75.7683 149.152 138.908
7.91874 94.843 120.549
22.8258 185.229 126.912
10.3307 89.48 141.901
23.3607 168.672 101.992
73.1411 131.698 109.799
38.0933 106.907 161.072
55.5903 169.72 153.831
47.019 89.1874 145.303
71.185 149.919 153.301
49.8948 165.699 162.177
66.5147 109.265 121.54
19.2193 165.541 164.295
6.29523 137.13 150.943
61.4929 141.414 105.477
6.48501 155.085 106.167
47.7668 150.379 181.104
3.40732 141.379 111.145
42.6619 121.111 159.596
58.0959 159.359 165.698
5.46418 169.943 124.867
69.8718 120.03 103.793
14.2444 153.061 172.527
53.6942 177.286 131.321
19.2918 149.932 238.312
44.9761 4.92303 89.3906
73.4278 140.606 130.714
84.9663 119.421 140.554
31.0596 167.759 98.434
57.0303 95.7201 115.186
56.6668 120.66 94.3218
12.053 17.5645 99.4477
51.1707 121.557 158.381
61.9305 135.459 171.528
55.243 89.3764 128.499
6.21293 141.499 103.794
14.1733 170.971 155.187
50.4098 142.382 162.936
9.38521 120.913 100.579
62.5922 125.657 97.6981
41.2816 27.5262 85.3966
22.5526 161.538 242.679
22.5228 154.319 160.309
70.7782 126.004 128.974
8.8638 172.314 130.645
25.6183 98.3597 97.1256
28.555 177.422 107.341
52.8729 142.201 180.527
73.2414 147.325 123.404
58.6499 136.894 164.217
33.8807 15.614 105.086
12.6656 109.185 98.644
49.9729 83.5837 129.728
57.389 140.206 93.8678
8.55536 129.637 179.207
61.7274 104.513 124.61
50.837 127.842 89.8642
9.09237 12.9295 88.8212
34.4633 121.077 155.811
48.3296 134.431 161.188
69.8785 132.132 168.045
54.0683 153.317 98.9517
75.5266 119.347 130.897
23.9878 89.9125 105.181
55.6418 96.7751 142.344
63.0223 168.764 138.553
24.9803 2.89845 108.721
42.1053 155.181 179.11
45.4146 15.2849 103.592
63.9384 103.118 158.826
33.7086 110.294 175.739
67.7094 109.573 160.244
5.81606 161.74 112.981
63.9188 163.109 116.322
73.6169 156.613 144.408
7.62044 108.104 107.588
27.2785 182 117.236
85.5882 117.901 160.642
26.0242 163.841 165.871
32.7811 102.502 164.985
48.5052 116.802 165.786
31.241 135.069 87.212
16.4516 177.588 232.176
65.0896 165.14 133.226
57.9514 171.197 145.287
5.19519 102.139 161.293
58.9266 147.778 97.1172
88.0519 52.2056 79.3368
39.4702 15.6814 111.774
69.3724 134.551 145.638
16.813 84.3271 121.141
64.6834 133.207 100.48
19.6372 172.672 249.713
50.5785 108.474 163.501
8.09133 122.885 155.151
36.851 89.528 151.473
25.1159 78.3714 139.588
40.6291 132.35 85.886
61.1339 167.944 123.77
62.111 149.334 164.563
4.89794 161.181 233.558
3.88247 127.993 112.532
69.8054 157.505 125.109
45.6124 105.964 159.171
24.4898 112.354 155.717
17.2173 141.118 95.2077
14.7142 99.5742 153.981
47.5985 143.228 92.1916
17.4351 30.0463 78.2811
12.0426 103.047 223.135
4.07547 137.845 170.839
40.7897 97.1293 153.418
12.9129 228.464 3.14878
23.8639 141.083 187.352
38.9679 181.083 148.843
6.63664 94.7961 234.303
13.0164 162.888 248.078
26.1608 108.353 175
55.6719 103.904 158.728
19.2365 167.441 233.042
20.2614 155.016 176.961
68.4989 117.531 130.123
40.1169 184.174 131.203
68.0489 125.786 119.699
75.0985 105.376 156.821
47.2748 112.282 168.834
68.7975 135.231 159.039
51.1367 169.612 104.647
3.59946 130.086 121.827
59.5429 162.775 159.583
5.26864 146.413 150.438
81.3769 125.093 132.574
6.90938 96.4946 152.388
72.8167 112.42 131.501
36.601 183.055 119.079
64.1113 116.881 168.953
12.2101 149.64 240.683
85.6909 110.764 146.555
44.0897 140.551 88.3631
67.6759 144.871 106.141
60.2898 171.161 130.221
64.8771 138.117 165.317
78.6623 141.787 137.229
49.5551 149.505 169.365
40.0837 170.79 100.842
24.3116 104.705 165.363
43.9462 1.97797 83.1963
5.6417 215.65 6.83426
70.8428 145.649 161.718
3.77098 153.048 118.507
18.894 97.5179 100.872
50.53 86.9911 137.387
43.1938 156.171 166.824
14.5346 24.2955 76.352
80.7507 138.909 154.597
62.3345 110.563 165.601
57.6054 93.8997 135.43
13.1072 164.033 158.044
27.1291 166.261 247.647
21.9672 184.075 137.12
9.12991 88.3207 132.278
12.5376 167.224 222.205
33.9811 6.36578 113.864
77.4048 145.576 144.259
32.1372 27.3951 90.2467
9.97888 160.74 155.872
20.346 105.113 159.706
66.3967 101.831 121.463
45.1125 179.128 115.44
72.0917 147.228 116.912
5.31002 113.322 130.574
18.9389 83.8031 145.286
53.1871 97.4361 149.875
59.2609 126.44 164.049
71.4505 151.819 163.768
15.6082 96.2535 159.462
51.7546 160.654 169.94
68.3204 130.896 139.043
35.589 144.993 188.483
49.9271 173.727 151.667
12.0242 134.706 96.1638
66.753 115.986 144.194
71.9684 106.394 130.31
63.304 150.226 103.209
25.552 112.628 90.0526
69.6553 163.318 148.92
26.0433 229.954 2.84918
46.3294 182.163 138.043
14.2313 92.825 108.694
66.5869 156.489 135.807
64.0495 165.051 144.801
47.1935 137.922 193.089
19.7876 119.855 91.7873
88.8362 122.975 151.623
54.0053 150.61 163.261
79.1827 107.761 151.129
26.8412 169.168 27.5115
7.9993 85.8402 161.452
5.8872 127.756 73.1665
73.2789 117.454 156.841
45.521 159.919 173.439
81.3856 117.389 132.192
7.25356 57.8593 5.95128
12.8457 3.03259 88.8584
83.933 139.214 135.768
16.1944 167.119 227.441
54.0273 221.44 167.071
53.1595 134.8 92.7355
87.5501 113.553 154.553
13.8678 84.8806 158.817
67.8069 125.094 165.667
18.5531 177.461 245.264
18.2906 1.0194 105.98
80.4571 136.075 145.787
53.225 106.15 152.35
55.0505 118.493 201.889
66.3897 156.426 148.591
72.1506 126.527 159.652
8.29598 100.118 222.854
