ply
format ascii 1.0
comment Created by Open3D
element vertex 1042
property double x
property double y
property double z
end_header
39.7307 83.1631 168.198
40.8006 190.106 157.028
14.9466 158.148 92.4413
33.6275 102.414 161.207
40.703 111.921 89.1942
45.9107 78.6323 162.642
54.6283 83.7801 125.923
7.80165 186.711 95.4493
14.2418 123.151 88.4456
18.273 182.687 130.184
18.1783 170.677 99.9489
13.484 180.662 101.723
34.0143 195.009 154.503
28.5157 103.787 135.269
12.9783 114.195 170.176
23.0909 216.851 184.418
9.2579 76.7635 18.3018
57.9143 78.1259 180.516
11.2977 159.765 158.16
20.9541 102.325 140.583
6.14947 136.351 154.335
49.5509 92.7408 153.873
33.3423 205.164 116.276
24.3517 153.629 104.584
17.1958 117.291 84.8757
67.3866 88.0085 116.903
13.2264 129.645 132.184
50.7076 163.53 115.092
75.3506 80.1872 158.042
47.3041 227.355 94.6509
45.612 86.926 135.101
23.8197 222.001 200.575
6.92567 185.975 108.48
16.7723 166.302 134.924
8.25867 69.4766 2.56157
13.8015 135.561 88.1422
40.1051 196.48 98.7924
31.1332 111.055 128.047
6.41007 124.046 102.344
14.5945 186.601 86.8133
12.7542 183.362 123.408
32.332 222.165 203.953
29.0436 158.917 163.891
44.7354 92.4094 119.019
35.9624 100.459 179.068
20.3849 143.303 97.0837
51.1988 113.484 104.764
66.1109 69.9896 155.597
50.6013 84.5154 174.102
42.4763 134.262 101.333
44.1833 198.201 154.585
5.93048 141.78 167.745
36.1644 128.569 164.609
9.79208 131.806 109.825
42.763 179.044 138.759
62.5742 81.4843 176.564
9.66859 145.376 128.68
37.6865 92.8724 165.818
32.0885 116.343 137.491
45.1743 172.552 128.735
27.4183 158.266 89.7667
37.1146 180.002 169.111
21.2572 150.984 119.649
44.0695 159.525 84.926
7.35374 132.83 168.177
59.2428 72.7809 172.491
15.8739 164.244 169.857
39.7322 197.077 109.275
28.9642 99.4293 129.837
34.6924 111.341 141.355
9.88194 129.651 116.903
24.3745 135.543 182.517
62.8615 102.86 106.437
55.4109 86.8339 181.86
15.9443 109.664 141.541
34.4719 199.339 129.474
24.3785 208.453 120.275
41.0244 228.637 180.477
21.0075 174.253 121.22
13.0781 107.9 151.551
41.7262 84.5485 153.073
52.1582 179.929 141.918
20.476 108.729 98.9065
44.3891 100.39 173.134
61.1994 84.8991 118.321
50.2147 227.452 73.0203
70.7181 88.8504 133.158
19.0434 126.972 134.301
27.6979 144.067 110.567
42.3672 187.525 125.28
52.9009 110.896 189.486
39.6391 103.965 112.12
65.5107 78.4722 158.837
40.4231 107.438 140.942
39.531 122.622 85.1616
16.9177 229.548 101.629
32.4301 93.5667 129.233
36.0097 145.09 177.985
5.33368 108.743 145.645
70.1287 83.3103 147.001
25.1185 114.395 126.416
33.0027 155.397 174.767
36.4909 106.351 97.1071
21.2339 113.225 118.7
31.3909 91.7195 142.751
51.2021 191.529 116.11
42.2612 205.739 125.744
25.5069 115.076 152.554
14.3885 75.393 23.73
50.4418 117.83 89.7044
9.68669 129.164 138.808
9.00626 106.967 161.929
7.05602 111.879 153.234
16.125 119.353 105.224
57.5574 88.9123 160.54
58.6831 72.7641 153.242
21.2257 183.984 90.8218
30.633 178.501 98.9555
13.2748 131.456 153.706
11.3759 225.661 189.257
62.1263 200.758 73.5899
64.3915 185.177 109.165
5.59689 151.255 171.003
59.3552 165.315 126.476
54.0037 81.8442 157.142
25.1285 187.354 157.582
19.7872 140.296 115.198
62.6127 76.9045 132.498
17.1318 158.462 173.969
34.7739 155.19 92.2644
8.17442 172.132 99.1569
12.8649 142.76 178.435
40.7433 118.366 173.396
22.5704 126.482 146.537
33.3906 108.957 112.378
63.7411 83.2629 152.781
60.4626 88.7846 169.351
14.085 138.408 169.087
30.8535 187.17 150.377
8.20156 164.45 116.137
15.0826 193.801 116.724
53.2568 192.296 163.764
43.5274 203.535 119.312
75.7206 79.408 141.938
18.0103 215.612 188.778
32.9945 208.297 86.506
39.843 143.4 140.445
57.4877 104.952 160.357
50.3595 205.478 75.6733
54.6482 177.26 118.281
20.3133 59.9332 2.62353
6.45822 176.158 118.208
10.1413 177.263 112.194
38.7132 89.7219 128.394
8.36104 136.239 144.506
13.9808 81.912 13.7697
15.0189 118.522 119.525
31.3199 196.052 117.446
32.0826 80.1724 13.3771
23.4404 155.85 179.69
23.7515 132.493 150.42
63.0551 221.638 80.7981
23.8775 130.633 170.895
36.0139 169.438 145.816
6.30196 170.217 112.907
50.6684 205.213 128.879
16.0922 105.849 166.649
67.6885 189.219 98.4254
23.0858 207.543 130.578
78.9403 82.9806 151.794
44.3557 229.655 67.1951
20.7798 218.846 87.4636
33.2549 150.212 96.8864
47.482 98.9152 149.927
19.3609 181.369 146.953
58.9404 89.7714 137.15
11.822 189.081 103.382
64.9672 92.0361 138.107
25.8924 116.514 94.7823
31.1722 121.95 165.76
25.4742 178.496 158.925
81.8871 93.3095 178.507
24.1051 168.471 148.257
32.5197 179.754 135.904
9.56138 161.633 168.754
64.9698 180.82 97.8265
19.1781 160.661 99.04
46.8159 103.809 143.681
16.7228 171.956 112.62
40.9528 99.0397 124.946
37.1326 82.4807 177.238
41.5707 157.033 139.357
10.1259 120.924 172.789
24.487 167.305 102.005
23.8179 167.212 82.7838
25.9217 56.2385 10.7411
48.8759 106.139 153.739
62.7563 181.386 165.738
14.9558 80.7526 20.2232
73.8798 84.2612 168.532
60.3371 80.058 126.946
17.9646 96.0398 157.992
47.1424 144.159 176.849
29.343 161.108 147.419
15.296 152.058 108.537
28.3634 224.305 102.661
57.7394 98.3432 142.271
24.2489 121.494 135.268
9.14579 229.916 203.114
18.932 180.519 113.338
13.7802 103.32 140.582
47.8181 160.031 128.77
32.9703 136.211 148.864
54.3855 185.616 85.9931
59.9254 108.842 140.56
33.3138 117.692 123.299
36.0853 98.8544 149.055
52.2541 222.122 70.7842
6.67206 167.399 127.065
7.67635 169.903 121.288
73.6976 84.9995 138.454
24.878 182.315 141.301
39.0591 92.5118 185.817
50.8847 88.1449 111.069
46.8852 189.194 107.507
9.04425 112.698 136.347
31.6859 196.122 138.782
27.2052 162.076 113.954
34.0735 118.739 92.0587
40.2267 90.6644 157.186
6.93765 82.4139 7.12721
25.925 206.997 138.384
14.7762 178.774 136.304
60.0009 115.481 93.7247
32.2753 145.017 153.814
26.0809 95.7634 140.652
20.3525 150.918 79.0511
68.6459 80.2986 131.043
30.0016 119.057 175.09
23.8859 193.892 114.566
29.6117 224.788 110.095
56.5331 104.697 149.047
47.5308 216.845 72.7881
24.9647 157.923 122.241
21.1908 162.167 125.388
33.5587 86.9442 152.881
40.0677 123.517 98.6164
18.5234 157.551 157.668
9.50674 127.068 160.2
28.3015 155.789 81.3254
28.9062 215.318 191.84
48.6378 75.8363 155.275
46.1369 122.406 150.566
12.6421 114.116 101.987
21.707 229.802 171.343
33.5673 110.588 104.603
53.5084 177.159 126.759
48.5404 104.376 165.136
41.498 220.46 72.0572
16.6543 128.533 121.448
49.179 193.832 101.295
38.1622 168.879 166.571
38.4612 141.973 171.222
74.2164 73.5575 163.759
66.6967 108.96 101.565
37.1824 145.338 86.0499
84.3191 70.2181 155.739
34.3681 129.41 176.634
35.6235 187.128 168.552
21.1263 123.281 160.702
41.9507 101.449 185.379
5.51627 126.687 149.036
42.8847 208.428 110.883
15.5836 108.95 174.268
31.466 109.863 92.5554
9.18927 133.802 98.9432
64.6723 94.415 173.525
56.4831 84.3847 152.632
20.3182 222.913 175.961
38.0621 200.527 145.203
61.1731 112.628 190.22
41.6251 155.189 129.772
62.3968 228.404 77.002
38.661 102.276 132.527
30.0418 110.977 149.91
23.552 168.483 110.354
30.5493 172.467 162.811
49.2232 142.444 88.3677
54.5745 125.701 176.956
47.8537 84.4415 120.447
18.3271 118.729 174.66
21.315 212.037 196.837
56.906 109.895 173.44
60.1573 71.3645 166.586
20.3603 148.953 150.742
59.0703 125.162 160.612
18.1497 109.482 129.487
39.0216 163.641 145.751
40.525 140.043 82.8172
57.2072 89.9103 109.833
26.6354 138.371 81.64
28.5424 111.324 116.736
40.7534 139.084 183.707
44.3865 213.983 94.7419
40.9132 227.016 203.764
5.46677 179.511 104.616
10.1103 111.515 143.484
49.9602 108.546 182.327
37.1445 92.1464 139.376
41.8038 172.319 121.891
36.702 172.705 130.14
72.9617 173.007 102.855
60.4024 69.8651 140.153
32.4614 111.466 165.098
20.8811 121.422 149.121
26.5504 101.549 160.846
52.31 176.955 176.323
71.727 186.625 102.254
41.4164 175.887 103.942
39.002 129.196 158.709
35.3713 166.289 118.653
57.013 94.3405 186.24
12.9208 120.991 158.047
49.5451 151.219 88.4736
30.2475 170.633 94.7627
29.4662 173.252 140.461
17.2433 114.197 128.401
38.8268 192.264 127.81
23.4081 139.649 104.102
25.1681 121.934 144.334
69.3052 75.5409 136.602
34.4923 133.407 142.931
41.3521 125.199 173.645
7.76467 186.442 119.42
26.3229 222.806 74.7595
46.519 77.6669 174.832
30.4353 210.485 99.9161
24.4866 100.7 151.318
19.8824 163.35 76.4704
43.0829 190.789 166.517
31.2319 149.689 158.8
71.7277 83.1026 153.685
48.5876 111.338 92.7409
52.1743 198.269 75.8669
38.668 149.287 146.266
50.5052 175.958 168.062
35.2685 122.221 180.236
44.5594 211.654 78.0683
61.8865 203.316 127.319
12.7044 178.971 88.9413
69.7929 172.568 172.332
47.1453 115.09 152.608
45.3646 86.6776 180.43
61.8469 191.749 137.509
36.5721 100.159 154.923
71.497 100.823 136.135
77.9912 70.57 160.421
10.4314 148.79 174.912
27.2399 222.985 180.23
45.2786 179.427 173.555
61.3584 198.505 142.837
90.5405 91.3373 163.449
42.3969 150.687 83.7535
44.0223 118.304 103.812
30.5681 144.227 181.364
25.29 164.07 139.579
54.1313 212.502 77.2184
23.2346 86.3665 6.78208
8.76037 174.316 83.5871
23.2552 193.777 100.629
40.0706 121.28 148.769
65.0183 194.258 74.5824
20.0197 184.594 124.208
8.00888 226.007 182.324
17.9401 115.533 147.993
38.7746 217.441 192.144
15.9621 196.504 101.605
30.2215 180.233 167.127
41.8863 99.9106 139.721
48.1577 188.757 83.9177
25.4105 134.111 121.963
17.6756 160.539 120.212
18.3113 138.51 161.98
51.2453 162.612 93.6557
20.3206 101.739 131.774
29.4815 222.492 174.918
15.1094 126.961 176.602
21.2192 132.041 85.9933
110.699 144.481 180.841
28.7852 59.4484 4.57403
41.8257 172.406 140.698
59.0241 173.087 122.801
31.314 165.168 80.3218
4.99919 116.715 160.672
35.9628 154.798 165.679
55.2078 197.36 128.489
52.2359 81.1078 183.856
12.9577 221.685 176.875
6.33648 177.157 92.595
61.7554 138.706 173.383
31.4196 119.174 131.615
17.5327 188.623 103.054
27.0754 160.712 75.4131
43.3722 109.789 106.931
7.43425 120.778 109.027
25.8765 140.032 117.568
40.0233 125.054 119.731
19.308 114.819 136.723
11.3076 185.022 114.613
10.3122 146.237 93.7628
56.3898 75.4331 143.389
15.1674 186.648 136.851
13.8154 108.302 104.683
29.5784 230.187 174.39
46.6855 185.948 158.356
70.0971 106.976 133.58
27.3392 113.823 101.453
48.3235 178.259 116.348
13.96 200.169 136.364
27.7185 127.276 96.1466
77.1779 81.5259 180.372
47.0305 101.829 103.364
50.5347 194.234 141.043
55.9367 181.997 111.856
55.8802 210.656 89.1977
16.1312 133.658 140.982
21.892 98.1522 145.236
24.1087 129.383 129.504
10.8874 229.182 195.101
48.5315 198.246 96.3638
6.92257 64.5237 9.45053
12.6125 160.137 82.0391
37.2594 212.232 103.525
35.9045 133.927 155.116
51.8671 73.3066 163.363
36.6453 159.83 80.9162
45.4567 134.559 180.861
52.5828 72.6587 172.147
25.3042 223.642 86.3695
83.1051 111.411 166.732
31.9271 171.595 156.236
35.5737 100.219 169.483
65.0179 74.2599 142.527
42.117 110.698 100.019
68.4784 144.111 135.049
14.1575 164.622 125.161
21.7907 173.048 138.706
56.912 97.6936 168.501
21.2253 229.801 183.882
9.80233 153.682 103.648
31.1268 149.626 134.242
63.4077 145.439 90.9105
30.646 176.257 152.097
29.8039 101.174 152.397
51.5248 199.546 106.858
27.371 165.152 130.288
68.0934 84.7767 178.146
39.7559 112.551 166.221
56.0756 106.714 103.093
27.9685 199.49 133.328
9.29432 59.0916 14.2773
34.8476 97.8888 114.749
12.2566 135.961 178.849
17.4333 168.068 93.0022
25.1522 210.491 89.8853
49.1095 157.698 100.129
14.3006 169.273 79.6264
43.3541 173.461 111.493
11.3537 144.521 151.532
35.5291 59.7798 196.364
11.0129 145.786 103.325
74.2443 182.642 161.432
108.337 134.351 184.135
24.7341 113.276 172.983
39.9082 166.095 91.2523
58.9576 178.806 104.827
32.2821 137.917 97.8052
34.4222 115.769 173.133
30.3757 142.514 145.236
37.3737 140.121 112.115
53.422 99.8076 179.127
26.5154 203.114 109.363
19.8754 230.879 79.2139
37.5103 218.562 107.057
18.8134 228.489 207.039
13.47 129.838 93.7653
51.4347 109.938 140.418
20.3198 133.775 177.726
56.744 203.825 119.131
60.2682 97.3976 119.294
5.21607 124.917 91.7832
26.8939 225.676 208.155
6.76586 166.291 105.386
46.6556 191.051 147.936
30.1037 227.083 189.45
58.5371 194.397 89.0271
35.6074 164.083 84.7624
62.2471 73.8897 181.398
4.82613 133.878 138.141
59.1717 156.807 169.782
88.9878 94.3079 175.048
47.1489 152.682 144.814
29.0786 157.516 136.878
45.3755 171.776 95.2148
30.7066 229.814 113.75
29.4154 79.4331 5.17867
7.19037 145.587 159.135
27.7463 138.169 126.939
31.209 85.2359 175.68
52.9338 145.6 174.342
26.5806 119.862 160.037
65.7344 199.193 111.895
12.3715 121.656 134.829
29.8508 93.7314 155.273
32.8142 67.0648 8.13489
35.8474 86.738 159.459
36.0146 124.226 135.785
18.9527 220.683 96.9197
31.1443 176.342 108.905
23.9839 202.512 101.963
31.9535 100.57 122.009
57.7447 126.099 90.4405
42.9579 144.467 96.2774
61.2381 183.077 156.155
10.5442 155.675 114.242
3.91296 132.45 105.183
34.7418 171.639 81.575
24.0142 143.216 152.748
36.1224 208.959 112.065
14.9935 205.297 129.097
10.2822 160.021 120.673
52.6857 109.256 95.9537
57.7637 92.3799 177.421
23.3399 194.856 92.8693
13.1946 145.291 114.783
16.9205 230.92 199.53
25.4147 183.366 99.6485
51.5043 104.264 122.005
40.876 129.952 88.2794
45.8662 166.69 145.312
46.9431 169.147 133.517
17.0967 133.277 105.387
40.3155 88.2353 122.798
27.778 151.21 140.608
28.932 123.677 181.684
15.0072 222.465 203.08
12.1241 120.431 114.146
47.5605 84.4362 114.941
30.0286 170.108 117.254
67.5646 90.1747 185.507
49.6772 106.974 173.831
22.4345 159.401 163.202
29.5495 188.816 136.844
15.6834 55.7133 16.1244
72.655 75.6868 168.313
49.9507 85.5939 148.829
23.1256 159.354 82.6956
11.6171 119.554 95.8278
65.3044 92.362 129.332
28.3451 158.694 131.875
18.6258 145.094 182.947
7.05694 141.586 105.631
50.9466 178.902 97.6968
60.9158 102.523 187.914
64.4235 147.563 175.753
75.1556 98.7242 128.62
26.4569 215.267 93.7507
47.9144 209.291 87.2783
57.6284 96.8068 152.923
40.1638 86.2954 139.075
53.2754 202.203 141.868
35.2021 124.122 128.345
19.0838 140.318 147.817
30.254 127.515 82.7665
43.7366 199.837 140.859
44.9686 193.466 91.6661
61.3185 150.736 144.061
37.3457 223.974 70.312
22.6963 175.584 77.9435
34.5744 124.935 155.372
43.6511 186.394 117.369
50.6873 175.059 85.7447
32.6261 120.142 147.349
58.6933 164.52 101.083
53.7333 94.3992 119.273
38.9893 189.325 105.004
44.5464 178.838 82.9212
27.3714 220.509 98.8701
70.7779 90.9994 176.737
19.5896 205.916 137.728
44.5599 161.618 93.9114
36.5658 105.78 127.827
63.1526 173.319 103.346
36.8872 223.49 195.786
64.6853 164.499 100.855
6.63321 113.083 96.0029
72.5238 77.8678 176.137
40.9862 101.52 119.969
66.5033 96.3352 115.528
43.5371 119.622 93.4178
34.0652 182.732 143.525
7.27738 153.073 92.2723
13.2029 168.021 128.957
26.8739 85.6904 16.1037
28.8973 153.111 153.202
13.786 220.584 196.4
10.4545 216.757 188.879
26.279 156.691 171.816
37.2732 174.389 166.528
39.784 115.854 109.535
65.7306 86.9217 166.287
32.9786 188.379 110.007
48.8578 145.145 167.868
61.6247 116.752 103.198
41.0104 225.232 94.7996
53.4767 109.366 117.444
25.7988 109.258 94.3452
42.0287 145.6 158.765
55.2668 115.468 145.822
48.3455 83.26 155.874
65.3436 112.354 139.981
5.44798 117.527 144.129
39.3683 101.301 100.562
46.0167 185.355 137.232
59.1452 87.5045 147.187
63.2204 202.407 108.421
27.759 130.939 177.852
32.0823 215.63 74.6244
28.0216 215.067 82.7437
68.1624 75.471 180.611
40.3354 184.86 144.818
40.9382 230.52 115.779
32.2532 86.2966 167.992
19.1676 138.09 83.9524
66.4727 115.252 149.336
56.9415 191.508 149.954
60.7755 215.354 79.6523
28.852 148.918 83.0669
52.3761 161.815 155.734
13.3159 168.44 101.914
63.0815 123.841 176.573
45.5897 229.328 103.139
11.5819 168.666 87.1604
39.3531 186.786 132.93
48.5812 100.715 184.003
41.8643 164.401 101.608
53.2386 136.268 177.537
54.8566 99.2229 107.629
47.9756 89.0514 142.122
21.0649 99.4305 163.968
40.3043 180.996 124.508
21.1067 226.972 111.152
19.5064 186.749 116.013
19.0151 153.87 85.1061
33.5381 182.177 77.9349
19.88 182.731 98.3211
58.7603 166.045 178.271
4.7139 229.574 189.184
39.2466 209.956 86.3196
23.5185 184.914 104.29
55.3201 184.391 124.704
14.2301 176.793 124.049
63.3989 190.648 164.542
60.6878 208.091 113.565
75.0344 113.075 155.36
25.9579 203.007 120.842
38.9334 206.454 133.525
13.2804 194.296 125.771
71.3663 104.639 120.707
4.88191 153.747 158.331
44.1127 145.998 151.85
18.18 177.806 89.458
39.7659 110.626 121.749
20.9418 146.699 87.5097
47.5432 175.163 122.46
45.2666 149.596 104.968
15.5893 228.586 179.783
40.9755 107.893 151.233
35.8148 72.2996 12.9255
36.0178 229.907 207.504
60.6516 198.952 156.772
50.9554 115.887 181.089
29.0146 194.751 144.678
63.2929 127.57 186.719
13.8701 150.575 90.749
73.7432 127.855 143.436
50.3599 189.01 152.82
27.6203 187.505 89.6133
28.7114 167.696 135.721
12.1992 162.675 102.879
62.2686 200.361 132.195
10.1079 122.738 166.906
33.7711 108.796 118.496
75.6784 92.7017 181.552
56.2235 171.932 97.2919
37.6289 171.476 103.157
60.8563 90.3507 124.669
24.2508 149.549 110.962
20.3466 110.699 171.497
52.7422 197.534 70.8464
59.5305 144.485 157.403
47.5608 206.92 134.843
29.5808 188.405 163.622
50.8427 80.3615 150.61
23.9898 113.966 88.5804
55.4725 221.255 76.6514
33.9469 154.944 123.731
6.97826 122.304 138.199
48.9573 166.181 170.187
68.7401 102.013 148.04
39.5571 182.246 84.0045
44.9399 121.474 87.1477
18.6427 149.551 175.037
13.5418 142.272 98.8654
77.7715 92.2202 134.439
47.7004 95.0843 109.635
51.7909 94.2146 163.018
33.9377 189.09 82.5005
77.0253 98.7487 174.532
41.4368 180.485 110.969
45.7176 92.4931 164.721
66.6015 75.7851 166.091
21.6944 141.109 135.738
47.0047 126.525 107.173
34.9351 167.227 125.263
62.1743 215.329 89.2069
42.7682 194.81 117.444
14.4361 231.143 93.2431
30.7397 149.207 146.811
44.9222 175.906 89.3303
13.6919 137.769 96.9773
22.6016 80.3309 1.54063
48.803 162.729 149.584
63.485 194.26 158.221
57.5874 221.115 95.4329
50.2956 206.655 120.951
34.5252 222.343 181.996
37.6527 115.064 149.355
11.4889 132.488 173.077
34.5063 160.24 110.179
60.6622 83.0754 159.865
68.2164 137.855 84.963
52.8513 72.8864 139.346
49.8584 129.484 155.982
6.71025 114.626 167.797
46.7922 132.797 152.96
65.3624 111.821 184.936
57.7995 227.038 99.8097
58.0024 178.733 171.745
51.5093 171.267 137.231
81.7415 74.6984 148.298
47.4316 88.0792 185.048
32.4484 205.684 125.105
54.4275 77.5341 130.931
58.3173 119.69 138.497
32.3765 132.704 87.5336
63.2406 116.834 178.185
23.4763 179.356 87.5655
35.247 185.779 94.4112
38.3695 134.191 119.351
23.0236 132.883 139.409
30.851 164.15 155.722
41.7503 119.251 160.918
47.8303 172.756 152.434
29.7413 222.965 195.355
23.1329 203.002 114.333
35.1867 144.466 107.016
43.1485 199.642 74.4992
54.7793 182.952 154.346
49.2418 91.4194 131.157
61.7679 191.5 79.4499
66.7703 167.21 170.682
22.9874 188.165 147.046
42.0318 114.815 139.399
38.3453 161.011 116.092
20.7631 107.607 111.073
15.8014 158.693 116.052
70.7505 193.632 82.1421
57.3251 129.852 166.964
25.5801 153.796 126.823
31.6631 218.463 103.026
24.1469 134.094 99.1692
42.308 158.23 111.319
45.2292 203.538 105.465
37.1965 133.545 179.206
39.0654 154.95 115.686
37.1584 187.851 114.267
53.1071 157.184 123.523
34.0765 137.375 161.979
46.02 215.755 108.997
28.6438 193.191 84.7138
64.0004 201.858 147.921
81.6635 78.9156 165.165
22.1008 148.088 115.465
25.9615 108.458 108.583
19.6989 173.03 84.7518
67.2985 168.45 106.822
24.5354 222.786 187.308
60.0768 183.914 130.005
48.603 123.758 134.288
14.3088 76.1075 1.74738
67.056 114.453 161.354
59.149 100.75 182.214
52.7696 115.399 160.207
67.5894 178.659 114.348
37.8455 152.395 154.83
40.1366 172.736 80.5582
50.0332 149.49 115.263
34.8249 160.722 125.101
29.7456 126.209 140.238
45.6102 85.0081 169.096
24.6946 144.088 178.253
33.088 148.603 127.712
63.0809 109.564 149.669
64.4981 119.257 187.893
71.7169 96.7436 185.503
44.4941 81.9694 182.976
43.0417 156.817 155.621
60.607 175.642 141.799
58.254 77.8667 148.337
65.8457 156.029 140.256
30.6757 197.73 104.071
42.9354 155.876 163.279
39.4812 142.853 131.991
14.4253 145.261 87.5441
65.7334 88.6624 148.132
87.4921 92.3283 153.34
79.2038 173.168 113.448
12.8613 152.371 153.09
42.5258 118.647 116.527
26.2447 118.522 131.606
45.0225 130.092 170.962
63.326 196.983 98.0534
58.4584 125.004 100.525
50.8517 104.567 109.912
37.7066 96.6503 106.655
41.0788 159.398 150.481
45.5463 118.665 167.981
49.4566 113.254 125.363
65.0382 185.073 85.0783
32.2304 171.453 104.861
43.4213 204.106 91.5409
41.4137 223.005 100.824
23.1416 195.676 106.961
53.247 197.366 148.665
35.3971 95.696 160.117
32.4955 146.471 78.944
8.91913 159.856 88.6521
30.8161 195.142 93.5053
42.8878 216.264 104.175
57.2208 194.485 105.483
54.9207 184.104 105.239
37.729 142.032 94.4242
79.8304 119.445 164.737
23.1899 175.543 97.4499
25.5834 124.732 88.2555
33.5677 101.054 101.682
71.2694 74.7058 148.367
5.71839 229.983 173.797
30.0642 189.89 102.263
35.979 155.573 129.442
32.9896 151.978 78.3073
28.8952 185.236 83.4205
44.7906 151.706 165.545
42.9169 193.368 134.128
55.6539 119.663 153.721
19.1133 226.306 90.4935
62.146 171.518 147.206
66.0555 183.036 135.947
27.1373 216.814 205.011
44.8908 137.729 142.236
9.52766 173.634 131.076
81.5464 80.8694 172.679
32.7592 69.6935 17.9498
56.1524 202.812 150.312
37.4259 134.788 135.482
67.8748 108.317 178.551
22.5569 195.903 133.038
92.4016 140.541 181.465
83.2092 99.955 153.223
72.553 162.075 128.265
48.5421 129.685 136.361
61.7341 154.109 155.942
26.1134 212.825 102.33
53.9938 184.34 165.782
24.4716 231.066 114.747
39.5912 191.872 83.4802
28.8776 230.575 213.971
89.7123 84.9135 154.242
38.4736 158.982 157.185
59.3995 190.343 155.454
28.3769 175.595 84.091
58.0704 128.306 146.656
24.1015 230.689 210.931
91.9869 102.79 146.696
35.5347 131.396 127.196
46.0729 178.343 166.774
21.9637 184.117 83.3065
38.6005 148.506 108.824
73.6025 169.135 130.033
22.7212 121.002 176.384
67.9031 97.5649 151.308
67.4638 106.616 155.155
23.2661 225.153 97.3935
54.3284 221.75 109.933
49.7822 115.763 136.329
25.8 156 141.672
55.5144 116.809 176.862
32.7142 137.08 114.449
49.6755 141.399 155.415
4.75518 151.551 107.396
6.75421 80.0776 2.32496
29.8236 219.013 185.348
24.8802 185.69 136.447
22.1316 70.3221 13.6805
13.6551 137.695 148.341
38.14 213.269 76.5242
56.8405 138.362 94.1292
54.595 226.234 116.632
64.5964 128.499 181.451
59.4838 183.247 84.2817
48.0591 145.785 139.955
21.7623 67.1975 20.942
41.9043 137.344 154.631
77.8955 92.9141 146.728
89.6891 80.0169 168.934
35.8272 195.002 102.316
18.6492 196.009 130.367
76.7993 110.745 120.819
50.2721 129.678 94.2633
57.729 141.682 179.224
18.0764 165.677 81.1966
65.0043 195.325 123.5
38.5507 137.081 96.958
18.8864 127.548 127.952
67.1939 175.399 140.558
52.6083 231.373 114.469
48.5296 197.344 81.7654
50.3508 162.257 164.094
39.8898 231.017 188.444
67.4852 183.073 170.504
65.6593 192.394 109.761
57.8663 222.867 82.0611
79.7126 104.814 160.531
37.247 228.544 102.282
25.9037 152.373 117.042
70.1102 93.0064 144.898
57.6734 184.353 135.668
77.6011 167.682 103.318
16.7319 231.45 107.806
76.7393 95.4523 120.351
8.32799 178.077 124.118
12.5416 58.9611 20.5124
30.3937 129.308 125.49
51.3482 165.949 101.534
59.9108 164.349 141.217
16.3854 64.5771 20.5568
64.5455 179.281 124.171
51.0356 106.847 146.019
65.4009 161.788 166.764
76.1417 102.607 151.836
46.8293 135.422 116.837
43.5757 136.396 110.104
28.8622 140.562 132.685
51.2889 156.362 169.201
42.2947 196.368 79.3337
19.4541 231.313 89.5154
63.6933 195.055 104.353
46.5324 131.385 104.73
47.1722 119.468 111.465
112.064 125.993 183.366
30.1488 113.396 173.407
14.1062 141.273 85.0098
49.2251 130.477 175.042
47.0588 133.538 145.243
49.4199 184.605 169.386
52.9573 127.158 121.144
49.5801 121.978 169.457
30.1385 198.216 86.7035
54.1953 90.4664 133.75
34.9011 229.638 189.646
48.585 161.959 136.134
52.7036 97.6701 172.845
27.1754 229.088 68.0393
64.7227 79.6641 137.06
66.1413 158.979 116.77
75.8893 102.233 181.88
40.1785 151.04 112.735
62.0417 98.5223 150.383
40.9148 172.6 85.964
15.3547 172.81 131.894
54.0539 166.684 122.103
92.0615 106.294 155.923
12.6152 211.589 126.191
6.62663 149.516 151.639
35.88 186.092 103.98
34.5531 138.873 87.4454
83.714 106.665 121.257
54.5905 206.489 114.223
20.4984 203.723 108.885
43.1692 113.79 130.106
56.4002 121.25 119.803
87.221 72.0806 160.834
21.8913 117.541 168.35
46.6893 143.255 120.357
39.0742 168.689 109.13
26.0495 136.971 136.075
74.2093 121.988 177.151
67.8852 126.647 160.333
76.1812 107.514 178.532
70.9632 135.293 99.1273
48.5942 155.01 110.146
47.7293 200.67 74.3625
71.1287 129.724 168.956
98.3501 136.359 186.223
55.354 201.251 92.5027
65.7686 142.348 180.681
7.60282 63.8665 19.2101
84.4462 101.675 173.178
58.1527 167.002 134.181
32.86 230.955 71.4193
66.295 197.923 90.8852
15.2101 67.4738 12.3959
30.0375 164.349 126.553
8.42588 94.181 31.2014
34.1376 162.182 162.963
77.4449 180.798 108.183
52.0055 172.876 142.297
54.2001 154.199 131.669
72.4885 179.658 111.157
24.1974 191.975 139.352
42.961 200.083 136.162
62.16 179.917 89.6754
53.8111 169.356 162.86
25.609 82.0443 21.6658
23.6661 222.114 94.2536
30.5849 103.067 118.172
73.5503 192.893 147.619
58.3862 114.086 116.075
44.0841 79.391 154.951
28.5124 143.878 82.7657
39.5123 132.223 131.323
