ply
format ascii 1.0
comment Created by Open3D
element vertex 753
property double x
property double y
property double z
end_header
54.0991 196.082 106.164
3.93104 121.6 98.9992
20.131 121.933 132.183
5.43573 112.972 122.691
69.9876 179.734 85.2843
21.4112 156.746 143.96
23.1468 187.732 110.844
30.4979 99.4178 71.5291
80.377 139.514 41.6901
50.843 147.052 138.735
36.0135 175.463 113.372
43.9057 123.757 154.311
72.7161 187.294 96.3377
14.0735 132.03 143.288
26.05 91.466 74.9297
60.5492 179.148 105.977
63.7124 154.719 44.1094
30.0859 110.208 61.1245
37.1109 134.271 145.955
39.3261 186.534 122.504
20.0993 96.1399 81.379
54.9717 139.764 143.423
11.9232 107.294 60.5022
66.9732 90.2467 85.4491
16.524 94.542 110.311
16.7372 123.26 68.9444
4.46035 128.739 129.655
50.4537 124.813 34.1202
60.0419 90.5522 112.462
11.1863 141.639 94.4173
61.8387 141.564 58.9383
72.1365 109.504 151.068
84.3538 146.527 46.5502
21.0629 85.56 103.929
10.2942 114.632 66.9924
9.97863 130.133 97.8444
55.2226 173.269 54.5807
30.504 188.944 126.324
32.4627 140.575 138.104
4.55245 115.484 76.5062
52.5583 82.37 139.89
14.8547 143.918 48.4867
52.2277 95.3929 136.949
30.7358 125.822 147.432
31.0711 151.412 129.487
31.6471 154.683 50.5321
87.6808 134.349 91.1945
15.6726 130.702 128.302
20.4115 153.959 51.7365
30.3445 101.368 141.217
35.275 145.507 149.285
71.8746 85.7619 93.7604
5.98874 146.17 135.162
70.9075 103.399 145.08
19.2255 118.409 64.8842
38.5411 91.0117 51.5381
56.169 102.63 142.64
31.6302 157.267 61.0105
72.6123 184.912 74.735
77.6213 155.775 148.495
4.69078 130.71 86.9188
56.3155 171.052 64.2053
50.4616 157.79 39.8777
36.4245 181.992 66.5478
37.0307 133.347 136.611
27.5468 182.666 105.717
30.8669 94.0532 63.8644
4.70075 147.499 88.4603
58.8531 73.8778 125.133
29.1515 117.391 132.319
45.6443 141.077 144.001
59.1369 112.12 50.417
3.2324 144.157 106.327
91.5704 97.4709 49.4311
35.2451 71.3186 103.748
47.4601 88.737 139.087
26.4733 174.193 108.068
25.0483 168.859 143.058
2.70733 139.927 70.2859
44.8221 169.921 44.8474
9.8631 123.557 120.461
63.5727 120.499 51.2455
22.8137 141.774 42.8314
70.2 187.317 121.483
15.1166 85.3352 115.926
68.0966 112.815 141.099
63.8667 134.434 139.835
20.6221 163.048 79.6269
89.3511 161.452 125.067
35.912 153.015 138.236
66.0235 125.923 35.8762
51.8815 144.688 155.585
29.4654 136.679 147.18
49.4925 90.6473 109.941
8.18732 104.271 124.522
33.344 162.949 123.238
13.2309 147.2 68.3322
32.8238 168.034 137.023
44.9837 156.805 130.614
73.5148 148.182 41.0204
31.5803 120.053 44.3348
22.1225 103.044 141.271
18.6233 92.2396 66.5474
29.4772 76.805 126.835
17.8407 91.2452 123.547
52.5869 168.12 121.942
56.8399 159.976 131.571
49.2839 125.652 57.323
68.8542 178.462 135.655
33.6415 176.087 103.007
79.6626 87.2127 108.954
41.0937 187.174 134.63
65.4513 181.816 62.4008
38.6175 171.003 129.981
43.416 162.148 122.924
4.95395 167.493 83.9025
51.2947 133.292 51.5356
85.3052 125.536 102.082
15.0217 100.469 67.1844
41.2049 118.796 42.0288
49.8329 189.589 82.1387
23.0227 188.51 97.7564
32.5456 164.947 143.748
47.328 193.828 91.4215
20.2119 148.94 144.074
23.8581 138.852 132.441
41.0884 144.9 48.4765
79.3793 102.81 53.8465
46.5951 136.221 156.083
61.9738 105.151 138.397
9.89032 155.349 131.534
68.9444 173.827 68.8821
40.3079 99.3282 41.0536
17.427 106.259 126.315
49.7722 170.437 80.5423
26.1433 177.71 117.603
54.3351 114.205 137.948
40.2503 162.918 132.601
19.5914 106.843 63.9187
37.6968 105.051 37.2672
34.8772 88.2372 74.4399
40.1765 194.077 103.461
49.3443 176.376 48.8828
67.0551 165.204 79.0093
74.1001 102.009 128.413
57.6536 88.2242 102.341
59.9419 142.527 50.2167
45.5547 174.206 89.0037
64.5906 90.8007 76.0012
82.5978 186.321 97.5254
37.623 161.978 149.981
28.1427 74.2601 111.891
22.0002 171.447 132.926
71.5491 151.6 119.933
55.0647 156.966 142.062
22.1258 160.54 118.548
80.8459 175.826 125.237
36.4971 91.7921 107.608
12.6886 105.661 110.613
13.9147 80.0972 91.6632
14.3621 177.116 85.6263
25.7629 156.385 76.0078
38.5477 134.008 42.8533
24.0533 75.8023 74.5072
43.2028 74.0939 57.272
93.2086 147.65 138.106
48.6814 100.763 125.813
40.3625 84.4358 102.337
54.3478 169.334 107.498
39.3541 101.529 65.5497
37.0803 189.854 81.5778
97.9387 100.642 62.6054
52.3241 175.688 115.949
22.4432 164.267 90.0252
44.2478 85.6622 45.4776
21.8467 148.057 126.973
42.8818 165.641 114.277
23.7566 168.106 116.012
34.4132 110.719 143.557
48.9572 147 35.2125
48.8446 117.353 142.861
76.0992 85.1361 83.5568
65.4844 119.522 142.249
65.0774 183.443 102.104
23.3721 90.6856 58.3791
10.2666 114.927 131.73
10.3872 126.241 74.8657
11.253 175.273 108.234
62.8756 142.635 159.6
54.5277 171.666 90.2739
16.4736 141.324 117.722
19.7531 105.943 78.5116
65.7738 141.432 40.5915
87.7092 143.38 95.3432
28.5314 159.333 55.476
41.6901 156.885 41.0719
73.6188 113.935 54.0506
44.4443 74.2716 120.2
40.4999 126.803 45.0554
82.3084 112.574 87.869
54.832 144.45 62.8662
50.47 181.554 129.703
27.152 129.751 134.067
53.1836 118.905 150.574
27.1314 163.878 65.9323
108.64 124.424 110.398
13.0449 150.343 109.287
59.7423 98.0506 125.911
62.6397 189.34 118.049
2.9456 137.996 59.36
3.17876 164.981 117.615
16.6427 131.42 44.8387
7.1544 119.719 91.4079
36.1515 166.903 109.528
86.2817 139.156 151.62
52.0999 169.335 99.7291
43.6485 121.22 140.769
14.5396 86.2598 100.729
94.8723 171.783 81.7188
31.7468 87.0013 137.67
70.8615 135.688 56.9256
73.7274 157.945 154.971
56.1649 161.928 122.192
51.9313 115.296 46.4824
49.8276 87.5606 61.6067
79.8434 129.372 117.752
15.2465 164.04 74.5255
2.83795 150.805 69.1412
22.6722 113.517 55.405
30.1916 118.865 52.1961
30.9256 109.571 38.5997
31.3998 178.844 140.376
7.81739 143.791 60.6655
64.7195 195.326 106.661
38.5859 174.562 49.0604
15.2595 149.396 89.7584
61.8261 174.272 110.833
62.0391 161.582 145.455
16.6195 150.626 60.1929
34.061 71.1475 78.3813
83.2145 117.867 112.916
24.1244 128.536 142.481
21.821 183.977 124.936
44.7315 138.603 46.7565
79.193 132.529 149.764
39.5426 169.612 119.133
29.7758 83.943 52.0957
8.68254 174.802 95.1726
8.73996 139.496 104.573
60.0117 155.474 151.267
53.3113 106.378 136.587
17.8472 116.834 47.2012
59.532 96.5499 69.0223
35.7006 183.175 74.451
29.01 153.624 66.9769
65.1833 76.0059 95.9925
47.4792 135.217 36.8805
88.6385 132.476 99.0371
66.9583 154.774 63.3348
32.3295 70.0719 71.4375
32.4108 154.461 149.576
99.378 131.925 57.493
91.317 170.496 124.127
51.8226 131.413 143.66
70.9576 90.6147 105.105
69.3196 107.663 37.1408
31.0941 167.219 92.2176
5.42334 101.765 65.6114
24.2034 176.997 98.7189
58.4004 153.478 123.041
70.3325 95.4643 95.5484
44.7275 153.8 61.6854
27.2904 141.23 55.7179
27.0253 115.548 141.168
42.43 159.381 71.267
51.3929 183.784 65.1157
61.3111 183.352 137.636
52.9752 83.3592 48.9408
58.4728 153.223 134.186
29.7585 91.5997 113.196
11.4913 82.1006 82.2322
36.2597 145.322 131.397
60.4248 94.3286 43.6899
74.479 174.324 60.367
6.89646 151.592 116.456
55.9315 111.879 37.5354
43.8884 70.1274 63.319
87.8025 113.475 143.715
75.1398 134.884 142.928
39.5951 89.852 138.65
14.8232 148.656 118.74
88.4386 145.285 88.7237
26.6878 91.7358 50.6161
15.6695 133.972 72.0843
38.1268 75.4775 115.332
31.2517 147.649 54.3915
78.9894 106.385 146.335
78.0526 149.781 71.3739
29.914 84.3935 119.156
29.2332 179.999 80.8785
14.5222 109.128 136.357
71.6525 131.388 157.613
10.7265 114.606 80.3276
6.49278 124.084 69.8168
56.4708 165.921 79.4393
87.7234 116.845 46.0378
49.3317 86.687 84.063
16.0625 164.595 131.7
20.5637 157.582 68.3505
28.5752 126.521 55.9314
50.5841 155.7 155.318
2.42184 157.959 87.8835
57.7413 153.94 38.727
94.0407 117.637 95.9861
57.3908 127.601 146.655
41.8007 176.872 104.805
55.362 191.643 116.621
48.1763 142.836 54.5932
82.5872 170.631 104.587
80.9117 180.264 112.28
35.8617 98.6359 127.883
60.906 110.735 145.884
18.8928 73.5202 85.3534
67.8554 191.382 112.56
77.867 179.804 69.2142
86.5652 153.406 96.0442
23.5335 133.204 57.1712
53.8823 129.144 43.3766
81.291 154.368 128.415
77.2852 174.896 98.7501
86.5477 171.995 67.9762
66.6443 150.553 130.739
4.90236 85.3784 92.4511
63.5677 168.687 73.8381
43.7354 97.0526 59.0968
22.775 121.607 47.1682
92.9701 108.816 139.623
96.0322 167.274 92.5183
77.1963 74.3255 80.8553
41.8378 181.054 56.3979
69.7998 151.809 136.395
37.2296 151.636 64.4753
35.7474 78.2953 132.283
76.8551 102.266 98.2125
12.4172 129.195 110.348
72.7642 168.77 110.844
46.8817 130.786 141.596
86.5573 121.527 90.3756
20.6606 156.651 83.6091
86.7237 154.99 134.267
55.1575 192.689 123.937
4.27554 100.754 113.743
73.0834 121.84 143.035
18.2557 156.404 95.9047
50.6001 151.695 62.2343
52.6901 97.5562 53.8556
79.8285 142.194 141.94
87.8873 147.411 103.887
51.3126 185.461 137.002
97.5167 116.318 57.8998
25.2246 172.454 59.0316
14.1146 144.995 56.5242
55.9187 166.649 48.7878
49.0372 72.8125 101.801
63.6274 179.978 86.7104
15.2043 153.279 77.0284
20.6408 113.632 136.383
76.2458 109.769 113.706
47.686 194.776 117.681
64.7647 156.58 157.075
22.026 102.286 55.6857
15.1548 179.658 117.012
87.5815 137.803 98.842
13.1856 146.683 84.0188
66.0373 109.783 59.8
10.5598 83.7449 107.655
57.6941 166.797 149.787
12.2773 86.8734 67.343
76.6726 177.119 133.128
14.3549 165.177 118.06
7.05549 131.996 115.657
58.9759 132.231 58.1237
71.5238 114.645 135.151
60.5779 144.482 137.209
67.8776 168.028 93.4627
75.9698 131.51 134.167
74.3695 95.9479 77.5769
74.5081 191.201 86.2651
71.2621 92.55 133.78
16.151 95.6712 57.1637
83.9865 124.116 44.9523
47.1981 69.2839 72.5063
52.9524 90.6534 74.0728
59.0174 159.688 65.8353
36.2672 118.603 142.148
70.6532 78.2367 86.6014
44.9951 118.165 51.7125
49.4436 102.376 43.0676
2.91561 139.838 100.637
9.07633 136.427 137.962
57.7196 79.4337 78.869
82.9848 115.833 78.4628
64.5232 126.331 146.705
52.6358 72.4031 112.726
85.9819 185.593 81.5222
58.2077 171.226 83.514
73.5383 154.235 82.0312
108.429 147.66 120.782
68.7727 168.593 138.434
40.6415 69.4428 87.2459
44.923 175.088 120.191
13.8029 173.064 74.5663
76.9019 127.074 145.584
45.7631 160.564 45.1013
41.7826 109.089 44.6619
92.8944 110.572 53.3197
63.759 81.1855 73.1216
10.1818 138.483 50.7744
72.4494 121.622 50.6416
39.6706 124.961 145.545
93.4223 133.808 140.884
12.7304 121.323 46.6958
51.7921 110.384 55.3281
37.6811 168.004 79.3431
49.6802 122.035 47.3153
3.55934 133.925 100.891
72.9654 105.993 134.806
77.0377 119.312 56.8082
9.00211 155.251 76.8732
73.5634 117.499 156.701
50.7336 162.588 74.5674
40.7298 155.588 53.1882
44.2855 77.5865 96.1493
82.7508 154.897 50.2039
57.0417 79.8694 132.698
67.601 177.083 78.2144
63.2792 147.539 144.681
56.1419 83.4901 98.3168
75.3961 122.875 39.9362
81.238 126.909 152.957
24.4492 149.306 46.9767
43.2209 100.322 132.785
6.79185 148.947 76.4865
28.401 178.231 94.7199
28.3937 147.78 62.4781
80.7341 148.737 137.723
56.5927 166.675 71.6164
68.9223 129.144 134.709
82.2725 157.127 115.072
90.4211 143.231 127
36.6708 133.183 153.33
20.1579 137.774 143.132
99.1733 140.761 134.599
34.0347 156.295 70.3807
85.2337 171.045 128.354
90.8551 177.859 78.9048
73.2438 145.702 127.019
31.2398 133.323 40.3606
85.9837 133.02 109.423
77.0311 96.5313 114.636
57.8281 123.239 48.8737
88.5502 141.991 104.369
76.9341 117.1 146.662
41.0439 109.909 58.5085
55.3034 179.569 89.0938
16.9894 167.899 64.7215
2.43572 116.212 109.635
67.2505 180.1 129.652
33.4776 177.875 70.6374
38.2839 79.6998 75.9668
43.4591 91.3246 74.2111
75.4168 141.746 67.701
41.1121 146.338 58.7183
21.8396 143.225 64.23
62.6044 162.32 110.055
76.5098 139.637 129.399
61.1252 178.298 94.895
81.3554 119.279 138.468
77.3626 188.023 79.9452
83.3665 143.061 80.3533
81.8123 110.228 125.45
79.3282 122.868 65.4745
42.7896 92.4763 112.226
74.9942 181.955 126.722
5.39584 129.007 108.926
45.0847 177.005 144.384
22.4198 73.2619 102.278
5.56146 88.3736 99.8888
42.4762 108.745 141.343
53.8391 82.0947 74.4861
21.0184 150.728 71.778
39.2012 101.464 145.347
63.7086 89.3391 124.003
31.6593 168.251 58.2443
76.4976 174.056 105.483
62.3387 79.4227 87.9737
83.1023 148.858 83.8851
57.6275 75.2099 59.6642
63.375 99.3838 134.595
48.9793 161.894 119.393
70.0672 105.113 50.9365
53.9861 147.373 51.6276
65.3807 81.7233 126.008
89.0808 140.944 112.265
69.448 75.6289 112.176
87.7911 147.796 113.418
37.3803 174.571 92.0191
44.9471 79.2461 53.3041
63.8598 167.533 84.6095
91.7896 125.3 140.774
2.30891 164.138 97.1847
30.3794 172.906 75.274
3.41997 86.4062 81.7008
25.8271 90.6203 107.735
40.6458 83.1827 141.363
82.5105 126.577 85.5664
82.723 157.217 91.1114
60.8283 151.022 68.3977
49.5844 83.4119 89.4677
92.3382 135.724 107.428
74.4956 126.699 57.1972
46.6462 111.782 148.822
75.6318 90.833 47.4686
96.8628 117.697 50.2691
36.7686 68.28 66.8292
3.08717 105.321 74.007
20.0097 96.5429 99.5823
37.1777 173.781 97.8941
62.7677 180.616 122.289
60.4561 128.914 40.1243
58.1167 74.449 69.2975
32.9697 143.994 42.1482
103.694 153.236 118.458
79.1222 157.463 65.3385
21.8996 180.052 80.002
26.4867 95.6589 100.123
6.12869 120.209 54.7944
77.5276 101.535 117.599
12.8566 157.756 117.677
85.15 118.728 71.0632
54.5332 134.289 154.158
61.5136 133.923 159.084
98.2866 172.45 100.49
58.0672 121 155.57
30.1376 171.718 96.9469
81.2947 163.423 128.667
59.3028 149.194 51.8625
19.1966 175.164 110.095
61.6541 118.459 40.9551
110.738 117.481 104.123
98.2051 174.58 91.6982
6.9911 108.189 71.4417
68.5312 118.515 152.803
67.9743 160.846 70.1912
59.1112 173.436 71.0967
22.8536 111.926 126.984
37.7876 176.845 136.994
90.3496 156.638 63.1497
82.0256 113.346 42.9047
64.2034 178.925 68.8924
48.8238 81.5748 73.2304
83.6039 162.139 97.8113
58.3192 163.086 58.538
67.5552 103.211 135.594
52.1749 181.883 122.393
75.9701 118.113 126.379
99.6231 161.325 77.2476
114.949 125.552 97.0523
40.8282 148.976 39.2541
72.8548 87.3548 67.6853
14.0576 110.217 50.7687
29.2122 112.9 125.834
89.8164 183.555 98.1186
47.4816 107.857 55.7599
85.4825 100.311 143.888
64.0401 194.899 84.0376
24.9152 163.042 73.6352
51.1222 183.618 58.4677
86.8251 179.704 122.15
12.6455 178.912 102.643
38.4492 150.705 144.49
61.4559 82.4934 105.158
98.2428 167.178 118.22
77.6401 165.937 64.678
34.1049 96.3006 42.2148
72.9312 140.451 137.106
47.8472 104.117 142.786
32.9352 176.956 55.1488
88.2913 142.511 118.79
3.67314 122.044 116.141
99.0798 143.307 102.626
80.7289 103.065 89.9717
2.05553 123.274 87.3513
66.8847 184.693 76.7162
65.4694 170.414 99.7104
61.3116 169.082 136.891
20.6162 176.009 122.998
70.5233 95.3792 62.1907
22.8414 173.16 73.4753
78.3692 138.695 76.5857
69.5864 144.909 63.7691
47.731 73.149 128.938
16.2475 172.157 100.277
61.2224 170.981 91.2267
95.267 139.146 96.4758
49.235 197.189 100.936
47.5693 125.297 143.829
79.6089 159.445 78.8411
46.8027 86.5148 101.049
70.4816 145.596 117.87
9.55881 166.204 75.2827
65.9393 76.6079 68.933
17.4785 182.761 100.402
55.2058 179.044 80.3711
93.7498 132.155 115.409
10.1095 89.8509 93.6642
67.969 82.596 80.1532
64.0428 189.63 102.835
78.5971 89.8948 129.838
13.9989 159.332 106.697
80.4357 116.759 129.991
54.3138 192.078 100.038
1.75283 142.7 115.582
30.3004 152.855 142.901
70.9565 151.417 73.7752
52.3185 157.464 70.9122
81.2675 81.1681 61.0717
46.4307 71.975 112.385
64.9102 164.401 64.2031
83.4281 124.178 58.885
49.9611 159.506 65.5136
83.8822 125.208 75.6288
85.3573 134.191 116.054
57.41 194.147 93.5048
44.3935 99.9149 146.38
43.8592 176.185 77.0814
75.2665 113.457 43.1172
74.3066 76.9802 55.0749
43.042 72.0142 100.246
2.86905 117.38 89.9454
69.4682 163.479 87.1741
50.8685 165.721 42.9063
52.0348 159.636 47.3682
73.592 162.307 77.7249
86.1037 144.281 143.544
24.3554 189.552 120.631
61.1428 117.317 153.358
77.1371 144.09 146.802
14.2093 171.622 111.851
92.5054 82.3497 85.5117
1.58821 133.183 116.57
100.31 165.708 105.225
90.8845 125.443 63.5614
83.6798 116.199 102.928
7.93042 105.848 104.669
17.6884 180.679 92.3657
83.241 89.0317 54.4997
44.2538 80.6546 77.2133
60.3036 71.7865 80.9335
79.9468 130.566 49.8425
9.1969 111.485 89.285
44.3519 99.9067 69.8091
26.2578 97.584 119.581
30.2501 101.273 120.291
45.837 184.109 76.5162
45.3363 188.251 127.441
83.0232 178.681 130.261
92.9699 113.692 128.996
84.8805 169.658 95.5963
9.07068 122.133 128.192
9.70672 170.431 118.205
85.0956 136.051 67.0994
37.9279 92.0493 81.5769
83.4204 112.758 138.807
93.3399 108.393 95.9801
50.1628 70.2435 120.762
91.9337 138.118 50.4608
104.895 161.236 109.936
8.79025 164.525 125.564
81.2755 160.343 106.483
75.7963 112.587 129.147
84.9793 154.981 73.9465
65.6846 169.714 54.0443
77.6441 80.3444 93.1839
68.9498 145.954 55.7132
107.628 156.108 101.494
89.8715 164.701 105.466
95.6382 113.993 103.392
74.9882 147.32 134.37
24.3071 104.678 116.3
12.8434 106.782 75.5732
80.1614 128.428 61.7251
84.8026 172.677 109.823
98.7312 90.1198 80.7396
102.759 123.861 131.439
78.244 163.743 97.2202
83.654 134.235 138.694
45.1333 181.03 131.174
100.106 108.276 133.003
84.5581 143.578 64.5438
47.1655 171.214 146.951
74.9782 155.707 89.8092
62.5433 192.9 90.0072
81.681 141.296 132.091
82.2148 93.6519 58.6344
87.278 123.882 138.387
56.0833 73.0214 90.2388
44.7955 164.425 148.213
75.7009 79.9991 103.428
16.1544 164.94 60.2087
89.5604 98.7059 76.4812
93.13 165.099 69.4227
73.3163 161.282 86.9602
13.9809 101.229 61.9486
65.5831 167.99 106.87
50.0524 76.5181 66.1186
33.9507 87.4413 125.832
101.054 104.419 122.895
68.0804 72.8239 78.3542
111.544 152.019 110.15
49.2901 69.7563 85.6465
1.70533 97.213 107.304
5.80419 139.91 113.77
2.35586 137.032 106.466
40.6295 68.5152 76.7241
56.933 68.1295 69.6014
49.5015 179.952 87.9705
58.3463 173.862 135.147
51.1873 81.3164 80.6555
21.6014 140.971 123.194
88.6763 150.335 124.85
85.3012 131.781 46.34
84.9344 130.102 135.796
85.841 183.504 108.395
94.0155 104.536 121.093
87.8574 150.524 69.5503
79.1981 107.289 119.929
79.2259 71.6578 89.2446
42.4689 146.541 53.4872
86.4808 138.523 77.1939
60.6193 188.265 94.6887
33.0697 145.24 138.103
92.0874 92.3871 74.8833
89.9374 179.523 109.707
89.7733 138.02 133.11
50.5044 78.9797 54.9331
92.4636 176.239 97.6818
22.5087 104.182 122.245
18.7134 165.312 122.797
7.91524 162.98 118.845
39.2681 117.114 154.97
114.845 133.608 91.6945
106.682 116.299 73.5496
