ply
format ascii 1.0
comment Created by Open3D
element vertex 1650
property double x
property double y
property double z
end_header
48.1307 138.494 81.5708
63.7851 86.3945 105.163
10.6234 195.666 86.1522
78.2549 103.817 105.682
78.8805 49.1921 161.419
50.9389 141.166 147.593
70.1538 116.731 106.376
37.4326 122.561 159.339
48.8195 189.269 62.5824
83.3911 71.6373 179.169
92.784 35.8374 160.543
18.9141 175.678 88.2252
45.6064 191.668 45.4351
109.266 58.6787 185.35
57.386 191.548 63.0346
116.229 25.6646 120.591
34.4583 174.459 77.4963
76.5994 55.3871 101.097
81.785 66.9656 93.4496
45.0201 207.976 44.1301
79.304 88.8239 80.0508
83.5783 98.1533 92.6045
96.5548 50.6063 100.395
27.5637 132.071 80.8885
38.6384 196.474 113.416
38.4668 108.57 93.9622
42.1271 167.06 144.68
45.1558 104.976 117.21
52.6229 99.3319 87.9637
29.1586 177.126 84.0644
52.7209 189.079 119.794
22.7172 140.021 133.043
37.5145 179.084 64.1291
44.6368 163.858 153.579
26.6472 225.91 61.9122
29.6612 122.705 90.5352
94.7125 48.0051 175.964
79.2271 140.893 40.1203
63.2667 130.63 43.9743
56.3713 140.501 166.518
121.533 62.8698 93.8901
59.498 204.743 57.2316
50.0353 209.813 95.6792
13.7232 184.591 123.402
52.3242 213.829 84.2109
56.4374 173.872 141.512
39.3691 158.315 98.4732
52.7906 165.233 134.992
27.5822 115.176 134.524
83.3902 70.1021 101.38
135.151 69.6028 191.687
130.149 44.1671 118.718
75.6964 82.2474 165.75
74.4532 69.3952 97.5625
35.5901 136.965 172.103
104.704 44.4389 89.2357
55.9934 202.787 110.498
76.5726 52.1588 118.841
71.7326 55.544 108.879
102.805 74.5168 170.78
34.4206 184.471 113.84
93.2425 56.7756 158.071
128.167 64.338 104.639
44.439 160.466 83.2316
38.495 113.577 112.785
24.4609 183.635 97.6983
24.4528 154.808 151.141
82.554 102.968 80.3231
60.8114 217.218 73.1202
69.9254 185.56 103.629
109.388 39.2841 168.198
84.3769 31.2859 138.484
24.3778 139.644 82.0502
70.6551 138.664 38.679
52.7165 98.9386 98.9344
25.7799 138.841 125.627
51.5773 126.231 123.851
24.6983 187.365 84.5457
26.9492 184.156 72.4521
12.1704 225.906 62.6768
66.4853 171.25 110.78
33.0261 174.987 105.77
63.2897 148.678 143.45
26.9667 124.679 168.955
103.819 64.2237 184.872
118.822 61.7453 101.817
84.994 80.0595 120.514
85.3886 95.138 83.2639
13.7752 120.576 115.177
48.8006 124.19 110.843
47.0565 155.92 148.02
48.802 142.866 92.5864
63.653 180.265 70.5254
51.1236 224.509 92.8678
37.1947 191.021 45.0899
30.0257 157.208 108.935
60.0048 161.518 120.376
35.3808 188.06 61.5534
45.6786 100.664 92.5085
57.2814 206.807 70.0855
79.9546 99.1271 100.329
106.187 85.2555 180.312
77.6226 63.0232 114.756
74.4454 134.288 57.8326
16.6324 192.632 75.9718
30.5882 177.524 70.2612
26.9249 211.833 115.947
22.6793 145.351 148.876
68.1586 74.4206 140.025
76.5592 142.644 55.0822
64.2609 188.131 118.392
13.9414 160.482 160.388
71.8072 75.2105 95.3426
78.4072 107.13 73.2653
109.223 76.2361 182.779
54.8503 216.015 54.8442
18.2171 123.668 105.592
99.9662 79.208 193.022
21.3041 190.406 60.9527
66.8287 78.543 99.353
53.2111 192.993 110.29
79.9094 129.908 54.3847
24.8188 127.42 95.6864
79.0809 109.414 90.8191
57.4952 127.586 118.526
109.622 66.8494 94.3243
100.855 38.3678 156.972
116.242 30.3201 151.738
67.1813 172.914 123.034
48.4089 163.246 44.6204
97.1243 36.9176 147.718
39.7724 150.576 91.0353
47.0479 116.479 119.77
64.6048 164.713 114.421
149.861 52.5793 194.662
55.4679 168.583 75.2813
89.3478 74.8881 139.471
87.8117 184.627 69.2617
86.6232 33.7277 150.907
103.764 86.8058 87.5784
35.6121 198.527 41.7374
53.3684 204.808 90.9062
30.5227 228.549 48.7545
68.7544 186.395 62.1988
64.3029 87.1415 137.361
33.2316 115.626 89.8567
79.4665 90.4046 120.469
54.1925 199.079 97.8779
57.6138 158.983 144.165
38.78 167.856 61.4967
30.2358 112.715 107.589
34.9065 146.139 111.84
33.4469 171.027 83.7821
51.4582 131.854 63.7354
89.0671 71.7284 146.705
95.1032 60.9328 181.419
123.524 26.4772 149.07
131.132 55.5434 110.337
105.528 73.2345 193.218
101.764 60.8979 87.3958
117.8 128.482 53.5204
10.793 174.491 95.4657
59.3675 134.667 130.092
93.1944 91.6012 89.2555
20.8576 146.178 88.8987
72.857 66.4323 103.903
63.2859 136.229 94.206
80.7987 80.7214 174.8
125.378 86.6294 67.1355
62.3858 103.594 64.7947
89.6196 142.29 42.7525
37.4549 115.39 99.4164
101.771 26.9235 124.203
76.1701 157.924 82.6796
16.0591 224.89 93.5326
17.8664 131.206 149.332
66.785 144.291 134.208
59.4953 171.018 80.125
22.1484 130.295 169.772
85.7059 86.6451 181.18
65.3465 92.876 132.059
41.2345 143.75 172.322
64.6 187.683 83.6739
33.4972 152.803 85.6992
32.6642 108.391 116.959
74.3387 67.2822 135.111
42.664 126.897 170.229
99.5567 69.9513 92.3127
68.8419 159.532 39.2908
43.8853 103.282 126.133
95.1964 75.0703 96.0552
31.8183 138.4 70.1779
48.6732 202.019 43.9919
75.1067 118.402 99.9704
118.111 73.7016 98.6923
28.1167 106.639 123.582
17.5039 127.166 161.81
57.9946 198.281 67.2609
11.6383 121.027 129.852
85.2043 60.9133 112.015
30.2577 163.83 93.4408
11.6843 171.176 81.9911
97.3533 38.2339 167.126
95.9956 73.2173 161.349
43.9086 172.19 56.5092
16.6694 136.679 141.066
164.351 47.6931 163.64
56.3618 159.725 136.996
23.339 122.542 136.118
27.9634 181.004 78.4758
92.2943 43.149 154.106
12.2034 163.235 112.719
39.9521 142.648 92.9234
49.4937 127.734 162.78
56.0892 174 133.058
58.3228 192.536 91.7123
62.0345 175.363 63.552
19.8633 172.692 154.311
32.3618 161.968 153.119
63.3715 201.716 117.221
66.3599 99.247 103.714
97.7839 31.0886 116.732
30.5743 131.565 117.631
99.4048 78.7943 89.6602
82.6869 68.3315 136.58
107.329 52.6767 179.716
84.3175 38.9512 158.806
44.689 138.539 170.175
123.027 111.758 65.3585
55.1956 109.975 65.1199
78.1648 88.0373 113.254
12.2766 157.648 141.763
27.6866 115.36 126.497
34.1456 161.805 71.426
59.1826 189.903 71.1654
89.7429 90.4196 98.586
35.8825 167.181 150.294
74.1257 62.7747 107.52
68.3372 100.353 93.2614
119.968 37.4876 170.635
79.1715 92.0306 71.3628
25.7342 155.102 88.6225
42.2875 133.931 75.5861
103.896 53.4419 103.041
46.2624 226.594 48.0164
28.248 182.873 88.5261
52.6158 217.739 44.292
21.5951 210.006 52.9141
55.6327 139.607 88.3514
74.6803 200.674 61.4506
45.3934 136.854 55.3635
14.7082 229.523 86.159
82.7466 174.549 58.221
26.8694 152.172 104.822
39.1974 123.061 119.573
22.2501 168.492 75.317
32.223 143.249 171.493
151.265 85.0889 198.073
37.2287 129.002 69.8807
66.6064 135.831 130.185
76.3722 60.1316 128.607
141.134 54.4028 92.2228
103.354 41.5761 173.263
44.6698 158.3 93.1903
77.2818 49.891 108.025
130.882 103.294 59.0304
59.0578 196.213 103.263
101.821 29.9267 155.674
48.3795 180.51 137.615
98.3921 105.691 69.6972
84.3521 72.8062 111.081
103.797 47.4589 164.897
57.5166 92.7827 94.8988
72.9545 134.826 78.2517
139.865 61.3422 84.334
79.0373 73.922 144.163
39.3973 154.427 103.659
141.599 42.2894 180.855
77.3805 41.1398 146.932
99.4734 21.9916 140.415
67.6547 98.2504 148.856
151.151 62.8877 153.672
65.1429 112.543 113.835
123.24 32.336 161.873
90.7969 73.5246 109.637
52.1472 182.609 106.425
24.5872 170.941 85.5724
83.5846 174.911 116.778
28.3466 175.706 151.053
37.2998 109.828 154.133
125.039 108.661 189.128
66.5855 186.537 109.391
11.4486 176.561 73.4764
59.9074 98.1706 118.992
137.852 35.1112 119.335
11.3529 183.149 91.1444
153.269 67.2693 188.82
60.5052 120.768 105.83
83.5662 62.4173 88.381
71.5753 97.8895 109.667
81.8 113.271 127.109
32.0517 123.622 119.158
72.6764 152.963 57.9957
14.2118 123.869 140.593
50.3822 158.721 76.9793
73.5713 124.267 48.5989
64.8913 131.22 100.377
34.6379 171.479 121.137
60.1314 108.381 122.842
39.94 185.388 130.23
77.9703 94.7563 166.824
99.8525 94.9121 69.0612
82.263 97.5732 112.734
130.732 58.8178 94.7012
28.6508 135.639 170.625
48.5432 115.984 108.644
61.403 164.449 82.7925
17.3565 153.489 163.994
76.1219 93.2171 98.4356
91.8323 64.9662 155.516
131.94 133.145 50.1196
78.6507 73.99 113.703
99.3926 28.7726 138.644
70.8457 54.108 132.426
94.6694 108.832 160.499
53.639 200.601 52.6589
84.4262 186.421 110.277
74.4172 104.228 97.16
22.8963 131.992 137.409
78.2398 196.023 78.2795
111.443 79.8266 92.6696
50.5768 161.371 144.215
38.5413 120.151 168.313
55.3908 135.25 94.4885
28.6201 206.717 41.5641
25.9482 163.553 111.384
32.2226 141.254 156.95
10.72 193.12 70.5261
124.25 57.4701 153.268
62.2219 93.1069 114.556
58.1852 151.058 85.1792
33.5901 128.937 171.868
91.9178 100.329 73.1707
26.3828 173.628 64.2705
100.509 84.4005 169.335
153.402 53.9115 172.709
16.9881 200.472 112.487
21.1511 225.181 80.7935
10.4166 202.239 78.6876
96.826 94.6021 83.1297
27.7719 191.979 137.207
24.529 166.907 158.342
65.4933 175.504 76.4651
148.844 68.3248 197.273
134.113 122.167 51.3337
43.191 133.064 120.118
34.0378 127.882 109.588
70.8471 165.466 68.5578
64.6183 125.232 132.221
31.2263 154.182 94.0848
104.365 143.767 50.6348
29.0874 230.581 94.0247
23.8092 160.418 121.916
71.9607 80.9939 104.458
60.4373 163.866 43.9091
98.7501 191.415 54.765
91.9915 75.3269 103.158
44.567 187.637 52.6636
18.5174 119.244 158.225
58.1243 94.2756 102.36
53.532 159.829 160.823
62.8578 137.25 162.156
102.695 109.352 173.944
38.0694 139.334 115.04
100.529 53.9935 181.759
63.8909 139.117 87.4023
67.1651 69.8384 104.131
55.9386 208.822 49.1174
15.5997 141.39 120.479
76.6158 49.4388 128.132
63.0557 198.653 73.5275
130.315 31.0225 121.876
69.0554 111.482 125.778
89.0137 82.9799 98.9845
35.4474 119.864 128.316
18.2671 144.577 155.632
26.3031 200.696 129.312
73.1021 48.2914 138.506
26.3726 139.898 158.17
81.7762 157.445 142.328
143.307 34.097 138.391
137.137 85.0363 203.096
27.9711 176.371 100.195
143.365 62.4411 201.258
80.9299 44.5857 156.892
79.6242 85.1208 131.953
19.8144 116.422 129.583
90.7673 190.717 106.34
82.7379 141.364 51.6351
55.4666 162.695 69.4278
12.459 185.131 79.0617
63.3179 152.997 132.348
127.136 147.575 49.469
18.2679 186.317 136.252
26.5844 163.166 150.38
49.6562 134.347 167.481
57.7158 171.604 43.0355
74.4877 51.763 154.016
50.7488 153.263 43.8074
11.2353 179.187 82.3282
98.0301 74.5806 149.373
104.872 43.919 98.9283
31.1992 118.452 98.1374
116.982 29.1981 128.078
52.5808 139.146 70.5997
120.061 25.8584 136.883
67.7914 90.1372 94.1963
26.8872 195 114.238
25.5296 147.315 113.023
55.5174 205.347 79.7304
23.041 142.522 170.123
61.6549 188.597 77.1334
24.1312 110.188 113.398
44.0469 114.928 156.101
17.2851 182.681 69.6422
19.8383 184.527 106.839
58.2818 156.297 71.3562
134.39 27.7493 135.549
33.403 181.935 145.788
108.839 24.6838 137.972
121.174 79.9369 96.3119
31.8693 176.156 56.4235
111.123 168.141 40.9708
109.853 69.96 176.358
39.2496 108.522 85.9615
16.5262 202.501 51.1193
11.0423 136.951 130.058
28.6288 112.397 158.364
77.7647 150.934 128.624
13.427 185.283 61.8639
25.4569 172.39 122.619
109.059 103.543 69.197
99.7182 86.2448 76.9191
61.1061 189.579 57.5493
105.405 76.2432 67.4556
95.4231 82.4569 147.279
74.0238 75.0843 87.2046
109.863 46.0129 174.372
138.37 84.2097 75.5499
130.34 65.2823 178.932
112.838 104.963 186.9
77.0141 59.4499 96.0659
37.5559 159.995 110.699
84.9724 85.1684 105.99
72.2567 110.732 104.159
73.8045 103.147 83.7503
63.6575 130.445 108.196
23.4025 224.803 47.4265
18.1725 184.118 55.0709
78.5034 60.4446 154.511
74.1021 140.14 47.6422
74.1572 72.7429 164.668
11.4529 200.056 68.2896
19.2323 221.116 53.1178
20.7079 188.626 101.129
61.9475 186.784 51.9309
68.3135 155.752 78.3512
107.078 81.467 194.086
72.7922 100.113 137.858
37.3535 120.349 106.456
43.7475 214.027 107.339
80.8853 206.808 81.8754
90.1657 24.8075 139.056
19.996 177.518 147.621
77.4717 41.3782 124.334
116.032 105.922 71.4732
161.034 46.0805 172.773
103.396 23.123 150.926
52.833 177.341 136.737
12.7484 121.225 147.602
29.6435 146.997 69.8243
82.0511 119.755 171.514
90.7185 78.6395 189.449
46.0006 229.648 90.2696
70.3604 94.4087 151.523
43.9162 103.322 99.3147
147.444 59.7103 195.43
104.148 103.413 185.678
72.8543 176.19 151.284
26.0533 117.684 163.955
70.7504 211.045 76.4882
29.3158 149.456 172.769
46.4171 150.615 98.3912
41.0196 178.099 147.989
98.4214 30.9704 161.957
29.0793 201.716 98.0437
76.3287 195.903 114.291
59.8789 157.494 40.3445
12.5427 220.56 80.703
14.784 154.567 134.57
53.7871 151.899 144.812
79.0282 166.447 45.8645
97.3534 187.046 120.026
63.4228 185.71 65.1034
78.3221 167.096 73.4154
72.2818 89.2418 128.133
119.63 103.553 76.1246
142.127 77.1301 195.38
93.0929 27.788 132.379
13.9093 177.807 135.805
129.396 108.176 67.8498
83.1465 38.9718 119.606
53.0031 194.053 51.62
30.2515 181.895 108.103
66.2213 168.904 143.283
130.776 33.7476 131.152
67.1536 168.253 41.9239
72.4338 80.2195 116.685
16.904 171.005 68.1987
102.584 95.3109 76.7775
115.505 59.1802 147.35
13.2142 143.52 135.853
121.231 64.4817 177.077
46.2777 191.982 116.093
86.9846 107.336 134.542
79.6691 93.5694 173.039
99.621 112.067 168.344
55.7148 226.024 73.7679
22.903 200.045 45.2232
104.794 57.5938 156.153
58.8245 126.721 60.6753
63.2708 119.29 118.456
11.3333 161.633 123.044
87.0103 158.885 135.111
48.6429 129.928 101.435
120.603 70.063 89.197
87.1314 112.72 68.0454
55.7599 147.49 159.953
87.5947 74.1957 123.531
133.716 107.631 75.9105
103.286 87.544 192.479
48.9651 120.543 154.352
90.9162 106.942 74.2384
103.157 121.818 42.9957
39.1253 160.088 55.393
64.8561 123.225 50.6661
58.5276 126.734 102.901
42.7679 148.435 64.7551
121.796 115.199 184.23
12.7384 204.688 98.3018
11.8455 196.012 59.7322
16.4457 189.251 130.518
120.838 38.4369 155.988
53.7312 196.955 125.405
67.3289 157.996 85.7295
96.2031 86.9313 92.1146
74.5711 55.6056 159.988
117.208 163.742 42.0368
13.834 211.916 85.4578
109.808 27.4699 127.6
24.3617 136.848 118.197
21.1648 212.435 42.6015
94.3244 195.309 62.5488
129.231 80.9917 199.53
82.5131 51.2898 168.006
71.8955 93.3687 159.006
106.291 74.4267 160.835
90.9871 191.439 125.562
88.573 110.567 56.2556
93.9291 55.3773 97.7784
127.862 61.6828 170.2
37.5202 145.648 101.311
128.494 55.3093 148.912
74.1894 80.0823 156.064
67.8109 151.31 43.0299
159.351 62.962 197.212
23.025 147.459 165.668
11.1386 182.742 100.424
58.703 155.882 78.542
61.8054 136.986 142.832
78.7009 160.642 127.32
144.728 39.7165 115.855
67.461 170.531 135.06
112.377 66.1143 189.499
81.1779 108.424 175.348
86.7917 77.5193 103.176
31.4133 138.392 93.7875
9.07208 200.316 51.6007
142.294 69.0902 114.309
66.7173 160.714 139.557
94.1497 78.1581 166.842
54.1536 133.224 157.594
65.9904 122.006 98.3239
148.866 118.115 72.0473
17.9776 132.295 102.047
75.9203 145.667 62.4664
83.3594 47.4703 116.092
65.271 87.0652 127.227
44.7336 167.802 47.3132
88.2361 63.7488 104.086
33.2019 187.855 140.916
75.6451 77.1849 119.964
21.4983 146.242 139.229
15.0888 228.363 56.1998
113.787 25.0726 142.816
74.4913 175.187 78.8031
75.6346 161.354 63.1916
19.318 229.419 69.9724
41.4056 133.174 170.619
104.468 130.812 55.476
34.8475 225.417 44.111
73.3551 135.138 71.228
12.3392 212.195 74.4595
63.2906 109.724 57.803
109.36 57.8333 93.7517
10.4361 149.255 129.897
14.3615 173.063 147.389
11.9125 169.921 134.385
93.9029 78.8033 70.6205
77.5591 59.8653 142.829
13.2515 217.314 56.6066
61.765 159.595 164.253
112.992 82.5234 198.085
81.8578 74.6472 169.797
93.6862 105.929 64.6118
20.4625 137.711 153.307
80.2608 83.5742 83.6003
86.4322 64.3256 176.583
99.5701 104.547 179.721
107.025 71.3897 80.6663
138.751 59.5054 164.136
24.5724 192.037 72.75
119.51 96.5228 199.766
42.7869 146.064 51.0619
113.264 34.9264 159.092
91.2736 178.097 57.5328
69.9579 211.99 118.833
101.392 136.767 35.0171
123.314 49.3494 90.5541
125.625 90.3995 61.6687
30.787 191.475 51.144
114.495 134.996 40.4078
14.3079 178.137 62.8363
77.1449 131.459 39.3554
88.4689 134.982 36.3805
88.4081 98.1516 153.701
26.3991 180.939 141.355
70.5542 107.957 151.031
56.2523 131.973 100.999
73.8103 152.738 35.8136
71.0062 56.9569 150.402
43.4196 196.506 124.098
15.7761 216.67 71.8439
42.4037 156.918 48.5243
26.4621 185.577 132.359
79.4653 65.7445 146.72
48.8136 116.8 129.296
33.6112 147.428 83.2261
46.2526 141.779 161.562
19.3798 112.34 138.649
113.344 135.428 60.3188
145.198 36.4375 151.715
45.2298 134.372 68.7973
33.0215 192.73 126.568
21.9491 134.911 165.121
18.2389 194.806 95.814
72.5032 204.217 78.6099
95.16 63.3121 100.821
71.4891 111.94 55.4502
81.4135 77.6994 132.166
118.81 116.503 59.9767
116.254 108.829 52.1421
28.4656 165.588 99.2455
37.689 213.282 99.689
24.0692 118.93 100.497
109.975 33.145 109.732
18.7354 199.462 103.807
77.6494 84.8757 92.5234
153.724 61.4057 178.227
124.705 144.403 41.4715
82.0717 78.2484 149.603
17.1905 165.649 84.2103
21.3009 190.6 47.7108
113.88 102.246 200.086
117.984 44.956 177.57
70.9995 102.719 59.322
123.832 49.7979 159.152
50.2362 178.475 48.2032
77.7349 158.948 37.4397
56.9989 143.044 41.7699
11.4465 162.973 149.23
81.6766 89.2618 165.319
32.984 227.202 99.4375
21.5147 153.531 82.5593
81.162 97.505 140.253
88.8955 48.2836 171.208
85.7259 84.7845 160.011
80.35 139.337 64.1113
124.856 46.8324 138.112
71.1526 168.447 89.3092
50.9346 172.549 46.9091
10.701 171.71 106.957
27.4923 175.036 93.3255
33.0353 122.794 79.9702
23.5254 158.952 160.815
86.7584 92.9645 93.7769
141.871 73.7254 81.646
58.9446 164.252 58.1413
60.4028 93.6767 85.9787
88.0395 86.8793 169.409
90.9791 87.5248 79.1662
119.478 55.251 88.3324
54.8551 118.299 107.262
10.6696 147.879 159.859
114.977 47.7191 89.5606
112.277 69.8259 159.003
19.8679 210.559 109.369
15.9465 204.376 63.8438
145.819 44.8894 188.491
58.6547 181.872 46.3596
73.0804 168.115 139.216
16.7524 220.835 66.06
12.3311 220.392 86.8138
14.5101 207.995 44.6659
15.1263 155.99 115.526
30.176 152.01 77.4546
86.1434 100.713 165.426
130.159 71.274 91.595
95.2055 91.1533 175.782
56.5355 160.118 48.1162
33.1864 191.708 119.684
82.6701 87.8109 152.532
131.798 56.2383 83.8348
142.293 50.9409 193.101
150.448 59.2712 160.671
62.583 118.43 130.572
66.7472 184.779 128.676
74.2619 64.8711 161.449
66.7134 149.853 36.3178
73.6034 113.388 92.3002
73.4109 176.433 131.713
98.7484 64.3285 155.045
50.4917 228.197 83.3103
83.0058 50.878 96.382
108.51 95.4954 198
59.6306 143.253 79.8203
95.1315 68.0531 187.852
15.6805 169.046 91.2717
52.6925 104.712 115.383
96.287 69.5897 73.8304
24.1469 165.831 90.5679
39.8954 180.505 46.799
95.2143 202.976 105.881
100.269 81.54 156.483
39.5388 142.96 158.053
19.2707 179.366 140.675
144.368 75.0301 129.426
35.6003 106.466 127.888
121.349 106.15 198.241
27.8898 150.281 97.937
69.6956 166.226 81.7837
77.0957 91.1415 159.685
10.0781 194.699 94.1363
89.1421 74.4394 163.733
72.0887 178.605 62.9837
83.5322 52.717 108.729
82.7647 175.475 65.793
111.638 34.8295 129.587
40.066 110.241 129.283
93.1067 86.3652 159.236
17.1514 162.322 79.4026
108.03 27.1365 117.231
77.6351 92.2853 65.9406
43.8945 120.319 124.615
71.042 137.527 64.3662
80.2773 93.8061 134.332
101.641 93.3903 193.579
64.064 199.361 80.9417
92.7398 95.2476 59.3022
47.4426 182.541 50.0364
59.1698 151.724 127.739
130.317 47.6288 92.6265
42.9165 122.898 112.051
75.7338 42.3741 131.431
122.114 40.4793 102.864
61.6681 118.556 56.404
105.01 24.7541 132.12
33.231 207.26 119.91
94.8201 137.988 148.948
134.704 89.3723 68.4301
109.26 97.4655 74.2112
90.8852 125.422 154.25
77.7587 162.318 89.6131
56.6814 140.886 156.56
103.174 102.501 74.0012
129.126 32.2245 155.548
76.5648 120.055 119.917
28.3566 110.392 148.27
86.1832 44.8958 102.824
37.5092 107.48 136.249
78.5059 88.2363 106.595
106.875 113.682 49.2978
51.7211 113.859 119.208
129.524 47.2851 145.303
75.5197 190.397 106.174
136.076 112.601 69.9857
66.737 66.2027 128.279
112.346 51.555 179.914
140.487 50.3812 100.373
17.49 223.486 74.8441
40.7664 153.824 73.1283
72.376 98.7744 71.0755
125.849 135.162 45.2665
113.135 86.8928 81.5538
17.5807 160.265 88.2361
17.0579 212.491 104.121
57.5075 99.7216 73.6817
52.2796 168.867 123.601
26.9062 130.344 88.6055
17.616 164.549 128.622
149.301 104.387 192.67
80.9494 113.195 79.66
80.8015 103.373 163.281
82.6752 179.976 46.3995
80.2194 66.4399 169.074
49.4737 104.756 105.11
67.836 154.564 138.072
74.0577 66.9063 155.101
78.4373 196.254 53.5763
88.9998 107.296 174.755
54.1578 116.392 132.647
104.522 61.8731 76.3349
33.5666 149.506 168.629
42.891 112.003 104.727
94.8831 114.904 51.5788
73.4875 88.3165 104.563
129.491 41.4011 179.393
130.365 124.104 145.675
69.8157 164.778 122.24
94.8577 99.8928 161.991
45.2841 120.943 160.544
57.4737 98.5459 108.905
37.3146 104.026 144.32
130.076 85.6835 208.918
124.058 66.9822 192.319
148.691 58.3517 210.598
53.2028 107.521 124.005
104.055 109.223 181.568
38.6105 112.802 77.9019
164.721 73.8501 199.145
78.611 143.211 134.218
145.085 59.0293 99.3624
11.4382 173.767 126.557
14.642 176.979 111.101
13.007 148.059 150.586
86.6956 82.1231 69.066
84.1699 167.11 116.013
76.764 67.934 88.2654
66.267 72.7773 112.987
21.6345 112.156 157.006
62.9813 110.556 103.248
63.5482 171.823 70.6324
82.0235 116.183 58.4015
133.368 60.5616 196.528
67.349 98.6279 120.322
75.5801 73.1216 157.728
84.6631 118.859 43.8035
88.5298 113.134 149.837
142.55 49.6845 109.088
64.9099 93.489 68.7077
15.8699 205.633 74.2092
69.048 97.3958 78.7955
99.9758 90.6791 184.899
27.4378 159.488 64.2694
48.3803 193.318 134.658
86.858 129.931 60.2935
21.2571 190.899 111.639
153.9 43.3712 180.74
86.8362 86.6799 76.3139
39.6253 171.273 49.299
105.061 71.8605 73.1368
10.1872 129.278 132.59
37.185 141.999 83.2461
86.6107 198.631 59.5381
141.417 103.113 203.882
117.183 109.337 187.247
114.537 51.5943 164.191
79.1608 160.052 76.8805
109.067 87.963 196.828
116.389 58.2755 168.641
137.921 35.3712 156.842
12.9399 211.423 97.4039
72.7446 154.618 129.384
123.62 40.9238 140.456
122.968 76.462 87.1738
84.8507 92.0337 64.8043
87.3527 43.8738 165.698
91.776 87.5673 186.303
71.8732 47.0911 148.559
96.3523 64.2364 79.5877
21.7057 180.281 113.318
81.7782 97.4788 106.205
107.761 100.432 191.777
67.919 64.2573 110.992
29.3908 184.563 52.9977
87.1975 99.59 179.039
14.1825 153.887 153.228
84.6814 162.67 111.814
65.6331 120.953 110.921
93.3733 201.273 113.657
130.014 49.1197 186.742
144.53 86.8885 201.518
12.9527 145.473 113.924
74.6797 184.419 80.3015
68.355 195.389 114.157
33.6124 157.816 76.1502
125.734 60.6905 187.641
20.18 165.827 117.98
33.7061 179.794 127.033
123.707 73.2037 79.605
81.6747 125.9 65.0458
70.0579 92.3257 144
95.1458 117.264 156.664
68.8764 217.843 86.6165
131.431 130.485 65.4131
83.9206 208.225 89.2514
75.458 120.396 57.0766
92.8392 59.5655 84.6199
131.797 95.2628 63.9135
144.192 107.982 194.956
16.2001 152.429 125.812
92.4966 192.823 52.7043
71.5797 52.7695 142.908
116.383 37.2675 142.767
50.675 154.759 166.283
85.3406 191.141 48.1452
11.243 168.496 142.141
89.7387 123.359 167.533
37.0061 230.975 91.5862
86.5348 36.3005 113.421
157.009 42.6746 153.883
105.247 37.2127 104.722
14.6959 148.953 143.957
62.1092 198.9 57.7466
29.0285 159.879 165.134
65.9572 159.678 150.015
130.898 44.3114 103.736
120.797 46.6745 96.5474
30.3181 142.7 102.884
93.9372 34.7586 108.852
19.3808 157.791 80.7187
120.289 82.0779 203.242
86.6061 101.572 67.5677
36.5338 113.68 161.773
22.9747 146.978 101.718
69.0088 152.547 66.2361
101.69 184.163 50.2112
87.3076 73.5975 155.931
50.1922 137.411 99.7435
92.7609 179.678 45.0144
63.0803 177.455 44.6605
69.7115 201.271 124.231
52.985 126.238 104.752
48.1453 221.399 103.056
77.6693 88.5115 147.956
34.4801 214.526 40.2863
92.3493 23.6867 148.377
22.0775 191.04 124.377
136.34 78.6349 92.8139
56.7761 111.979 131.664
11.541 162.286 131.634
108.556 183.679 51.9197
82.5757 174.22 146.209
27.8114 185.787 123.017
111.41 56.8881 157.553
21.5395 159.721 97.8694
12.6263 145.266 124.07
69.8843 132.973 89.5159
24.0612 224.304 101.761
8.51844 210.775 59.6058
146.184 70.0574 121.944
121.45 91.3025 206.066
56.3291 117.647 147.113
83.7619 112.9 138.151
11.4321 206.026 88.5425
62.4332 103.334 111.88
95.2566 134.045 56.2593
57.7992 199.465 84.929
161.092 48.6866 184.36
71.7293 190.853 54.5061
71.8627 79.6888 129.651
62.3455 110.183 133.993
114.932 58.871 176.717
149.617 47.3675 112.711
117.671 28.2204 112.84
67.8909 145.508 69.9959
146.992 66.5199 96.9559
66.4254 172.133 81.1369
122.256 95.4733 58.1364
101.893 166.883 38.5968
49.1351 191.182 141.525
23.5488 229.398 88.8799
90.0803 107.029 154.77
110.003 51.0107 86.0124
58.8974 220.95 63.2645
119.112 102.725 56.6047
109.86 93.7336 62.0783
65.4877 137.86 80.0484
13.5299 173.418 121.602
87.57 40.4511 108.119
58.1637 112.082 109.7
37.1051 201.978 49.878
58.2802 223.561 83.1425
60.4724 211.303 94.6295
65.5227 80.7578 135.753
115.691 51.0431 149.598
13.3951 135.01 160.832
95.4615 51.4446 87.3774
149.868 69.5698 113.123
123.371 28.1076 127.193
22.6111 204.385 115.148
76.5819 204.885 118.084
113.105 82.8728 63.2863
35.7506 136.434 86.3511
130.887 118.438 72.95
76.5754 173.468 54.6201
34.0213 154.355 162.627
16.6226 230.46 76.7103
118.549 67.759 188.44
43.1538 104.813 109.615
102.822 131.749 40.5981
37.2055 146.356 57.862
40.76 228.255 96.8606
89.4221 55.8178 177.433
111.924 43.4206 93.9493
134.424 29.3275 146.034
69.9186 123.388 102.972
74.8646 168.025 124.92
18.7898 156.173 101.916
43.7612 206.149 122.547
32.2287 148.58 62.9657
69.3965 80.5843 124.927
99.4993 132.272 167.79
75.3108 111.342 161.614
130.58 32.9111 114.055
18.8585 173.908 103.339
72.8388 112.08 75.6926
68.7692 170.43 64.0083
118.192 38.5764 98.4232
116.402 107.914 65.5501
90.7564 119.856 174.311
84.0206 149.579 98.3593
51.3292 153.056 81.6769
83.8838 125.672 137.857
49.067 118.416 135.902
50.7577 176.817 145.657
74.4535 72.1526 151.726
92.8877 42.4599 103.386
117.894 89.4118 75.5978
55.4412 95.859 81.5814
129.112 68.7996 197.442
71.8271 104.212 157.203
47.3417 117.901 141.521
69.1869 123.32 119.618
81.4693 78.1412 73.6583
22.0144 166.244 103.348
117.345 57.5558 153.805
31.6042 182.615 49.1259
15.955 167.697 97.2194
45.0915 174.978 153.827
19.5111 109.184 128.173
25.1539 204.79 108.038
115.097 90.6832 202.886
89.6942 104.744 180.705
148.504 49.5885 166.554
98.7743 175.051 64.13
67.7913 194.935 56.8049
90.3364 98.9916 145.055
89.1096 52.225 100.466
69.6095 88.841 113.983
76.6003 100.865 157.661
72.2845 117.036 50.8455
29.9898 220.6 103.859
95.181 99.6922 190.344
45.0634 109.877 140.485
120.051 55.1614 181.357
58.17 178.136 122.592
58.0084 176.136 104.411
64.0196 143.89 159.251
115.457 63.5361 161.782
136.108 143.79 55.4342
57.2775 175.714 112.666
76.0096 210.565 87.5354
91.9515 165.364 101.787
123.802 29.7239 117.628
97.3858 161.231 33.9042
36.5892 154.932 54.3185
71.0154 83.0897 143.615
89.9758 169.193 135.678
101.055 54.0421 90.0564
16.3355 152.923 107.8
112.099 102.466 75.4648
77.4283 171.725 65.893
138.664 88.8659 209.802
72.8578 174.425 46.0762
118.996 74.6289 193.926
79.252 131.862 154.802
62.8838 88.4496 93.242
83.8917 33.3214 129.312
137.414 58.7327 175.679
82.1959 108.374 157.848
107.556 122.546 192.97
94.4667 116.008 164.782
76.6327 179.252 142.597
68.8101 104.797 110.18
56.0288 166.508 121.458
14.1042 190.359 98.0135
69.0354 79.7254 89.0291
104.24 140.743 57.1186
109.055 113.274 185.482
42.5876 131.151 60.4115
19.3182 173.857 117.181
16.3378 150.449 118.998
71.2295 117.844 132.876
70.4636 210.768 109.753
143.669 61.3627 119.66
108.988 123.935 42.3507
82.4964 98.268 65.7189
30.5765 201.669 122.472
86.8265 159.963 153.461
149.848 41.8994 174.593
98.1516 24.9354 107.662
43.7653 144.653 72.1722
66.5771 103.235 141.199
40.6145 192.523 141.316
121.932 60.7461 161.834
89.3951 118.522 138.421
72.1576 164.998 115.827
82.68 113.469 64.9596
10.072 216.199 65.8317
113.372 111.1 200.603
73.2152 63.8731 126.632
77.75 40.4684 139.367
64.0937 101.156 125.109
37.4221 130.287 116.745
102.608 146.853 36.7897
81.8605 181.59 130.266
102.115 74.0149 156.235
17.0213 215.946 96.5593
41.6819 148.744 104.367
113.146 120.96 46.8921
62.7187 91.4825 77.7232
137.111 44.74 187.508
126.653 111.026 54.8568
124.531 105.339 79.6229
59.5604 126.645 131.454
94.7618 106.843 166.807
35.5583 131.943 93.4211
30.2901 105.694 152.36
134.891 39.4191 167.621
81.4961 123.238 125.533
22.2657 121.438 116.916
91.6154 95.513 185.5
57.0136 172.444 148.715
36.7667 174.474 153.413
82.0987 99.2774 61.2633
140.165 34.1877 126.884
80.5704 208.664 96.709
13.0152 128.356 119.142
93.8764 137.687 49.0581
113.342 63.0301 86.3806
39.0951 194.562 127.578
68.55 56.3265 121.423
54.4939 124.296 136.724
97.9941 79.9533 64.815
78.6863 168.785 102.315
26.0045 171.435 57.9071
64.8221 190.869 130.994
67.6847 144.063 78.6979
112.46 86.5934 70.0071
114.614 76.9471 78.8833
17.3304 115.753 149.174
25.9232 152.919 165.205
61.9181 185.28 101.315
156.468 42.9054 164.7
63.6677 218.047 86.4705
143.307 125.422 61.4513
81.0479 197.398 99.2121
116.632 138.098 52.0211
78.0161 201.185 124.291
92.2577 85.5782 63.7471
18.7557 139.871 104.858
23.3898 180.474 120.024
78.8858 105.165 59.4428
82.1441 58.7193 171.728
29.5292 164.984 61.5834
41.3306 186.115 145.774
126.723 156.088 44.2549
42.6263 231.066 84.7464
89.0619 32.223 121.409
95.714 168.084 76.2772
91.6221 147.636 33.5136
53.2083 101.201 107.636
18.519 218.361 45.3876
32.9829 102.817 132.031
108.042 67.3184 159.592
105.811 114.377 117.638
134.068 48.5168 98.2937
149.658 66.1487 128.139
112.418 173.427 53.9447
88.3028 192.067 89.2309
44.059 149.277 168.97
113.626 73.8608 198.597
15.6924 172.876 141.1
127.252 44.8855 99.8231
74.1439 82.1668 76.2978
131.798 58.1491 188.272
23.5149 158.182 92.9625
111.775 75.0498 86.7134
15.1875 117.95 124.17
63.9061 177.929 119.5
50.4683 123.327 147.917
65.5931 159.741 67.371
17.6275 143.183 125.817
70.8325 165.178 151.639
63.5984 155.194 152.497
24.7847 226.872 95.1797
79.5048 185.531 138.355
21.7871 155.322 129.581
87.0102 117.166 48.9955
79.3587 129.391 61.955
109.317 27.5633 151.265
95.1586 112.663 199.989
112.436 130.756 45.6012
152.789 89.0817 209.159
12.2505 163.588 103.354
160.741 57.2101 118.273
129.14 117.665 56.58
91.9228 206.911 91.9973
46.4569 101.975 79.4381
105.802 79.9 174.868
56.8029 153.03 132.647
72.2505 124.794 69.1919
26.0093 154.539 130.061
54.1829 188.804 137.582
42.357 110.957 146.639
110.874 66.8555 76.7587
23.8085 134.896 98.0004
20.6141 218.958 99.8737
18.367 207.731 130.073
78.2907 58.7791 165.979
32.0301 158.309 87.6951
50.1381 209.424 109.462
45.4721 111.27 131.787
56.7456 225.647 51.8585
112.556 116.368 193.587
43.4502 222.037 100.341
59.2102 126.369 156.099
99.3178 39.8903 100.289
22.4902 200.482 91.7911
12.1763 167.977 153.669
156.244 44.6483 144.54
116.783 62.5159 185.275
47.7145 186.021 145.269
53.7754 207.221 114.894
60.2686 150.456 155.604
59.4381 68.0847 113.144
151.983 45.8612 190.766
131.381 36.0813 163.423
31.3564 118.652 117.114
62.03 172.978 147.847
107.73 86.1001 77.3843
77.3322 113.986 137.285
75.7514 142.428 70.9942
81.7078 71.6546 78.7384
140.287 41.2359 158.891
13.4367 207.512 128.271
81.2038 200.959 108.874
15.4121 133.17 120.32
166.136 49.2318 150.227
166.458 79.6278 155.501
109.048 153.437 35.4311
72.1292 108.298 129.78
74.9831 99.0912 62.8842
56.6355 160.657 81.8205
53.1533 219.086 93.9751
76.3393 147.943 46.8995
55.4053 187.413 50.5008
76.2671 198.478 67.1072
26.7135 123.041 115.439
147.773 38.1934 143.949
123.948 56.9361 169.135
27.9208 195.041 58.6633
140.718 72.1064 205.87
60.4564 194.897 125.697
15.8484 192.363 117.298
76.1037 111.823 58.3262
80.363 187.79 74.0605
68.5328 131.572 142.423
73.5894 132.478 150.09
85.3122 179.259 78.3678
137.804 55.7524 194.606
155.273 64.8631 101.994
11.3347 133.081 144.597
105.024 66.8519 153.894
36.8897 221.343 104.51
89.888 74.9632 70.3035
90.0577 91.9243 172.788
143.024 37.8499 132.843
129.527 103.984 84.8021
141.927 68.3873 92.5405
139.866 39.4841 173.691
86.5318 96.5566 171.894
124.515 72.4392 97.4087
57.6808 129.081 161.416
75.5017 76.0998 170.246
57.2833 171.431 160.767
46.0806 218.408 45.1315
122.018 125.724 46.6988
68.6116 86.2268 145.395
29.0749 213.103 109.979
25.5226 163.043 73.1401
72.102 88.9236 140.829
64.3632 134.806 155.32
111.23 57.1533 77.9847
112.273 37.1256 98.2887
66.8562 143.775 152.589
92.7576 175.81 118.811
70.0005 137.276 152.56
163.995 105.554 161.197
19.1516 144.333 107.908
70.5453 84.9223 134.665
118.122 32.0014 104.558
64.4667 80.1636 122.714
84.0265 173.814 130.553
117.405 82.2238 66.8175
84.5663 169.85 83.1434
147.942 56.2535 104.338
48.3659 114.537 150.271
121.654 120.384 52.5373
68.0429 93.3985 117.555
86.4191 96.37 142.402
116.245 97.0157 59.7001
42.1998 201.728 103.429
120.396 116.076 48.7944
82.6344 165.919 139.2
101.276 98.0377 188.217
11.6782 128.311 153.632
59.8386 217.772 89.7493
131.923 93.3839 207.376
57.5079 134.172 163.119
111.871 47.5156 158.227
62.4242 128.806 145.887
123.973 32.9801 107.672
33.1545 166.98 54.8756
72.2793 96.792 122.863
138.373 36.7218 148.417
88.5639 201.22 107.108
53.8893 146.15 75.6072
64.5779 204.075 108.224
87.7494 157.535 109.549
23.398 132.019 111.029
76.1204 191.787 128.544
104.25 80.5028 78.4403
118.223 98.5764 80.2347
69.1304 68.0191 146.357
115.913 127.313 198.574
68.8656 142.187 142.216
24.5577 158.914 82.286
82.7472 197.509 118.349
90.0329 194.984 119.552
78.6108 147.404 145.936
61.777 195.674 85.6302
60.1521 165.099 34.2217
149.638 95.3869 209.326
26.9342 192.776 96.499
112.822 126.604 42.1845
137.786 45.0905 106.409
71.9118 197.971 94.7269
62.8056 229.495 64.057
70.2268 96.5228 66.7463
103.612 81.058 163.125
82.5161 144.332 152.143
88.5254 183.655 128.391
115.071 141.55 34.0292
100.352 167.411 46.7545
98.4033 115.177 45.2161
68.8806 84.134 119.814
87.7595 61.273 81.7261
54.7862 152.165 163.427
83.6391 176.716 140.236
69.1457 105.137 123.357
35.7044 210.658 115.713
37.2242 216.395 110.696
69.9077 185.514 48.3617
148.11 60.1347 183.167
136.316 68.1594 202.723
86.0145 207.475 96.3361
56.5397 218.279 97.6247
101.462 33.0125 109.21
63.4843 88.2757 118.881
128.097 84.5701 93.2652
153.323 69.2742 98.2799
151.475 42.8973 120.582
23.1224 147.275 77.979
61.6382 169.441 127.322
85.2476 87.6512 68.857
117.166 53.9471 187.451
67.3628 104.867 132.294
55.064 182.683 112.079
135.545 85.7039 86.3462
89.0278 127.985 143.914
28.6746 130.242 126.646
52.896 176.752 155.407
143.341 138.909 57.4458
152.667 99.0937 190.736
97.6013 171.468 141.888
111.761 99.553 57.6074
63.6452 201.435 125.676
78.4086 168.951 92.889
61.0222 182.427 140.17
83.6734 188.563 130.307
54.1737 209.8 106.561
73.7599 143.23 147.534
41.8632 159.056 66.6129
72.8665 162.685 141.989
128.287 73.6553 204.925
154.224 44.9222 138.623
17.8966 136.865 158.367
85.7557 168.475 35.9394
45.2267 117.597 65.0636
49.8119 171.095 154.261
94.8488 100.493 182.814
143.259 40.3158 124.77
104.703 102.998 56.9209
126.5 97.9901 208.476
103.005 106.503 125.718
162.217 91.2174 140.328
58.7379 170.76 123.083
48.212 109.65 73.3511
53.5962 125.517 53.7613
59.3061 134.983 156.501
136.999 100.15 65.6403
9.50753 156.752 88.1912
89.8441 113.703 180.504
145.968 77.0282 113.408
165.09 72.629 148.648
146.287 77.879 209.607
39.9234 152.906 170.68
74.4896 157.37 148.144
95.473 126.26 40.0911
124.747 88.3699 76.0703
30.5389 209.609 96.3307
72.9727 147.854 72.9505
127.641 39.562 166.031
101.975 154.111 33.8796
65.0955 169.1 158.507
75.0372 185.446 48.5917
74.7384 111.168 82.9968
52.7799 133.158 49.2113
47.7129 229.779 71.1291
133.331 112.625 191.567
115.942 49.7636 128.362
69.2434 209.181 101.676
76.8316 121.392 141.408
19.8345 142.492 98.1586
72.7214 210.296 93.5532
70.8777 95.8898 131.121
72.2157 170.958 106.762
166.694 83.2264 203.778
96.4154 160.142 131.944
63.8959 132.308 69.0478
42.946 209.186 116.488
58.3654 211.217 60.4618
143.199 61.2649 126.857
127.135 56.1153 194.074
139.427 120.032 58.1932
41.3579 198.639 136.126
152.112 47.1217 186.089
107.526 86.5368 59.5401
124.839 63.8439 79.72
64.1146 180.609 152.142
68.9819 155.568 147.439
42.3167 231.344 76.9212
86.7276 170.662 92.6085
17.6978 164.693 107.626
72.519 91.346 70.2575
12.2442 206.803 131.733
66.1113 77.2284 107.219
121.433 47.339 111.283
24.7127 172.392 129.926
78.4305 208.129 105.967
142.296 92.1403 71.2087
64.2806 148.029 83.1824
167.633 51.498 175.291
81.745 196.691 124.876
55.198 129.455 51.5026
91.4975 117.401 153.265
81.4825 127.259 159.845
65.7546 150.6 153.467
55.6385 115.941 138.386
37.6284 154.949 64.9899
140.37 117.421 64.7174
63.9214 208.578 66.9316
111.992 145.888 55.0741
67.7291 83.4841 83.7719
64.6499 211.449 77.2495
41.9625 142.96 111.055
69.2795 222.027 64.0193
152.761 50.3449 148.042
100.606 116.452 179.695
132.041 40.1319 111.195
135.872 112.739 59.7981
75.4226 128.933 68.202
101.036 163.354 102.96
150.093 45.4602 126.592
41.341 230.944 50.8929
87.7093 201.046 81.7475
12.8361 138.391 156.371
90.1589 205.959 99.9917
75.9818 85.3862 141.298
81.1356 148.158 35.3438
10.0029 176.286 103.422
49.8678 116.038 61.2353
62.2152 165.397 63.7191
94.2383 127.706 113.845
76.6223 169.849 37.8089
145.752 42.5589 140.114
62.5763 178.067 104.823
151.77 93.8033 153.789
47.1233 157.47 68.534
42.1056 214.21 114.551
155.648 54.0285 111.681
131.108 111.475 205.839
43.2192 141.83 104.089
42.0559 152.123 160.104
83.8301 195.544 129.839
66.2136 176.476 116.083
144.583 45.2272 152.459
59.0242 122.457 140.924
63.1813 187.581 137.437
68.5718 214.794 97.2937
76.7202 207.844 112.495
65.515 84.2855 115.336
144.151 58.4986 208.937
90.1315 173.944 50.6373
97.4073 173.815 37.9034
76.9665 117.969 148.925
128.777 73.4687 85.409
51.7831 116.013 145.904
91.5505 141.435 102.157
20.974 184.064 129.451
25.7748 154.524 68.5033
77.6484 207.217 73.1339
77.3415 142.652 153.341
66.4899 199.355 89.4047
31.9903 174.687 124.802
90.9621 152.074 140.732
25.4935 140.077 98.5632
68.9716 109.819 136.891
50.4816 148.697 160.192
132.213 127.46 57.8786
152.074 57.6233 147.011
78.0113 164.682 146.563
64.6606 210.133 96.8511
155.507 73.9253 197.373
99.8436 125.842 184.243
79.4751 197.255 71.7279
94.2936 178.384 80.2532
37.0566 176.428 126.192
56.0955 230.394 66.3496
64.7155 96.7518 75.236
68.3966 153.636 158.521
138.134 50.3945 165.256
71.1118 122.312 144.402
53.7754 228.777 56.671
77.6338 153.978 165.738
93.4415 112.795 185.778
27.439 156.655 74.596
135.34 45.6193 159.432
57.9071 211.715 102.941
108.103 58.4986 80.9562
121.511 114.279 204.735
67.4308 179.051 49.1588
27.6149 213.619 97.3117
155.738 112.27 82.1091
101.783 94.4636 56.4064
85.2464 85.4161 140.345
75.045 215.199 104.763
103.189 103.733 194.646
23.293 165.887 62.5191
17.6479 214.061 117.766
134.187 105.543 200.987
54.0428 120.725 153.229
84.6611 166.175 150.035
94.3628 133.826 175.306
122.747 60.2311 83.1244
103.977 155.882 81.2033
84.4777 121.346 146.089
81.5103 120.107 162.132
24.029 107.564 150.585
80.7073 112.622 153.412
74.0862 208.957 100.712
94.846 200.619 96.8106
123.601 77.1482 76.3193
91.9046 155.042 37.4825
72.2955 169.718 56.2188
81.5406 118.323 154.499
122.339 162.727 50.122
96.9584 132.739 194.25
117.231 121.082 201.993
161.016 62.4547 148.359
124.752 75.133 200.41
68.8474 99.8706 127.78
59.7893 136.243 71.6268
77.6734 152.399 155.792
161.569 111.502 166.578
81.0107 182.373 41.3805
102.866 125.572 118.918
82.2135 167.433 87.2493
64.9343 75.6871 125.755
60.8022 206.309 121.109
28.3736 230.676 83.6019
69.8278 72.9629 119.656
106.175 176.299 44.9838
32.8166 157.267 61.518
92.1568 162.321 118.888
64.5085 84.9118 97.6398
137.86 37.5586 110.046
53.8998 213.176 119.606
132.235 77.9199 80.1469
152.355 75.9546 204.075
101.923 175.396 103.747
148.099 50.0828 156.91
129.274 116.735 80.8414
93.4812 183.297 130.257
19.9943 142.966 113.933
143.352 42.8997 162.445
110.967 139.234 35.3639
84.6891 197.499 112.523
110.632 113.272 120.065
47.0432 203.252 102.126
41.5637 158.003 160.859
60.9149 141.118 154.619
109.479 79.1229 82.5282
146.641 77.4584 106.202
149.704 40.983 151.21
92.5399 157.913 151.563
156.063 47.3599 187.606
85.5826 153.38 118.11
