ply
format ascii 1.0
comment Created by Open3D
element vertex 160
property double x
property double y
property double z
end_header
50.9066 105.865 55.5581
7.70909 117.653 115.874
4.52709 164.781 71.7791
3.92495 96.2102 115.373
9.67422 88.4265 99.8548
9.09406 101.198 108.874
24.6486 148.798 56.8151
30.9718 136.619 56.3443
9.40365 164.967 92.9558
17.6881 113.642 133.186
24.9913 100.068 125.256
24.8572 99.6143 156.022
8.80336 118.291 100.116
38.7239 125.56 15.1598
8.03251 121.61 71.4015
13.9761 102.588 79.4332
18.2948 134.917 111.62
26.8124 95.812 134.403
20.9473 92.5899 139.258
26.9402 143.235 15.5327
20.2788 44.7723 58.7807
41.9635 84.4566 69.1718
20.4029 124.189 121.144
2.89036 151.616 93.8743
49.9872 96.8718 57.4143
32.1481 123.048 88.1097
14.6294 154.866 51.8794
10.9338 109.15 104.111
20.8468 103.59 90.9555
20.9457 115.634 92.0569
19.7702 107.679 115.827
12.8236 100.643 70.2091
19.3948 125.17 91.3239
4.84946 101.597 84.3654
30.163 46.082 57.0651
18.1094 160.928 97.7163
14.1426 96.2037 137.648
3.47978 132.587 69.8972
4.35892 101.296 94.9489
8.63576 140.743 161.797
9.22253 138.588 86.5758
12.2891 127.027 82.6677
30.3846 86.747 138.161
56.3812 229.377 245.645
12.5376 105.082 54.7151
7.79383 142.636 93.4049
26.9591 109.774 160.356
17.5871 113.162 78.1783
34.3329 131.919 17.0633
29.2564 31.4055 58.1084
7.4742 109.604 77.9225
8.37602 103.823 58.5211
4.56767 111.646 89.3704
7.97625 133.76 100.896
23.9006 126.543 102.32
9.84262 9.99417 26.3212
17.0538 90.3107 128.711
16.4005 92.8093 87.2875
18.4073 109.243 83.5688
5.03784 122.681 82.5575
30.0065 88.0217 130.562
18.7067 106.621 99.9187
2.49794 146.189 85.3205
29.2623 109.9 87.0859
11.4113 134.782 68.1738
7.88764 9.76312 5.69401
68.4352 86.7571 75.7029
32.6576 101.129 143.333
5.85224 34.887 5.75104
37.3535 88.4651 69.2932
19.6702 96.7971 109.968
10.7963 123.544 91.6949
20.5649 10.2032 29.9875
21.927 157.927 57.9583
29.2497 105.547 103.452
34.6495 118.541 94.9455
2.72972 135.157 83.3869
4.94647 51.379 8.9317
20.3143 87.8385 99.8488
18.1681 2.15123 20.7749
4.17586 128.587 105.355
11.9003 137.44 76.2988
12.259 153.193 81.7509
34.9785 30.1137 10.5273
10.7065 160.6 76.7538
24.8729 9.57595 15.5477
17.2707 9.8946 3.63233
20.2511 118.215 101.171
18.5045 162.558 76.8575
12.4683 148.891 98.5575
22.9043 100.096 74.9503
39.8432 112.471 138.377
42.4119 98.6428 150.044
29.5843 99.3828 85.4373
27.8154 133.364 13.9717
25.389 124.979 110.459
8.74713 155.535 88.7951
9.08286 26.3118 8.9822
10.3147 24.1241 28.0218
25.0972 151.017 94.211
25.4713 92.8828 94.8563
10.1814 146.519 76.8372
20.6958 121.798 61.0713
18.7546 134.71 88.6414
32.7791 99.1037 74.1321
23.0452 142.213 90.4735
45.189 40.3389 8.31737
25.1347 125.704 86.7428
44.5107 96.2625 71.8089
63.4779 88.7408 69.9003
1.9743 104.4 104.934
10.3269 113.201 64.4521
70.5819 87.1753 65.0312
30.9368 36.8233 40.8539
24.3529 145.536 49.2103
23.6438 108.843 135.65
23.558 41.4744 38.8301
24.0795 116.114 131.15
24.1498 33.2728 41.8957
27.8087 90.7734 124.745
46.4134 97.7519 129.717
64.5075 98.7552 57.8484
39.4897 85.9714 74.1792
41.2677 160.673 65.2954
27.2784 151.265 49.0704
8.53206 9.81796 14.8433
26.0407 150.231 83.4533
25.0098 16.1637 3.14384
15.5683 12.07 20.5323
26.9329 135.298 96.8769
33.2481 103.206 135.061
83.6599 89.6445 82.1322
80.254 96.5964 87.0362
81.8876 86.7907 72.3784
13.5585 149.048 50.9513
26.9818 107.783 65.9917
19.0436 148.728 86.1374
23.7653 38.6234 46.1778
11.776 1.56511 2.50849
7.49814 16.2684 11.5278
12.5923 20.9908 21.4402
26.9562 19.4167 23.8631
21.1438 111.854 62.0569
37.0818 127.722 55.0779
22.23 142.307 66.8768
21.2574 109.849 54.0155
55.3651 91.3462 83.106
29.1054 104.965 131.421
7.08994 41.6527 1.16448
14.3057 108.324 60.4551
28.6175 37.527 35.6769
30.1509 131.029 76.7471
37.4795 146.251 95.2568
21.7473 37.7016 41.2381
27.7416 168.088 91.987
28.7794 37.6438 45.1254
27.2069 91.5464 143.033
18.0007 139.955 84.0503
5.05866 108.55 62.2277
15.6325 31.2963 0.969952
