ply
format ascii 1.0
comment Created by Open3D
element vertex 188
property double x
property double y
property double z
end_header
67.9257 115.363 234.934
4.67489 119.645 55.3233
6.62602 156.412 80.0879
10.9075 91.9991 69.1322
7.24051 115.226 66.9251
8.26658 127.503 62.0717
10.4236 149.666 127.265
7.35103 155.074 131.989
3.58328 131.029 163.798
3.18612 131.463 66.6986
3.66833 150.785 102.739
2.60127 144.366 166.134
3.367 129.775 75.415
3.79901 98.4548 97.0991
8.29279 107.386 110.022
7.41112 159.938 103.132
4.27154 107.52 70.8918
16.7741 129.618 102.102
10.364 124.074 130.194
5.75004 141.003 141.199
21.1189 124.693 87.2406
5.05541 150.865 71.4862
19.0516 102.442 102.018
9.52983 86.7305 79.7483
4.53063 122.578 76.8286
10.444 143.158 98.863
6.72585 154.856 121.89
3.68682 127.033 157.029
2.79002 105.574 62.3409
10.2814 146.253 135.526
13.7087 116.385 97.87
4.37852 147.428 111.65
11.2314 151.484 115.944
3.84711 89.7227 79.8688
6.92839 127.208 85.0484
4.47964 132.547 57.8845
15.145 72.019 185.384
4.96573 109.111 191.696
4.21969 174.695 190.431
6.67325 129.048 132.584
6.49793 85.903 181.112
7.02204 102.669 152.53
58.0521 184.643 122.231
17.7325 98.8793 69.2281
29.3941 129.372 99.8788
25.7118 221.667 254.687
2.56181 110.428 51.5765
5.74474 126.603 180.666
4.75248 129.942 235.502
2.71056 189.934 220.097
11.3243 223.18 213.271
13.167 213.129 187.225
6.85882 136.995 88.9239
12.2083 132.365 85.3971
11.2759 123.832 112.585
19.0816 110.586 100.154
23.5285 104.773 97.5777
8.05989 113.716 85.0981
2.91318 108.478 181.849
2.86736 157.546 113.841
6.37012 104.644 144.738
5.04798 179.131 182.616
3.66449 144.246 127.671
2.24774 202.617 199.892
9.90832 198.274 210.978
3.71059 190.87 197.079
8.16682 141.472 107.384
14.562 107.116 103.586
13.8186 104.052 76.6444
3.38749 77.9333 186.001
10.2463 104.23 61.9833
2.88744 204.131 189.354
7.2853 100.784 113.3
9.36951 230.191 266.401
3.52032 115.526 189.406
4.29626 109.33 197.857
10.5675 128.412 92.5983
5.83873 92.6742 185.24
7.5529 134.669 76.1947
9.64782 129.908 202.299
3.59281 142.306 85.8102
10.2122 142.012 115.743
21.1179 114.993 108.477
6.18321 186.385 206.175
8.59258 154.569 89.6181
8.73129 105.144 100.891
6.73457 136.013 185.955
13.7681 133.431 96.3946
11.3232 144.467 198.578
6.18181 147.218 120.662
2.916 142.787 211.142
4.34434 113.675 178.604
13.3573 117.309 88.1645
13.8113 137.727 87.0652
2.4859 154.528 91.9296
9.12268 190.443 203.899
12.0012 85.0032 210.391
65.9844 133.388 153.034
4.26015 146.331 98.8975
13.7598 139.262 101.209
6.22885 113.341 152.507
7.78841 107.473 207.388
2.79922 99.767 141.282
3.75252 122.575 63.2006
6.13354 142.949 92.4253
17.3429 131.065 110.902
9.71158 93.1355 153.323
14.6061 137.497 114.239
5.16798 194.505 216.047
10.5147 123.211 86.2739
2.29243 134.956 85.4656
8.73985 145.877 212.353
2.35709 140.756 74.817
6.68952 140.847 122.218
7.44841 139.906 130.226
3.31925 91.0549 86.9713
13.769 132.487 127.789
14.2279 121.133 93.1223
17.4199 123.053 104.286
5.30747 74.7637 200.562
17.6275 97.6281 88.7433
17.2813 137.891 108.437
12.8441 109.552 82.7369
16.3529 117.816 112.657
11.6676 144.999 111.519
13.3053 135.021 105.144
8.67867 112.793 79.1976
5.65709 111.791 119.564
9.63036 116.149 73.2422
9.0921 116.218 117.087
13.7576 93.3428 89.5326
9.03615 135.723 132.274
13.4825 107.327 206.028
11.5914 113.157 108.739
7.67296 82.5219 197.931
14.3822 119.749 80.1069
25.4158 188.432 177.615
1.75996 146.957 88.2582
6.77521 114.086 126.919
10.6508 124.117 97.7078
14.4959 135.399 118.906
4.36812 93.4297 166.282
1.79659 88.6157 186.55
21.6413 115.16 85.397
1.56142 178.953 185.704
24.19 110.672 93.5382
7.4928 95.5859 86.7459
25.0871 113.532 89.7684
11.9 231.27 203.972
11.6756 130.277 123.152
6.68161 95.7278 209.06
19.3157 110.253 89.117
4.98982 76.5464 193.49
17.5924 130.049 117.491
11.8594 139.073 94.0316
1.35844 47.3998 167.714
14.107 78.5221 198.01
9.66049 91.227 196.952
10.2553 114.36 189.528
13.4156 95.6 76.8365
2.65626 69.359 178.347
58.3159 172.505 118.603
14.8542 113.334 74.099
25.9013 101.518 91.6573
13.6957 79.5403 203.427
14.5222 94.3535 83.4264
11.9126 101.632 82.1834
8.9381 137.329 125.208
6.76739 153.718 108.055
12.8182 201.757 206.695
9.20068 78.3684 188.704
3.98459 210.008 127.186
8.94566 99.0644 142.55
4.56076 92.6816 146.403
9.27983 124.162 123.104
9.68541 113.437 205.9
8.25869 75.6585 181.571
10.6689 123.612 118.164
23.1349 100.178 85.8262
20.0692 105.073 83.3255
10.4311 110.097 197.389
10.8726 102.428 92.8775
15.9435 3.97059 84.4666
11.4827 130.702 207.889
4.15006 197.337 146.888
2.55821 88.009 198.362
6.75334 119.488 112.361
16.5329 107.39 86.9913
