ply
format ascii 1.0
comment Created by Open3D
element vertex 645
property double x
property double y
property double z
end_header
24.7958 120.753 93.226
10.7632 40.3987 132.281
45.459 137.877 55.3831
24.6734 39.3355 177.638
9.66582 159.054 23.0127
41.6769 75.0522 98.37
40.8103 65.3057 101.452
13.5114 28.5971 129.563
66.0856 64.372 148.95
29.2374 73.3177 100.467
8.78888 81.4778 81.4418
9.02564 102.585 55.523
29.3958 17.8733 162.519
28.4378 83.9818 101.602
32.1416 67.7535 105.956
40.9345 60.3291 78.5596
9.18031 125.252 28.8347
15.5037 64.9943 109.183
14.3433 74.8973 159.929
41.8243 78.1209 159.741
7.10533 90.0047 59.6356
12.9428 57.9864 128.147
9.99824 67.8202 113.404
40.6773 111.823 132.704
10.8613 18.4373 74.677
23.5712 84.2965 153.888
19.0471 113.237 103.323
8.66972 94.4409 121.736
7.70455 152.766 16.0441
23.3488 117.12 63.5873
21.1784 52.7845 110.44
8.45567 41.0952 49.0149
61.5977 67.701 157.456
8.95473 78.9161 112.298
19.4846 107.298 161.242
30.2368 163.865 72.8312
14.7218 86.6746 33.6684
26.579 164.238 56.5442
28.7412 58.1146 108.611
80.5621 189.921 43.7117
32.2512 57.808 173.011
39.4356 32.4898 116.862
13.7721 71.4128 206.896
14.7008 115.03 49.0306
18.7429 31.702 165.467
45.6276 24.7165 166.519
7.71569 97.3483 149.048
35.787 55.7202 131.677
8.98622 87.9762 93.0873
9.79841 49.5385 72.9518
22.5855 106.826 58.1369
52.1067 30.2654 163.778
50.4639 96.3547 117.381
21.0995 64.1607 105.648
45.4693 150.157 103.391
24.7589 141.345 94.7881
20.7681 87.0938 103.476
7.80436 102.283 161.206
8.23555 77.1503 240.235
27.5553 112.014 88.4562
60.7881 37.6456 170.8
16.745 63.2855 239.031
17.7137 178.083 58.8682
12.2694 94.0366 34.0961
8.70708 176.808 131.512
46.2028 88.581 147.067
40.2639 17.6339 138.767
25.2539 67.7595 167.457
21.7577 69.1331 244.463
10.1443 68.8856 146.241
18.1364 64.8514 162.464
34.324 106.768 92.3581
44.9359 86.4857 104.67
49.5865 98.742 94.4495
9.25294 97.4411 87.2115
7.96577 91.2876 42.0502
15.6397 187.259 60.2891
57.1644 142.595 97.8689
22.0468 129.134 124.12
8.65107 108.042 121.603
46.3947 17.7405 131.545
60.9731 126.462 122.44
9.30357 197.093 112.285
13.5074 27.5681 155.571
44.6133 35.0568 177.946
14.1749 139.152 107.012
37.1819 21.0498 132.477
67.5419 59.8377 162.894
7.58375 114.398 39.3497
16.6319 38.2653 120.002
44.861 97.463 129.331
8.95271 193.883 40.7992
34.8434 56.3361 103.912
68.3473 128.29 128.314
10.8863 120.602 104.493
13.2447 149.709 266.515
9.03772 105.435 82.1458
35.5465 104.21 78.9631
29.5928 60.1907 136.842
17.176 131.236 109.958
69.1536 147.498 99.5381
13.8939 61.3944 247.2
23.8234 133.682 48.2298
38.4888 161.7 75.861
24.8636 123.151 157.792
24.1883 102.219 100.599
23.1012 134.378 63.692
8.76046 147.768 61.4721
36.3286 104.983 147.379
38.469 117.934 68.0298
43.5859 198.097 115.393
7.80347 95.749 101.935
7.27263 98.2817 113.449
9.23955 53.4482 54.2621
66.8184 179.275 68.7538
13.9564 137.154 9.04389
63.7551 122.742 65.1229
7.1723 137.499 146.16
8.54678 22.0946 41.6075
26.0771 114.243 115.099
30.21 47.6546 114.221
19.9038 22.1704 131.851
34.3566 144.554 87.9705
38.5811 125.933 54.5985
8.11792 73.9312 70.8201
29.8198 34.6098 116.908
13.0187 52.6597 165.234
53.5 91.7093 133.127
37.0403 26.7157 170.968
58.6229 25.044 142.546
7.63963 67.1292 136.119
18.7018 129.746 94.5679
29.8283 103.429 37.568
9.00355 122.697 119.321
13.2675 123.097 88.0512
36.2801 38.5392 110.06
8.62722 66.4658 83.3429
80.6208 154.323 113.36
64.6586 125.975 101.14
28.0897 28.3416 170.386
48.3377 48.5879 88.2042
25.3765 149.938 86.1567
38.1014 108.457 117.311
49.3449 35.5622 122.252
13.3159 136.092 154.772
7.82778 110.746 4.46195
37.7284 89.8122 101.366
35.3064 16.9343 152.299
8.28961 133.424 75.3697
29.6326 89.5828 146.189
21.5452 17.4737 154.205
15.7207 67.4508 67.1225
39.1886 166.25 100.021
13.4629 2.71747 34.1497
13.2264 71.3177 243.918
39.9074 157.411 116.09
31.5005 115.224 154.183
15.6294 20.5316 146.416
37.34 48.573 144.464
66.9526 152.281 51.7905
40.0557 212.663 68.0011
38.1532 152.738 106.235
47.7847 135.217 106.223
62.7293 78.1763 101.352
87.7186 18.0866 129.896
54.011 86.5388 117.63
22.6699 173.034 54.5615
43.9795 54.4518 60.7844
35.4568 124.146 144.228
29.7335 76.2646 163.971
18.5923 146.207 83.6481
16.4502 215.537 72.1071
51.4619 45.5028 114.953
44.666 158.679 91.8284
51.966 63.5312 85.3785
9.77644 62.8454 62.1396
11.7967 213.721 79.6922
20.6011 222.228 60.353
9.14055 44.8257 144.371
19.4262 44.5193 245.553
20.4799 10.1164 109.957
7.69173 56.2487 133.585
17.4629 116.383 6.75152
9.04185 120.842 62.1931
12.5019 109.985 145.016
10.5631 225.766 68.9078
39.1738 124.898 89.8956
42.2381 181.142 157.053
81.0963 18.3339 122.725
38.891 21.0082 160.792
9.69741 182.915 84.7649
17.6825 97.5969 141.756
9.64077 198.236 73.1362
19.0964 32.2533 153.539
72.7956 188.388 66.3729
14.6043 138.666 50.2437
8.44079 150.962 110.192
7.96085 94.6546 70.7806
19.1716 97.8251 70.7228
46.8086 65.3521 98.8102
9.15256 30.5217 49.2687
39.5288 162.804 107.494
67.9624 219.932 78.7083
9.9663 102.052 129.213
29.7194 133.917 98.3634
11.3717 145.893 114.647
7.38844 137.043 161.716
9.02239 160.759 106.49
56.046 230.177 56.2822
9.23852 60.3893 256.35
11.4097 150.587 42.347
8.05399 48.3375 122.185
69.9317 53.7952 156.972
36.6609 119.515 77.2477
9.25093 101.643 16.6535
39.6519 138.6 69.4257
75.8689 140.856 66.5846
18.6346 187.399 142.467
17.8068 105.797 76.1194
7.42164 81.1714 28.6334
48.2441 189.05 112.89
17.0944 208.442 139.203
18.6773 48.2479 77.2318
37.1904 153.244 69.8085
35.4511 74.8845 153.188
31.2106 16.8556 142.383
14.7907 97.5011 26.1709
31.265 130.193 46.411
17.1843 75.4421 77.6456
23.6041 156.204 77.1112
19.2821 108.09 88.0956
69.2863 52.6524 147.664
58.8404 63.9832 166.828
20.424 75.3642 260.338
39.8679 86.3123 153.981
28.0961 134.105 111.535
12.4894 173.754 42.3278
24.1637 59.9833 71.6002
45.7833 146.614 89.1928
32.824 164.633 34.9291
10.2651 184.584 69.2389
39.5434 135.808 62.0398
9.62261 57.5904 142.688
8.49489 111.79 24.6068
37.9671 162.961 167.37
27.1287 154.314 50.5558
56.078 171.47 98.5221
19.4573 140.798 28.32
36.4478 55.1693 112.662
71.8793 137.43 116.925
35.821 187.063 150.72
55.4014 159.28 159.032
45.8867 114.176 98.5663
38.3611 114.295 141.177
29.3081 70.5649 143.495
7.88567 120.136 144.982
8.70324 127.847 137.553
37.4254 2.96347 110.88
18.2788 95.7247 93.6576
15.6603 26.3019 57.7978
29.5035 131.467 134.894
8.4782 40.4104 68.6278
56.1747 58.4711 173.833
16.2262 44.8674 116.433
40.6034 124.863 96.4217
8.36759 108.715 102.847
32.4633 175.04 151.731
19.5328 77.3785 105.765
8.49708 218.675 70.9171
13.636 131.231 115.305
31.3353 149.937 34.3947
72.2232 160.247 43.8164
63.0296 75.5132 135.69
40.2403 59.4981 121.056
20.791 60.3529 86.7925
66.8337 133.647 70.184
56.6406 84.7283 136.821
25.5355 133.271 56.214
65.0423 156.939 22.2364
8.94907 202.568 104.73
69.1525 159.319 73.6154
35.5156 99.5388 107.722
58.7533 116.018 74.9244
72.5515 197.736 86.3934
29.3846 67.5851 258.581
92.4903 56.6631 72.3348
49.5212 156.836 145.479
9.02581 136.49 60.4634
83.6807 177.914 53.518
28.3569 212.993 54.4624
32.1373 111.737 113.812
43.5663 108.469 123.687
20.1834 120.287 114.588
35.3463 119.68 127.625
11.5823 59.018 157.396
55.3398 114.153 110.433
61.2267 163.21 71.7887
14.1875 85.983 150.539
39.8233 59.6822 140.964
19.0337 93.9256 44.2762
45.8841 44.2042 146.172
25.1195 163.129 38.3794
54.7552 2.34462 119.383
23.451 55.2047 167.402
50.8889 142.403 68.0182
36.4255 174.593 160.484
29.2525 94.645 103.083
8.0243 151.3 50.8869
52.9482 46.6347 176.014
62.3701 7.36427 125.886
8.8318 11.7497 30.2473
64.5252 158.445 99.5375
78.7051 156.983 94.843
10.1088 165.512 9.47364
7.67839 186.141 99.6036
12.6176 119.193 18.8697
50.2166 177.188 91.1969
70.4089 117.187 77.9255
26.4869 130.403 147.056
25.7945 19.8615 137.528
10.649 104.48 35.5734
11.653 94.1998 131.925
68.3823 208.74 85.9057
74.832 74.5316 83.952
81.9367 64.5737 72.074
62.1062 167.078 143.042
42.9247 95.0799 112.555
14.0751 66.6433 152.609
82.086 129.758 25.8368
9.60232 195.531 164.904
15.174 109.332 18.8191
13.0498 28.4984 94.4749
15.5612 42.203 160.822
50.5912 174.394 151.343
51.9453 117.501 115.946
9.18114 139.226 42.3119
60.192 27.0811 155.766
31.1422 125.39 119.078
84.6444 208.945 123.889
19.7713 144.155 74.0399
50.5113 20.8162 70.3192
23.9807 54.0588 126.227
9.07189 41.5407 154.728
65.9291 47.0681 126.706
12.7339 115.039 119.26
36.7493 145.63 36.8322
57.5113 18.2346 114.985
35.2813 67.6826 165.711
46.6853 157.302 69.0033
42.165 102.132 140.627
66.9714 43.6918 78.5561
33.962 37.3534 178.101
7.28389 95.0409 22.5656
41.6506 183.389 142.979
28.3102 96.1532 144.595
36.4901 154.519 83.2043
25.3847 107.666 77.3161
15.9232 122.779 157.734
7.94245 9.53176 49.5782
55.166 13.4543 123.839
7.52446 205.807 42.0849
7.87428 41.6934 59.9575
24.3076 72.3694 115.182
57.8055 209.169 48.7399
57.0279 25.2298 134.531
7.73943 125.056 38.143
40.2057 30.7572 65.7831
16.299 140.487 95.1925
56.923 60.7159 129.342
12.5096 149.608 77.8202
8.11117 128.17 11.8911
50.0842 129.47 61.5941
8.67688 109.705 133.213
68.8495 41.0858 138.783
52.5445 166.545 156.934
53.7515 125.567 89.9878
54.7717 79.6279 148.128
78.1968 41.7563 74.9101
26.9121 190.478 121.754
15.4111 11.8709 73.6867
46.4974 17.1826 145.635
48.6628 161.667 80.6741
72.4184 145.913 57.8546
75.3742 49.918 69.4349
7.1515 116.367 74.2392
23.2468 29.2944 121.97
8.1356 211.947 65.3047
39.4878 130.89 36.6309
12.9179 31.0066 88.7275
60.0515 45.8211 83.3242
64.7695 42.2342 94.9678
65.5685 35.9774 122.052
57.1617 149.285 123.458
39.2144 154.482 170.554
63.0109 50.8014 169.012
60.9075 154.403 77.6505
47.9053 57.2701 175.324
29.0549 179.169 126.118
38.4537 63.4329 172.387
14.6293 86.1122 137.431
8.55897 151.098 4.56421
71.9629 68.5345 109.211
8.98785 82.0025 129.672
69.6167 171.642 49.2187
9.03069 48.5896 245.147
24.2346 61.5441 256.576
21.3958 185.343 128.214
34.176 45.4237 105.537
15.1333 50.2437 60.8393
47.2216 182.36 127.119
59.1194 83.6319 124.484
49.8021 33.2467 110.438
26.8907 167.113 47.3573
47.9531 165.208 113.572
9.19858 123.958 53.6292
42.6877 27.7647 47.7659
72.3842 186.357 90.1208
56.8643 57.151 80.7116
41.5682 169.585 165.565
44.8288 57.1472 131.531
73.3 165.48 36.13
52.0127 125.682 40.6082
16.9073 78.2363 117.861
8.8703 61.3521 119.169
5.75958 160.921 127.558
26.9596 163.014 154.202
7.24194 154.626 146.975
51.0372 175.749 115.155
37.3451 120.829 33.6088
9.33281 230.978 35.9724
48.9997 183.001 145.929
42.8417 148.429 52.4019
8.78212 30.8046 142.113
63.6245 176.752 26.895
19.602 127.887 37.9438
75.8918 73.7206 100.465
69.2524 4.30658 115.388
11.984 175.321 30.0983
63.7687 184.916 91.4182
19.8274 182.898 43.4874
7.98449 200.041 63.2187
14.1027 207.06 47.2892
38.5754 47.3264 180.813
25.0769 104.215 149.384
75.3442 134.02 19.9352
52.268 152.979 70.2481
28.4176 70.5295 151.237
6.62394 189.911 119.723
10.246 7.77561 41.7048
28.693 190.822 132.247
12.4706 214.155 42.0504
64.5557 158.6 62.4662
27.4475 113.965 272.158
8.13614 26.8213 69.1048
21.4257 18.9633 116.65
10.611 52.7386 151.497
8.53174 82.2476 145.242
15.6303 181.496 70.8836
50.7983 173.793 107.052
7.19981 119.35 93.447
45.0709 65.1035 85.5747
28.2627 65.8569 124.818
61.2495 43.6005 107.429
68.8579 158.258 109.766
24.6069 23.841 103.271
50.8552 73.2442 162.552
33.535 47.3373 256.239
12.0458 69.4575 262.068
74.6866 187.01 55.7601
82.5709 207.622 97.4873
93.0346 161.768 50.2369
61.434 210.722 56.5236
32.2246 153.835 159.639
58.4298 70.45 108.156
69.7206 40.8362 155.541
64.0024 75.3177 116.631
73.9053 165.698 4.75516
101.622 164.695 19.1779
26.9752 167.627 137.435
60.7263 156.991 92.9763
74.398 150.655 112.023
38.4623 176.902 129.417
62.549 42.8846 162.231
12.2855 163.149 98.0245
13.5436 171.904 81.5104
78.876 191.502 76.4023
87.962 45.885 71.5448
15.8285 216.734 59.9512
45.1471 33.3658 63.6586
34.6126 156.616 62.7539
23.8748 162.842 68.0049
65.6104 13.7568 112.42
15.5013 72.2976 124.488
7.77325 121.346 14.3644
82.4851 185.534 64.5655
36.4043 163.559 155.528
38.0617 71.3312 128.061
8.89527 165.103 31.8213
65.4891 55.5579 108.65
9.43332 45.3578 183.122
19.286 22.8932 142.119
32.4018 22.322 125.439
7.01001 166.8 55.0364
66.1426 164.611 55.466
67.5523 164.82 84.0982
55.8719 128.199 73.181
70.0971 54.8485 134.921
8.91206 203.857 55.2708
13.8692 53.632 82.8207
8.33592 21.7584 56.4984
8.23262 141.536 28.017
28.1752 77.8202 261.5
48.5941 188.623 120.449
51.9749 21.1665 154.373
65.539 213.577 23.1365
55.9327 172.75 21.1898
63.2778 155.403 34.254
66.546 33.1542 146.427
14.7585 150.306 106.183
6.75164 143.52 118.67
73.3326 149.04 42.2603
10.8995 178.643 48.2004
26.4662 41.3057 246.855
79.3815 169.736 3.34655
48.521 66.6375 169.083
70.6596 64.4023 74.0594
54.673 145.363 76.5165
53.3482 115.614 36.1031
82.2737 161.161 82.6673
66.3367 162.187 29.0455
68.2855 146.35 29.72
71.3961 147.114 124.134
56.1864 143.225 124.018
6.33919 89.2635 272.399
87.8223 174.516 80.3033
47.1377 30.0997 127.636
63.3049 34.5578 132.857
30.775 193.945 122.879
50.4473 167.129 94.2652
80.0222 142.982 25.1422
57.9453 74.3895 145.265
83.4028 9.77177 104.062
6.29967 212.095 105.683
70.0798 196.93 79.0569
20.5842 194.065 73.8595
40.5142 141.353 3.40165
37.2574 137.482 4.91386
67.5765 165.394 19.0708
83.3853 153.414 33.8149
63.1961 63.8353 77.0231
91.0135 66.6278 79.5005
35.6786 129.584 96.6993
49.6805 39.05 103.65
13.4862 143.801 273.867
56.6804 169.121 117.965
67.2936 63.1596 139.371
96.2014 154.876 63.7307
54.3913 44.7858 94.3811
7.61703 213.564 97.9637
26.4732 180.409 139.182
69.0789 20.7597 117.356
5.46459 158.903 145.417
97.2765 156.856 40.0025
44.3149 172.867 116.405
11.1934 231.594 64.4699
79.7187 112.047 31.8403
51.221 16.4148 113.17
41.8324 53.6383 176.531
89.7898 138.171 23.5606
92.868 39.6327 84.2183
11.3535 133.83 64.2198
24.7501 45.5026 251.382
66.2875 183.612 78.4524
62.2077 188.341 128.121
56.8757 163.142 63.7406
100.717 153.105 53.1432
29.0112 51.6168 177.958
12.3727 98.6927 272.716
73.8139 14.2453 110.582
56.2396 54.6502 116.423
77.2266 183.22 76.2658
59.9191 191.814 123.985
11.5542 79.9561 122.26
66.6283 73.3288 125.673
73.5777 212.824 65.2756
66.3886 171.746 75.5667
80.5033 11.5374 128.733
66.3147 128.396 88.5497
98.9511 177.91 107.342
63.4125 167.931 111.404
95.0805 171.105 17.5019
70.1594 180.742 55.9534
63.401 178.396 98.9849
84.7835 154.425 106.754
12.0713 84.2249 273.539
62.789 147.649 125.59
90.6432 194.153 93.3301
8.47222 1.10281 38.0172
89.0439 169.156 104.731
58.7234 1.77746 111.451
22.3236 69.0997 68.7823
71.15 131.903 36.6446
17.6836 96.2506 272.194
11.4251 220.586 60.184
58.218 71.9444 92.1173
64.9885 70.3268 83.3304
59.1002 31.7505 129.476
87.2474 179.641 104.707
99.0116 150.399 37.6674
9.87731 3.00785 12.595
80.1925 138.472 38.9291
55.9925 36.7541 133.095
50.2929 148.744 121.925
81.437 165.76 26.5558
82.1622 164.712 2.36735
91.3921 167.898 22.0196
82.5692 199.296 61.1515
46.838 24.6107 70.033
105.971 139.048 55.846
34.3944 82.0701 132.017
7.8789 5.55124 45.5461
76.6778 44.0555 100.297
49.8844 65.1204 92.406
68.8638 176.134 84.393
56.8094 158.57 123.598
12.0024 37.5116 63.1471
63.6407 50.3249 115.292
82.5022 38.1281 91.0062
15.6319 74.0647 249.879
48.8821 114.304 111.37
85.6434 67.2911 103.614
86.1491 153.265 42.1204
77.1682 200.14 124.624
58.6352 67.4198 81.2787
17.7995 87.058 274.972
57.026 42.5361 114.566
103.045 48.834 78.9115
22.1322 167.217 140.023
68.1172 188.853 117.146
91.3869 160.228 100.592
66.0465 156.553 121.036
84.458 190.942 86.5182
95.9694 164.992 40.7167
22.2918 40.0777 239.204
12.2549 83.9792 122.943
