ply
format ascii 1.0
comment Created by Open3D
element vertex 653
property double x
property double y
property double z
end_header
12.9735 40.8295 135.727
10.2262 49.3078 51.7082
9.11207 178.43 195.997
7.70097 72.9171 227.012
9.35129 10.2625 96.737
6.47625 12.5574 249.461
8.10655 142.209 120.254
4.42786 67.1809 215.763
21.9559 93.5584 194.699
13.4179 153.253 125.886
10.8666 46.1123 62.4075
15.5904 13.5527 251.963
8.40033 195.486 263.569
15.6713 55.1588 155.392
7.84529 107.417 136.288
15.8536 139.07 230.095
10.9533 157.227 211.701
5.033 102.631 118.241
6.23853 76.4111 217.868
6.58194 198.406 80.0468
5.3797 141.188 272.954
18.1365 130.138 119.481
8.93341 49.7288 67.5353
13.816 71.8971 145.116
13.7352 40.0453 219.481
17.0736 121.92 205.458
6.82002 54.0807 63.0328
19.4441 61.9653 78.01
4.94497 85.8815 157.653
27.5324 123.258 229.964
5.27654 137.099 127.033
8.2733 36.9805 165.671
7.98358 158.304 225.719
12.348 16.1718 236.302
18.5925 66.4389 148.569
10.1709 144.335 82.1303
23.9089 227.609 179.147
8.88645 138.257 2.91984
14.1604 144.263 125.801
20.9456 178.031 239.891
18.5576 228.237 116.059
15.8955 170.757 202.11
10.6712 124.376 244.967
12.5062 63.3603 67.1363
5.48001 133.69 214.121
11.9233 197.495 76.6819
8.41143 37.4912 119.074
8.20684 112.232 108.45
9.23957 43.2449 216.97
5.57146 193.351 85.4418
10.5878 190.086 247.772
8.19476 4.77798 212.467
11.6906 42.0452 75.3166
14.7401 199.452 97.9686
8.1327 184.395 186.597
23.5056 155.842 195.12
15.7143 70.1879 231.828
19.4976 172.202 249.94
5.10392 129.378 261.877
6.0778 154.369 108.959
7.83711 120.189 248.584
11.425 32.795 127.203
14.4595 120.362 124.146
6.87432 66.5465 141.949
5.55944 204.888 235.097
14.1054 3.2346 253.822
9.36397 56.169 154.316
5.06357 47.3229 62.8504
8.02411 42.7657 115.611
6.76616 138.631 134.273
17.6229 149.458 238.487
11.7441 130.929 95.2652
15.3239 156.43 112.277
24.5779 118.801 86.0094
9.44648 151.116 111.477
4.95577 131.819 250.822
25.7006 114.428 191.689
9.23903 49.4411 174.686
6.96159 40.637 134.922
6.50111 73.0616 178.248
6.76007 35.9174 174.272
7.83206 62.0965 73.7744
5.60366 199.336 86.573
25.224 230.01 126.578
5.08014 189.667 241.513
15.3188 113.667 126.399
7.51428 72.1041 144.661
19.2499 141.989 105.786
13.5519 150.08 118.365
15.5951 114.448 212.793
11.1819 102.721 263.902
5.44014 55.5859 74.3916
24.948 126.92 113.951
6.07304 60.2562 152.921
11.3224 134.687 242.507
13.8775 159.915 106.542
6.16565 89.3374 99.9903
21.2504 173.031 194.103
12.3412 33.2001 135.447
6.86828 86.9543 120.496
6.59301 127.16 273.768
20.0268 131.936 237.749
11.6969 149.798 226.895
7.28377 46.8432 75.6493
16.8049 230.456 178.021
10.4748 60.3136 141.23
12.3427 207.733 223.041
26.8951 88.3949 196.521
14.3741 60.3944 221.837
7.05321 85.1325 108.855
5.16497 85.4342 183.131
10.046 113.228 209.97
17.1805 132.921 218.346
19.0094 131.367 104.188
15.8062 155.018 234.646
8.32659 65.8694 149.093
11.0054 143.475 111.997
13.5697 106.329 109.79
18.3632 49.5671 72.1125
23.969 111.897 243.351
13.1245 113.194 261.317
15.8622 161.312 248.428
52.8189 210.179 4.77981
7.87744 110.95 115.651
14.1059 133.328 197.448
10.9357 2.99324 96.992
14.6427 45.48 176.511
20.1726 128.11 215.362
4.14162 53.3752 210.929
8.48538 57.7173 201.398
17.41 196.419 217.638
5.518 4.99849 96.0673
13.8104 97.3824 244.406
13.3236 119.273 244.611
6.84388 120.601 273.367
14.2892 172.54 195.551
7.53299 148.416 105.328
24.8041 130.052 119.96
21.1208 151.716 249.9
6.10591 193.165 93.2383
14.0914 47.6514 168.938
8.83642 57.2685 207.143
14.0974 158.843 205.291
8.14944 44.9787 167.671
5.68796 47.7869 222.35
7.4529 125.322 267.816
9.7039 137.985 88.3624
16.2447 128.454 248.675
20.0803 2.01223 84.5823
21.6379 127.025 106.76
13.0371 139.75 130.058
22.3588 162.236 196.723
10.9793 127.321 218.498
24.369 159.66 247.738
9.67413 157.555 114.307
16.6508 158.072 99.8348
7.90346 45.9722 178.88
10.8403 99.6142 121.821
17.4056 162.673 208.747
19.612 110.482 193.42
8.78149 200.253 237.02
14.0051 108.89 148.98
15.3702 68.144 139.704
12.5775 201.237 252.213
11.1127 55.2506 74.0203
20.0982 229.519 124.056
12.4665 114.552 144.883
17.2346 61.7679 156.138
5.98446 197.738 226.611
12.587 160.466 260.97
21.8535 97.0558 93.0049
19.0984 69.359 225.549
13.4801 157.645 239.868
19.3357 97.7126 136.814
15.4366 107.447 126.484
9.70329 38.4154 205.334
25.41 78.5449 99.249
5.32104 96.3496 103.485
7.15345 121.208 254.687
11.6147 77.9029 213.094
15.1651 8.13893 215.383
6.70373 59.4488 145.099
6.75721 149.254 225.022
16.0364 187.612 225.529
7.57802 133.233 205.56
27.3001 147.069 199.17
22.0071 168.216 243.252
9.86728 141.925 104.9
13.6362 137.754 119.637
13.0612 139.16 93.0089
14.6839 50.5319 226.633
10.1197 107.256 248.692
17.2069 13.8568 214.553
17.8528 136.403 210.173
15.8244 108.629 274.275
12.5215 132.748 112.861
19.7256 173.06 93.9008
18.6652 172.069 261.896
13.0259 37.3437 122.404
13.3269 11.7897 242.236
21.0285 56.8171 152.485
16.0851 107.582 253.346
19.6804 159.668 215.376
11.2889 134.356 125.303
17.2651 140.949 67.5391
10.6395 131.038 260.534
13.4126 142.035 207.924
8.42789 92.6207 105.921
19.5835 101.577 128.552
20.5287 118.304 153.64
5.82224 106.454 112.458
8.615 137.1 115.552
12.4121 130.194 117.489
17.6149 97.6655 251.819
8.82917 188.362 89.361
18.3077 129.834 93.9591
17.9648 190.28 88.9314
13.2304 126.903 270.224
18.1543 61.6734 139.624
15.8029 147.76 82.6571
11.2087 190.326 224.105
12.1979 63.1129 201.64
16.9037 137.964 113.415
9.2951 137.655 109.896
9.30719 52.5632 226.436
9.53754 105.622 253.388
20.0597 124.055 89.7641
19.5912 9.08667 203.952
18.2371 59.2045 145.018
7.39828 197.589 243.515
13.7489 115.37 240.101
6.8245 151.633 117.965
14.6412 35.2965 204.298
12.7273 96.8544 113.064
20.4186 121.781 212.391
12.2877 79.192 178.009
15.005 99.2119 257.968
12.4653 213.636 248.855
6.56184 49.8287 206.537
19.7389 58.0594 219.783
6.92146 151.973 220.446
14.6525 133.155 265.824
16.0169 166.327 257.023
6.80784 6.36689 239.207
7.06803 90.4525 115.462
10.5532 67.5965 213.382
19.0493 154.615 90.1057
26.7856 124.05 104.2
16.0217 117.892 200.739
14.7311 126.618 84.7684
21.544 124.966 99.9262
19.2165 129.483 199.126
14.4106 89.2045 218.946
8.01921 114.642 201.866
22.9695 157.195 74.1064
18.5828 165.714 101.204
6.09779 158.753 105.52
20.1922 1.74562 211.941
37.2706 222.503 126.451
11.2073 109.058 241.827
16.1767 154.431 260.672
23.4418 175.81 189.227
17.641 105.975 247.397
17.7436 157.353 198.237
15.7262 183.626 199.452
18.448 41.3147 69.6212
7.97208 121.394 262.511
15.4143 136.43 246.11
12.1171 195.729 86.9656
18.6314 149.303 114.587
14.8674 175.8 202.214
18.4796 88.8529 196.227
29.9047 94.2364 196.772
23.4022 129.552 95.2769
22.4413 169.741 205.906
10.5716 126.949 253.619
9.04356 45.37 212.338
31.7463 230.192 126.498
16.8432 95.8209 104.051
7.67262 29.6832 135.066
11.4761 121.993 258.576
22.0579 134.264 90.247
30.749 125.546 92.1297
6.00432 126.021 250.193
20.089 125.466 82.6513
7.18881 125.901 3.34914
37.209 225.138 137.966
8.62104 109.347 144.329
10.9029 110.774 268.447
8.02839 128.788 199.685
13.786 1.77054 210.292
12.3508 64.5885 152.543
23.2298 126.328 248.349
18.7428 130.48 111.757
22.6095 170.423 198.638
17.7761 121.145 240.777
14.7942 143.717 106.952
11.4605 133.545 108.288
26.6526 119.382 245.048
23.7107 53.5479 212.326
12.1165 99.7681 250.667
18.1892 93.2213 126.642
19.6214 153.255 81.1544
9.88142 148.311 98.308
20.5938 109.096 127.338
5.00451 123.272 210.827
16.6426 123.598 218.603
21.6605 84.4009 105.712
14.5961 187.421 235.675
29.4026 129.75 95.6559
14.7973 143.201 92.1411
15.5767 156.839 120.02
8.24356 132.42 118.64
10.1825 178.532 273.229
14.3124 191.761 80.4729
22.1965 198.894 219.067
19.7079 143.583 94.0604
21.5533 156.114 110.816
22.5593 97.8695 187.244
14.6038 104.043 241.741
14.6039 124.506 195.039
6.32576 127.303 214.388
15.714 133.344 254.884
9.51323 71.0734 151.366
21.6151 133.909 123.744
20.466 108.372 208.633
13.6668 102.709 247.114
31.9343 105.027 189.332
21.8115 165.41 247.122
16.994 95.41 197.285
17.5298 158.964 270.932
24.9688 154.81 78.7682
16.2849 144.367 119.237
4.46603 112.683 264.459
21.59 37.187 205.826
16.238 48.9774 208.949
24.7496 229.556 108.08
31.2525 150.064 251.78
13.2609 115.871 250.997
16.1445 50.8081 61.4206
15.1707 135.933 82.509
37.4866 225.999 185.012
29.2223 83.5312 107.905
21.4096 47.1545 215.004
6.89149 85.7645 212.641
6.37 97.3515 96.3224
17.011 91.6133 190.78
12.9141 3.25563 89.9446
10.668 54.9168 147.674
28.203 99.0134 147.714
17.9772 123.179 246.186
23.4573 108.371 150.605
20.3067 97.6927 244.769
10.4762 120.365 216.017
15.0056 168.412 97.0388
22.3824 153.638 121.16
48.8838 221.654 136.388
21.506 136.794 266.415
22.517 86.7954 111.935
3.9516 133.503 79.3407
21.3076 67.3349 220.316
10.9098 87.1333 185.033
14.6071 44.2006 204.671
28.567 200.509 175.141
15.5499 68.9942 215.697
12.722 171.497 190.826
12.6056 48.6327 203.801
8.1278 194.625 204.59
16.4322 230.257 167.078
11.8423 136.448 214.588
23.7013 4.07596 250.32
8.98149 201.261 229.001
16.0093 105.558 264.579
30.9669 98.5382 192.295
6.61661 214.596 242.764
16.8972 205.418 242.172
16.435 6.02733 234.639
31.2999 128.241 223.513
13.7135 122.123 251.325
15.2891 105.115 258.676
9.15024 132.552 196.92
17.2572 180.676 184.872
9.41381 44.6695 205.097
10.5646 102.507 198.189
24.7767 98.812 137.093
22.2358 145.908 116.159
9.55841 69.8146 218.861
21.1205 119.939 128.65
19.0644 145.754 244.671
23.3949 165.938 211.31
14.9864 163.364 266.943
15.4326 195.99 256.892
23.9929 46.1668 75.5289
15.1797 56.0718 67.1748
25.6839 151.204 206.264
30.5598 230.607 192.196
25.4224 225.512 120.432
15.9098 161.953 94.0974
6.53808 179.19 224.176
26.3356 80.9463 112.188
20.7203 116.223 240.818
12.6027 125.516 274.848
18.0461 194.68 250.823
25.3175 98.5331 262.724
25.571 151.281 91.6503
24.2985 127.585 270.966
12.3451 66.3865 144.565
30.2428 163.798 249.02
16.2165 138.65 99.6479
21.6859 170.036 101.088
20.9964 50.3932 65.0968
22.5025 149.992 82.46
12.5989 177.867 265.723
27.1696 145.457 92.9413
16.7473 163.472 219.25
15.3148 150.373 72.8749
11.5375 57.301 214.375
35.193 222.778 177.563
28.7061 82.9163 93.2241
20.1127 120.335 260.504
17.4363 63.5257 230.909
14.502 120.819 267.357
37.5443 230.39 134.923
16.9847 220.156 273.64
25.9673 103.791 148.302
22.2936 119.636 249.793
40.0073 231.406 198.744
16.785 213.481 237.913
37.2226 98.6468 194.639
17.2222 82.3714 208.981
24.5676 123.45 95.6363
11.4337 222.162 243.583
18.202 146.004 102.848
11.6637 34.1284 67.5343
25.3247 161.553 205.496
42.8075 219.073 189.049
11.1293 152.325 253.272
15.2532 104.859 141.685
7.90605 200.57 192.592
8.93193 114.444 137.381
10.8888 121.333 202.7
23.7525 106.235 249.496
13.3273 204.803 95.1139
30.4682 103.72 151.839
4.85094 172.71 190.344
3.30259 110.465 135.452
18.559 53.2478 77.8409
18.9028 136.95 274.474
23.0507 133.809 247.563
17.4914 198.12 234.865
15.8193 109.284 201.946
28.2015 150.632 127.403
9.33366 57.935 66.1334
44.9321 225.168 142.248
32.861 229.739 176.185
16.7703 196.06 240.154
23.2062 128.999 242.339
24.2978 89.8666 137.359
18.7836 163.94 201.73
4.36292 188.343 194.558
29.9233 120.86 108.787
20.7526 100.985 263.77
17.7899 139.635 265.231
16.6222 201.62 81.0887
22.4648 174.074 265.497
31.9507 149.558 261.263
23.8665 96.4705 99.4533
10.9716 135.95 191.324
23.229 122.576 72.7586
22.4598 156.328 237.361
22.4588 191.907 228.99
35.2042 231.457 169.054
21.5906 168.756 266.184
10.7646 112.997 274.789
8.60631 189.979 190.704
11.2784 64.7983 208.203
4.71807 136.222 83.0128
9.62811 139.827 214.891
16.7621 1.3464 99.0036
30.273 8.73466 155.286
25.3005 99.0975 130.638
13.6929 207.518 247.536
19.5122 230.145 108.529
17.1558 131.338 260.575
19.5586 44.8256 169.771
16.3087 127.712 2.3022
25.7619 103.088 268.408
25.2148 98.4241 248.968
9.9973 216.133 274.636
10.1093 3.06361 260.854
25.8033 61.4242 221.195
18.7809 146.901 216.903
17.8608 172.101 221.91
40.397 226.127 195.77
23.7657 162.019 258.209
15.0444 128.809 70.6701
19.4773 148.366 123.895
33.6606 222.075 111.465
18.9522 113.24 246.553
24.0409 144.446 100.018
4.8149 110.808 250.178
16.3075 143.223 86.7404
28.5807 88.0796 96.7573
45.1576 223.934 124.949
27.6128 152.979 86.3035
10.1987 11.9392 257.292
39.338 230.755 141.823
30.563 156.517 260.057
23.9297 161.619 267.594
27.2665 144.088 87.0979
10.6521 175.945 186.27
19.4253 126.845 267.961
24.1171 103.77 124.113
14.1552 145.553 268.383
23.2477 204.815 239.388
21.6037 137.463 95.101
5.78599 46.1158 153.19
21.1725 60.82 70.6258
20.7479 8.30138 260.356
34.7312 92.9367 196.263
18.5564 144.282 239.795
17.5118 110.944 240.571
14.0464 195.531 187.694
26.9872 177.681 252.909
22.3992 106.534 193.057
24.4628 206.27 86.7963
28.8623 154.658 201.658
6.05434 202.319 254.233
21.6311 184.698 188.357
9.33209 190.498 185.428
7.57835 85.6764 139.983
14.1177 84.2744 222.099
23.3598 231.722 189.724
11.2042 4.57691 101.665
23.1581 116.078 78.4075
22.7871 8.94802 236.862
34.2888 119.587 231.072
15.1436 121.519 146.673
31.2268 131.629 232.382
18.1209 78.1002 197.224
16.645 187.334 247.602
26.0098 117.155 136.451
14.7424 175.023 258.227
19.171 136.173 259.889
15.7765 115.161 138.152
24.4314 146.528 240.635
20.6475 164.684 223.332
16.8458 58.2101 74.6234
20.2452 226.567 274.557
14.3652 201.732 200.307
21.9557 205.802 265.058
47.8197 228.865 194.111
19.838 202.202 89.3132
26.9173 164.106 241.594
18.5379 8.80017 220.195
7.31395 158.819 264.966
11.1979 117.253 271.275
14.2291 122.275 133.621
24.7075 114.261 249.411
4.90165 8.69188 200.386
20.3299 103.057 251.232
10.4968 156.648 98.9251
27.9978 162.629 220.36
14.8849 150.985 106.169
10.3718 127.954 138.295
28.8556 230.766 161.309
23.5044 156.682 90.2415
22.2007 130.431 254.744
16.3081 135.606 204.673
19.5646 187.814 251.306
13.2863 127.95 186.894
23.3863 130.905 1.54745
15.2418 67.3515 220.643
12.2504 216.677 230.541
9.13769 143.183 234.162
46.8048 224.527 189.834
7.5866 86.9137 220.751
12.4202 179.537 245.447
28.6483 107.323 272.276
43.0789 222.479 177.022
48.326 216.206 9.58547
23.5305 128.899 261.144
22.7339 184.967 210.727
23.2225 3.00465 237.284
22.8606 111.634 143.497
13.8596 139.537 78.2159
26.9333 68.1832 211.606
19.2336 206.189 237.382
28.9806 204.426 222.9
16.6323 79.4154 226.852
29.7741 145.354 255.402
16.7199 178.407 228.355
20.6568 179.698 261.309
15.439 188.832 219.189
15.0261 120.263 262.224
8.20874 198.263 255.327
5.49312 117.843 193.671
40.8543 223.233 134.031
9.73359 145.872 68.3271
27.3621 130.173 254.825
23.7659 55.4515 203.558
17.3689 122.878 75.5273
23.3295 131.09 210.623
13.0782 59.0273 77.7292
14.3791 68.6942 75.0786
10.0457 118.808 209.744
31.5614 122.676 97.0651
19.5612 65.5453 210.204
20.5508 131.608 84.5858
9.12581 176.815 233.704
31.1268 130.029 105.473
18.018 179.142 257.629
20.7602 139.471 125.969
17.7761 116.63 274.655
44.7763 222.83 138.908
15.1638 136.492 60.9226
28.9725 178.947 219.241
29.2028 198.319 262.766
20.5518 171.88 214.04
10.0633 84.4661 218.425
19.4063 49.4216 219.457
4.48784 134.92 70.1821
11.6456 94.154 145.707
21.1881 190.536 233.695
18.487 150.887 215.378
8.57364 140.198 68.062
18.0765 110.473 135.416
13.4463 105.44 116.998
29.2008 230.224 184.359
18.7681 135.115 65.6354
20.7535 90.245 91.5563
17.4342 161.808 226.981
19.9731 10.5946 90.0933
29.2986 103.258 249.765
14.4294 126.261 264.49
29.8569 227.439 169.593
27.9483 109.669 152.348
10.6393 230.169 121.438
27.8723 146.512 81.3814
27.938 133.265 258.788
16.5025 26.735 71.1781
28.9906 192.877 220.36
22.4245 145.048 135.178
12.719 150.747 266.057
27.5573 172.074 258.316
7.28217 79.3548 154.854
36.5644 203.86 209.048
25.7858 148.312 121.617
28.2591 125.719 238.153
27.5678 114.986 199.267
26.7254 172.557 249.343
12.741 84.2884 137.42
22.8462 104.122 199.854
