ply
format ascii 1.0
comment Created by Open3D
element vertex 1147
property double x
property double y
property double z
end_header
18.2134 167.089 76.5324
17.041 80.0879 111.487
36.7696 85.8807 114.177
78.469 47.5365 155.007
38.6663 184.848 202.19
17.5056 175.737 83.8323
16.4717 103.856 73.16
32.3691 169.303 55.678
28.8955 135.411 129.623
19.9381 94.6906 115.318
85.4399 41.3278 132.897
19.7239 109.857 16.0559
9.77885 195.552 108.759
29.3712 82.0414 4.32603
43.1591 209.453 163.463
50.2375 185.264 41.5928
35.5236 144.959 150.896
46.274 142.051 157.434
28.1222 85.8898 39.3259
16.9926 154.638 29.1083
22.7214 201.022 63.7381
38.5128 127.981 131.427
83.2594 37.7489 160.319
72.9919 184.564 67.7814
14.7523 169.907 88.0718
33.7719 219.286 57.0391
12.2859 192.709 102.554
30.9702 69.9736 26.805
50.3142 193.461 39.75
43.0097 54.15 157.249
29.3551 72.3984 101.794
15.2694 103.901 2.938
44.8377 113.385 142.85
24.8957 100.112 122.315
11.6972 74.2194 101.851
11.0698 178.475 92.5851
30.5114 196.928 55.5647
68.8645 194.219 84.4462
71.7828 46.4313 129.533
28.397 100.176 3.36329
21.0565 71.6763 94.0565
27.7979 144.45 48.837
12.43 178.757 125.98
28.7643 215.716 74.7467
44.8641 159.765 168.565
26.6504 214.5 251.152
10.1162 171.051 120.654
9.96754 81.5849 96.4424
50.0008 166.839 31.9334
32.6309 75.1331 145.747
39.96 57.2219 164.484
17.2357 145.379 90.4744
57.0861 50.6262 163.141
9.92312 74.0813 84.6772
15.2067 115.224 109.008
25.8194 168.208 169.111
23.5725 112.215 2.33966
34.4231 190.702 212.835
15.6636 113.215 6.87386
52.7171 216.261 55.0733
46.697 222.164 147.408
91.3422 44.9741 172.284
15.2931 176.48 161.176
66.6991 106.754 154.436
20.109 216.121 119.528
67.1543 74.4977 172.139
57.4862 51.8214 131.471
12.9181 118.82 8.53777
22.6572 115.079 9.0845
66.9302 205.845 104.511
70.4697 181.948 58.1003
47.7171 148.341 64.562
16.1053 182.779 148.553
24.2026 73.0306 24.7476
29.455 84.6902 47.9999
12.4904 208.133 114.117
41.352 89.2824 87.9171
10.3047 115.308 15.1229
11.7479 141.926 23.4253
47.7018 80.5744 42.6618
24.5211 209.459 58.1516
128.014 135.469 204.476
20.5953 223.174 88.1843
38.9192 69.3548 13.1742
13.2814 168.118 96.6995
32.3032 153.699 159.299
27.5999 80.6112 114.299
15.8893 105.25 109.082
63.5794 194.836 95.9204
10.3216 96.3708 22.0632
57.5037 144.535 150.734
55.994 167.936 12.4082
64.9353 213.738 104.179
64.6121 215.285 127.779
31.6279 194.784 171.502
56.448 202.709 157.941
67.2478 167.344 147.386
36.797 147.034 14.3497
61.0544 225.866 133.093
17.2502 88.6571 17.7399
16.9488 93.5511 38.257
41.4648 225.756 155.117
26.3968 116.355 85.5106
48.5255 156.161 2.7185
25.7941 88.5825 49.9446
29.9851 147.165 74.6576
29.3198 148.548 152.266
20.5129 157.205 147.956
44.755 229.999 143.311
13.6027 181.924 108.245
46.6306 118.062 51.8408
31.1074 79.6998 163.706
25.858 183.559 169.197
11.7581 107.304 82.6656
20.703 84.4873 27.574
17.3642 160.689 82.207
33.4362 79.9041 171.416
61.6656 161.357 166.892
68.5425 218.48 112.101
8.45069 183.415 132.037
11.4594 198.938 121.285
32.2118 208.734 208.388
64.9169 186.759 107.375
50.9459 117.696 123.305
69.0089 205.788 70.02
19.3821 149.232 16.2377
29.7303 192.105 165.25
28.9464 71.0276 90.5167
59.5384 82.7824 191.092
16.0618 172.467 167.172
33.7548 209.716 161.784
49.7035 205.23 161.61
15.6177 199.043 249.91
25.2304 165.235 106.979
43.316 132.845 150.364
20.6063 158.304 162.062
15.4509 126.758 3.81632
17.0372 219.054 99.8399
11.5773 201.508 114.423
45.9473 88.3856 47.5553
30.3163 99.4704 68.5072
60.3985 138.805 21.6357
66.9274 48.6138 181.939
31.2276 213.441 62.4736
16.2319 191.932 82.4764
51.1666 159.61 33.5446
20.3434 139.675 100.805
16.1188 139.168 128.082
33.4323 106.713 111.855
30.0103 142.029 30.8568
39.04 88.6974 179.715
47.813 182.204 256.965
35.1985 132.772 135.356
70.4459 186.406 95.6561
65.1261 194.546 151.488
61.0974 187.138 44.3117
24.9079 111.313 115.933
38.8096 163.734 171.91
37.3578 230.658 147.375
42.1188 86.0002 99.5186
76.3917 104.384 181.171
46.0547 107.107 164.852
27.8474 140.91 148.998
62.1066 156.766 9.88927
10.9683 85.9278 79.7718
18.6337 99.1469 15.1025
46.736 153.062 33.3997
37.1357 196.006 42.7881
25.7651 107.036 8.14018
16.184 158.262 131.053
32.9223 184.319 192.214
14.2148 179.998 135.056
16.506 173.966 149.042
43.8644 210.414 51.4449
36.1809 218.828 87.8532
14.1772 176.208 76.9691
12.7474 148.332 127.8
25.9636 180.681 58.6999
93.787 43.6375 163
14.3478 208.34 127.375
36.6646 195.872 50.9472
12.782 165.19 123.443
18.7056 117.26 87.3434
37.2272 157.961 166.106
11.3279 103.395 36.2338
33.7554 69.0323 155.516
45.8659 167.062 23.8578
65.0731 191.054 116.51
33.4803 78.0759 94.8999
23.4096 130.491 54.2327
46.3718 162.586 55.555
20.3439 118.279 3.39113
74.5099 51.7197 121.588
33.8722 92.4534 159.84
41.7275 213.224 264.8
58.6386 135.225 3.56414
11.5043 139.371 10.7756
19.4685 164.085 164.34
67.2465 221.968 80.6654
22.5573 74.6621 107.481
33.7901 166.037 24.2122
40.2861 92.4809 79.4861
54.7399 74.7344 43.0518
29.1018 228.036 143.924
31.7853 159.034 40.1682
72.3368 215.409 87.5011
47.0796 155.412 163.429
32.8566 89.441 151.608
68.8754 202.445 88.2559
27.0166 98.7621 12.4412
13.5047 135.09 34.7235
76.6724 154.079 76.2843
77.8737 145.527 85.3306
73.449 181.945 81.7341
70.4331 83.1416 37.5563
25.8063 145.239 16.7303
60.1707 219.879 125.805
70.1837 155.582 156.643
65.3237 170.377 166.17
14.9934 218.764 269.706
66.4636 204.359 77.7034
33.1832 90.8715 7.81066
27.1469 187.976 67.765
29.7514 207.247 55.7583
14.3191 90.2628 72.9002
17.6297 170.695 70.1641
66.5702 197.817 67.4325
40.1945 109.436 5.02776
11.3143 197.724 132.008
40.8098 123.534 119.859
60.2058 136.349 30.9462
14.1597 69.392 93.1163
38.2569 215.547 52.8342
10.4744 126.174 33.303
29.3009 151.299 44.6548
70.4745 202.915 113.717
22.2848 138.326 127.098
39.6961 103.514 138.057
15.9348 188.771 146.951
20.5535 182.022 155.016
10.9955 161.442 103.729
18.6104 185.453 160.437
18.8183 74.8842 86.8835
70.7602 51.7073 138.141
41.6696 194.966 244.127
21.9264 230.294 89.9368
14.2125 111.497 42.6761
32.511 145.415 18.8281
20.3421 219.129 260.257
45.6761 156.042 60.5715
35.0398 216.928 158.517
25.2517 116.497 110.591
31.9802 168.949 13.8882
35.3171 186.901 168.047
43.9985 66.3202 136.84
69.5859 202.583 127.48
17.0308 187.376 250.651
90.7481 70.4502 147.294
12.9942 199.614 83.8267
90.2905 39.9836 139.743
14.5771 179.598 258.63
18.1732 134.317 111.443
28.2397 220.53 79.7475
25.247 123.611 38.9816
22.3002 145.902 149.181
60.0356 194.655 142.584
49.0671 182.662 168.589
12.1369 182.079 84.2138
20.4887 217.061 134.356
30.6875 162.742 170.287
69.6192 31.5288 146.912
83.1006 30.8387 162.391
20.1686 127.304 46.6152
45.4832 71.7843 34.1173
13.5674 157.793 95.4882
9.13245 96.7446 81.3365
67.5892 219.771 96.8244
25.2026 172.672 59.958
13.1371 202.096 142.094
68.6209 34.6457 158.999
56.8014 46.4655 125.921
72.851 175.725 62.9323
21.7983 114.491 40.7622
71.3708 168.998 76.5035
29.7025 78.0598 33.3007
20.5266 160.624 67.2526
52.9661 92.3247 53.784
35.078 111.957 43.0254
65.3165 197.711 53.3687
75.7461 174.528 70.2433
15.6065 104.789 22.4057
14.689 194.681 255.118
19.955 227.808 106.099
68.5984 198.544 118.252
76.7955 31.456 154.144
15.9722 164.939 154.533
36.861 206.338 49.8338
26.3733 78.0538 74.7229
94.4001 39.9404 151.593
14.5683 93.8919 18.9356
21.4027 121.588 13.8603
27.704 134.559 106.564
33.5122 104.355 45.9416
67.9423 97.6297 166.611
32.0355 131.653 124.628
13.2936 87.2766 26.1471
66.5487 179.975 130.947
15.3831 149.169 96.1596
41.5154 167.72 17.6426
47.2658 124.545 130.261
71.4993 190.471 70.4014
11.4587 186.264 92.0491
24.1506 230.757 116.151
67.6345 90.3961 32.2109
53.3743 196.608 164.159
43.6278 193.637 41.7467
14.7059 170.644 137.745
36.4035 61.9684 160.533
45.0082 151.051 11.3429
38.2676 68.3341 26.6502
41.7377 146.72 69.5023
19.3187 130.28 11.2244
45.5979 120.932 3.02446
38.3469 198.337 167.802
42.1669 217.3 159.818
57.3986 173.907 45.2012
42.7725 159.64 119.717
17.2384 140.726 8.9649
25.5194 92.1669 2.93186
39.5424 131.601 50.0205
64.1831 85.9337 18.8564
52.0673 108.446 138.536
70.951 195.454 99.1843
40.3271 113.36 62.0606
30.7966 119.469 105.29
74.1144 143.743 152.156
20.1356 84.4823 11.409
34.5074 112.195 57.4744
19.6775 155.834 10.4561
23.8499 134.759 97.3686
22.2629 84.7144 33.2742
15.0793 138.089 3.34863
19.2896 185.431 64.5708
64.6258 206.544 134.094
13.8551 78.4625 75.1232
34.9317 108.011 1.81204
55.7235 157.141 164.016
13.2162 203.983 254.375
76.8558 28.1323 147.05
28.2606 148.955 28.5239
52.9383 166.98 48.9943
27.5192 164.785 163.112
46.5265 130.608 146.056
66.8798 174.499 158.877
30.6909 231.164 128.612
16.9289 155.733 156.121
47.6011 168.29 8.44197
17.7363 174.529 261.081
37.5158 130.637 57.7458
38.773 106.967 76.5859
84.4873 52.5311 127.145
47.2086 177.512 44.1913
21.8435 116.697 27.7423
28.2257 99.6013 42.2232
53.5895 95.8843 23.2974
19.161 202.35 70.763
16.4054 184.589 78.2513
16.3516 110.452 26.6601
14.441 119.367 96.6697
21.7162 115.197 79.7379
31.9485 71.0258 11.6276
70.3951 82.0768 184.05
40.1935 118.386 57.312
47.1314 76.8248 14.6544
55.6019 91.0446 1.99912
47.2549 140.12 38.1794
8.15739 108.821 101.378
23.8959 151.452 158.038
11.3823 183.763 120.914
42.3625 106.772 63.1964
69.9599 182.046 87.6235
52.5282 114.548 8.79069
51.1866 133.486 36.4001
70.9072 199.693 77.5262
20.2595 119.151 21.9894
53.6829 165.919 4.41624
20.2056 104.831 41.7805
16.6292 90.4174 3.48584
23.1059 194.534 59.2747
33.4346 175.402 168.818
27.1294 104.474 61.4428
24.5833 230.908 99.0573
26.7966 113.144 43.6448
62.4224 180.171 165
23.2091 78.4995 24.8849
50.7841 77.84 154.151
16.3811 129.076 42.2551
61.6485 159.044 17.3539
30.6815 143.047 81.883
26.2369 123.576 90.4542
19.8965 209.35 68.3329
79.9265 60.211 118.967
133.34 128.196 202.002
40.115 207.296 248.607
75.2432 151.616 150.958
41.0519 139.017 149.837
17.7572 191.962 72.8364
17.9593 142.678 115.993
12.6271 206.93 121.337
34.5331 78.3784 44.7351
15.1837 154.557 17.6025
36.8605 147.025 73.1077
21.5841 93.1814 66.7633
51.8803 51.1579 176.267
19.5582 141.986 47.4693
13.3415 197.582 149.95
45.833 216.972 154.971
37.3077 126.826 124.739
37.0399 96.6301 113.316
24.0079 88.5482 121.051
23.9171 200.767 161.008
63.399 77.2503 45.0425
50.5842 230.953 81.5724
9.37026 188.388 115.448
18.5079 154.998 73.6673
78.3369 163.263 69.878
17.2787 147.853 7.86827
32.2806 121.777 88.9094
65.1769 228.979 104.173
59.7734 39.4176 166.96
19.2993 146.045 81.4829
51.9579 140.11 153.614
12.2659 193.594 113.327
45.3595 141.576 48.1615
29.2994 134.751 48.6331
53.5401 54.715 124.036
58.8715 133.433 40.6874
18.2843 141.508 139.574
37.7469 75.1155 32.7327
55.437 179.11 40.6002
54.7074 121.925 130.723
60.1392 225.185 118.131
54.4344 134.498 155.531
14.6917 160.327 88.7924
49.7152 127.749 52.4313
34.187 138.244 146.397
32.4402 79.4483 155.548
59.1357 194.455 43.4422
9.31839 128.213 5.01975
20.0255 126.155 23.8046
41.4263 73.8331 6.04401
39.6545 91.6114 2.34839
65.9156 195.882 131.474
12.6172 155.845 113.581
21.1297 136.53 15.0751
38.8235 161.953 56.4179
45.9099 71.5512 20.4038
47.5638 93.1357 14.1462
9.84592 119.446 19.7851
21.0853 112.476 53.6078
37.2989 108.958 104.995
48.03 202.024 252.382
8.57151 87.3951 87.9149
35.6691 231.178 137.169
37.0357 53.9203 152.329
50.2877 136.572 48.4467
12.2456 180.266 267.689
29.2545 202.979 243.174
36.4805 139.312 81.5152
59.4105 190.338 154.495
11.7768 188.967 131.779
39.1028 129.526 106.307
52.205 147.252 43.2938
34.0601 95.7408 52.8036
11.3419 127.781 24.0408
50.2922 84.571 188.935
33.0486 120.278 55.6513
48.1686 77.5493 50.3857
13.2209 97.7077 31.424
23.8645 214.353 152.971
13.5293 195.966 140.436
36.8242 133.529 145.576
19.1744 210.317 103.76
42.2645 184.923 168.567
61.043 122.329 43.3987
51.0632 176.027 167.619
22.3678 103.089 3.38994
71.3191 213.642 103.585
34.669 164.954 33.9582
11.9205 188.369 261.353
25.5271 147.71 23.2588
9.77172 166.218 111.548
24.5829 74.5809 16.926
18.6596 206.77 252.438
27.8554 157.829 166.86
28.1537 88.5955 1.58125
69.3039 107.664 5.67958
45.3945 220.384 54.5305
52.6139 211.783 156.273
24.8993 120.519 125.559
36.9081 105.839 61.1913
62.3376 143.951 42.2747
7.90203 101.837 105.822
35.6208 224.302 153.136
43.3345 57.2182 128.785
43.9308 210.855 257.309
68.8699 193.375 59.9564
63.8928 184.383 160.253
23.8581 191.8 162.801
64.7203 143.853 155.902
58.9214 80.5144 21.9797
44.5144 91.412 185.877
20.6782 92.1281 25.6429
45.0983 230.386 80.7787
40.9066 84.5976 107.373
43.8085 73.5528 124.522
55.0235 172.636 130.697
34.1724 229.011 77.2267
28.0756 208.193 158.571
29.9772 202.808 167.237
40.6826 83.7347 132.666
34.7429 133.622 100.706
11.1698 197.519 90.3424
59.7621 118.09 159.686
13.372 98.8801 44.5656
34.9677 154.852 61.0269
52.396 224.291 144.01
46.1869 115.111 62.6317
49.9305 115.637 3.30924
45.2818 142.482 55.1462
16.8679 220.884 122.522
69.7672 197.092 108.585
56.3359 154.29 3.83716
9.1715 108.116 42.5413
65.4106 154.525 20.5629
11.0748 148.789 120.657
53.6809 164.064 167.526
36.1355 65.9819 21.0938
64.0137 57.8059 116.285
70.3654 140.825 31.1386
27.9327 230.147 77.2707
39.4212 121.116 47.2344
86.3932 32.6558 149.492
32.3817 122.568 44.283
19.8603 125.511 92.5385
67.2971 188.007 87.7205
67.8918 184.06 116.826
56.1938 159.653 55.2245
41.8226 79.0729 93.9948
8.55473 111.977 28.9364
55.2643 146.948 159.591
28.4123 134.708 116.387
65.2181 207.544 53.5863
52.6005 104.539 177.752
23.6621 230.676 125.531
36.1591 67.2165 33.8888
40.1089 88.6901 61.2247
34.7384 87.6365 57.1605
66.1259 229.634 109.709
30.2991 78.8424 8.63678
23.4831 117.476 50.9883
54.4866 203.811 150.264
51.5003 148.039 3.50443
10.0943 158.737 131.356
54.4909 115.005 143.238
74.9131 183.008 75.3933
54.9335 127.015 44.1757
58.0741 86.8432 123.73
23.4805 86.3467 45.257
39.8959 155.369 46.9502
51.3543 95.4723 187.34
45.5949 93.6151 2.0968
40.9377 63.3332 150.488
32.0199 111.567 50.8897
15.3058 151.081 143.354
50.327 103.57 15.3482
20.6668 125.694 54.8367
42.3577 93.3281 108.195
56.3175 186.35 166.381
14.6332 214.903 131.322
74.0721 209.852 84.9775
24.021 211.097 78.163
63.6573 103.084 34.8324
33.8403 118.316 80.2403
70.8251 202.997 63.2746
12.1013 114.884 91.465
23.3745 176.793 69.1662
13.472 208.798 266.681
17.8461 209.565 150.069
36.0349 171.586 272.295
26.6139 107.477 72.1011
51.159 223.836 61.3202
25.2914 226.006 69.028
57.7271 144.896 39.231
23.1986 219.708 148.776
26.6031 163.292 57.0402
20.0762 103.078 117.721
17.387 215.864 74.3395
45.0711 175.26 265.318
69.8907 183.969 137.411
59.4113 133.808 144.035
41.5314 68.8897 18.9108
11.5329 189.506 140.733
29.8518 222.64 63.127
34.4714 131.635 111.551
49.5455 47.7396 146.145
20.6967 171.603 168.79
65.6959 178.964 145.275
61.0106 221.609 139.437
28.4637 208.537 66.1942
19.4975 133.836 44.986
75.0814 91.2218 188.425
18.5406 135.127 23.125
58.4776 200.938 45.7569
11.8333 136.477 40.7989
66.5513 189.465 128.44
66.5345 123.883 120.049
40.5725 89.1637 48.6571
68.7958 221.823 106.117
57.2698 225.221 139.688
76.8735 110.621 174.737
73.535 53.0036 187.3
14.526 204.44 134.221
57.0724 38.6681 136.12
67.9598 195.799 140.045
62.283 151.425 2.24328
49.6027 168.995 169.929
71.375 190.899 141.681
21.4886 220.217 79.9324
69.7688 204.788 94.7873
34.7831 154.177 48.8683
39.556 148.434 159.267
17.4013 194.952 155.798
26.6633 111.361 34.277
49.124 81.0811 60.7648
64.3843 184.521 144.237
37.5202 149.102 20.3454
27.0238 94.0806 54.2266
45.0981 53.8951 169.494
9.22163 120.122 32.8698
34.4036 184.868 47.3136
52.2229 190.388 257.31
35.8334 151.133 33.5414
11.6281 145.294 109.849
32.5115 90.3144 70.2368
27.4968 151.163 67.1942
41.9031 79.2449 53.4114
37.4344 117.61 96.0524
69.8832 190.121 54.2017
63.4487 221.371 114.54
29.0339 100.425 53.8227
75.6561 111.492 8.42046
34.751 169.776 171.793
32.4167 163.13 3.59457
55.3256 91.0227 9.18541
9.362 111.786 21.7187
43.9722 165.053 128.495
24.2062 153.707 40.9754
55.784 159.997 9.52656
68.6991 228.843 90.6706
10.4288 179.86 272.908
63.4978 179.725 45.0604
13.1248 175.545 111.445
14.6134 147.281 135.736
25.8791 159.655 8.89616
39.5068 223.519 61.8249
39.6665 157.123 1.99718
45.8438 118.726 120.691
23.7524 206.297 155.59
75.4954 98.987 163.651
21.2944 181.885 165.453
63.7816 78.2182 57.8036
68.7778 165.281 156.055
36.8506 79.4381 37.4927
50.8486 228.786 68.0457
37.5169 129.368 116.491
70.8809 53.2631 162.83
20.9654 168.074 63.1431
70.7469 133.845 144.134
67.4556 173.886 52.0042
57.0577 197.199 151.634
73.3269 210.61 97.4538
40.3205 185.938 49.6223
61.5146 146.65 34.0968
23.1257 147.033 44.3285
53.4376 152.484 37.8856
58.2271 228.865 75.4374
65.4166 136.834 145.386
12.1892 144.883 99.2215
90.3204 33.9028 155.349
55.4538 207.189 47.2897
10.6539 194.524 125.432
16.2414 119.445 33.8985
15.4054 205.988 90.6996
64.8175 138.395 38.1911
25.9228 138.3 87.1309
58.564 216.1 146.745
78.9372 157.574 84.2391
23.4262 143.45 5.05618
10.6769 166.98 135.071
35.5483 160.67 116.307
41.6664 97.6816 97.0803
80.0304 71.9159 123.334
37.5063 140.871 43.7439
25.605 229.582 107.981
10.4387 120.574 2.36503
39.5662 97.3461 132.466
19.2024 171.296 159.884
9.38027 97.2739 41.303
50.2131 65.2735 185.142
55.933 76.1675 56.3369
77.5955 84.8974 53.2536
12.1368 104.557 15.6485
52.5033 217.704 153.366
53.0177 137.895 54.245
45.4864 191.208 171.45
12.6901 89.2297 33.3098
71.1956 206.536 108.553
41.9373 129.879 139.306
44.8304 85.8867 124.822
20.4202 227.365 97.2526
17.6535 215.755 112.911
41.1475 170.592 49.6638
41.9063 202.07 47.6567
29.6895 71.4583 18.9087
38.7872 157.525 30.8985
50.1981 65.2077 122.863
24.0295 160.058 25.2238
13.5714 147.702 16.4903
44.6964 52.6574 145.393
17.6567 124.151 40.075
78.9113 58.9859 188.993
12.7338 178.282 141.329
20.6908 89.9629 11.2756
37.807 79.4025 83.5673
20.5237 136.916 36.4216
28.8427 126.474 50.4576
41.3026 113.243 86.007
28.7545 145.693 2.02558
57.8811 109.278 176.081
17.1712 209.478 140.146
54.1855 183.516 130.652
21.4623 157.182 118.585
69.6198 186.138 144.837
11.3781 128.445 40.8039
46.2684 149.519 161.149
38.7853 51.7135 137.593
42.1928 150.198 47.6453
22.5992 224.931 135.153
60.353 116.687 1.83632
59.7116 158.459 34.1466
12.7555 170.092 144.754
29.0887 218.096 156.21
61.404 81.9179 36.9975
44.8932 131.672 5.15384
49.6544 49.7077 136.853
24.1879 111.472 60.4258
26.695 121.011 54.0398
40.9838 139.239 85.2762
55.1499 128.423 143.632
64.7668 90.7951 15.0621
44.3523 227.566 150.411
62.6229 216.453 135.202
19.9555 227.596 114.189
28.9386 231.504 91.0168
23.3957 160.891 17.4885
10.0345 198.621 95.9463
55.1326 74.6558 32.5302
40.9694 180.418 246.887
40.1199 103.337 163.414
59.7598 101.201 8.18024
8.3438 174.208 107.798
30.4894 111.645 74.9929
53.5299 135.555 77.8305
47.9827 166.229 51.785
46.3615 143.94 73.4259
51.7722 226.16 132.356
50.9889 129.307 144.176
28.0794 225.447 271.494
28.8374 184.477 51.1537
14.4237 133.496 68.7805
80.757 101.051 172.002
44.6808 162.713 33.3546
14.135 161.483 145.032
44.1966 76.9029 26.7146
21.8777 142.473 27.2609
59.4869 80.3956 29.0541
37.8809 75.9013 174.439
24.0559 223.361 143.443
45.3392 225.158 62.1255
33.7496 155.468 26.7054
31.5701 219.034 261.401
37.3646 147.324 46.0949
58.7805 35.4653 156.51
23.0253 105.999 53.8493
59.2341 228.652 126.487
54.542 114.357 132.214
72.9779 178.227 150.284
9.32903 195.863 262.717
23.1058 95.4599 50.8497
42.8556 82.2602 2.03784
11.131 205.816 97.1451
16.7724 146.02 31.651
26.512 96.6397 114.776
27.3777 178.495 51.8058
55.444 141.428 7.66102
39.2027 85.3952 4.70266
39.8832 153.234 38.4792
45.4663 198.444 166.322
13.8762 133.073 21.7127
41.6524 159.316 6.40439
52.5786 216.85 146.688
47.4118 127.364 96.487
39.9218 175.463 273.647
54.0258 106.117 3.99589
59.0534 94.4714 186.442
40.7555 131.43 95.031
46.8586 43.5827 155.849
62.9855 127.74 23.4178
71.7708 178.149 140.762
66.0984 43.9077 129.617
30.252 149.495 132.936
48.2454 84.5347 8.46804
38.9665 175.932 47.6792
49.1303 74.8997 26.5595
75.4729 174.586 80.0142
29.4048 179.238 167.599
44.6458 98.7531 127.788
11.9782 113.24 36.4099
66.2895 129.25 40.5282
56.5684 122.494 51.0149
47.4589 201.39 44.109
64.1618 148.781 11.9518
85.2634 47.0978 128.852
22.9045 100.977 48.0308
12.6217 129.137 13.1481
16.7169 141.479 16.856
65.3161 181.821 151.764
36.8611 167.842 6.51714
49.6672 170.927 17.6271
72.6321 176.662 100.472
94.7508 54.077 169.855
59.9498 113.01 4.61111
43.2146 80.0184 38.6556
26.1595 158.345 63.1652
57.2562 138.551 48.6002
35.589 149.385 40.307
65.7746 157.185 165.385
22.5213 94.5998 6.28761
52.5239 142.936 67.4994
49.7335 205.953 260.299
55.6638 117.253 119.49
66.8136 147.67 23.2398
69.2338 91.8276 40.1903
67.4974 63.262 115.09
49.5141 122.003 102.358
27.6001 229.294 135.227
39.0878 89.6084 169.167
52.0512 134.799 42.872
42.433 124.505 58.348
27.6693 163.598 33.7307
43.2049 133.316 59.8528
60.6994 142.86 6.69459
55.231 75.5502 22.6901
62.775 127.265 125.268
17.0277 216.701 90.9444
46.6326 177.809 271.535
56.4249 164.707 27.5537
44.288 85.1563 59.406
65.5509 133.83 27.8762
21.5147 154.088 5.83482
23.3643 146.545 37.4263
74.4559 165.048 85.2451
67.9762 161.312 160.772
32.0158 103.248 58.5756
52.3594 182.939 272.265
19.9103 81.1493 38.0858
10.1729 153.015 102.376
23.2213 148.269 73.948
79.3383 161.594 92.861
12.875 140.562 117.635
12.6889 99.2885 8.78987
40.0967 65.2924 126.853
54.4698 121.866 94.1662
10.9176 189.773 97.4412
34.9772 223.958 68.641
18.7286 92.2601 121.686
56.4701 230.349 114.373
70.5018 192.86 112.909
44.4248 100.473 59.6287
19.0775 203.262 154.212
70.0018 210.958 123.079
64.323 186.925 52.654
22.0931 79.9942 17.3142
34.9062 95.698 59.2653
22.2176 134.843 27.5017
44.0801 166.612 2.23329
21.0353 176.457 268.719
52.635 201.5 46.3081
12.0933 183.568 103.69
21.3462 94.9675 43.3681
51.1217 83.3223 119.222
24.9952 120.167 78.6841
15.792 132.52 40.0715
12.5419 156.903 85.1094
38.3213 185.927 42.0777
58.8722 190.565 166.883
73.1274 79.264 43.1463
125.393 135.186 196
62.4814 218.293 72.6035
21.23 174.213 255.703
72.0731 86.8874 59.6651
59.6788 93.6601 12.165
14.0493 149.945 23.6313
61.6649 170.446 48.431
38.3591 203.918 78.9213
40.3684 165.975 28.5258
29.729 158.27 2.8637
63.9038 104.718 1.58262
64.3019 227.248 73.0869
130.87 141.229 199.177
39.9571 170.603 10.5643
44.9406 128.042 106.135
62.2789 215.858 66.9176
27.6704 124.49 59.5001
62.0673 131.669 18.8496
42.1547 171.101 170.994
43.8302 106.288 97.0244
69.7338 178.527 95.0559
9.2545 188.796 269.401
52.4868 88.4367 20.2354
39.3267 82.318 14.0197
8.74975 207.513 268.906
76.1271 39.8948 175.788
31.0149 192.207 51.3685
62.3771 115.987 38.6623
8.80497 122.604 73.1458
23.2412 135.516 49.2997
70.4155 121.004 10.1722
32.4658 150.104 52.416
68.4924 121.057 148.607
32.1076 142.181 55.899
32.9246 137.701 89.1635
40.0441 231.059 69.3758
21.916 145.452 10.9356
63.1119 205.208 145.59
15.0544 154.427 149.993
68.372 190.552 135.514
34.7522 163.888 15.6652
60.1058 209.334 61.429
64.841 202.233 99.1674
47.3476 231.439 134.454
74.003 174.819 87.2669
50.1235 104.132 61.6344
51.5516 210.48 50.6421
25.6851 78.4787 87.305
65.5346 132.467 35.3414
25.5902 111.462 50.1196
45.5689 119.615 112.469
53.7177 61.1529 179.806
64.0903 127.837 135.592
72.7203 169.284 93.4457
14.6972 134.087 12.5056
47.402 135.425 85.5941
63.212 152.89 157.997
22.2955 225.227 127.019
55.2254 166.104 22.2842
7.54882 107.96 32.5857
25.8217 155.929 1.32206
35.6978 64.7626 131.482
29.9891 124.827 97.5612
36.2839 86.97 45.2791
14.0429 131.493 63.9654
58.857 171.215 168.629
37.8242 177.872 171.281
52.2072 230.057 74.7672
53.4046 84.4832 12.7881
15.4677 212.563 96.2095
45.7756 155.825 122.915
37.6116 62.787 137.753
46.3086 153.63 43.8989
17.9353 146.596 41.2732
23.4021 124.024 68.6193
31.3783 161.577 11.3816
49.6325 227.827 149.774
60.8819 231.066 99.3237
68.0115 98.0262 41.6776
46.0998 42.4326 145.144
61.1819 118.705 117.663
69.394 74.2181 112.518
64.6389 126.365 49.7404
90.2951 44.1945 154.442
28.0459 162.954 22.0949
68.8343 111.095 175.544
19.2191 209.807 93.4355
60.7798 194.22 161.412
53.1285 126.265 5.23083
72.3699 207.656 77.9872
67.6757 226.929 97.7947
57.9472 85.9442 17.2169
21.9776 172.751 273.87
35.2027 210.478 249.351
12.2812 135.059 95.1668
90.9294 64.1813 182.631
16.7802 205.711 102.829
32.4114 130.267 54.7155
58.5884 98.1895 181.177
70.2534 100.027 33.3794
46.1781 214.415 76.2698
35.0656 102.548 53.6194
34.5478 98.096 74.731
72.2927 172.31 148.131
19.3458 133.627 69.4152
46.1461 141.014 33.1508
59.2627 164.66 91.0319
54.3661 126.467 137.207
22.1623 114.21 47.702
49.7867 39.4481 148.798
45.37 100.987 8.62109
54.0327 231.149 119.763
11.2111 109.054 89.9462
20.495 148.643 2.66092
29.3517 135.781 96.2675
37.0224 217.176 260.442
66.0905 178.231 108.111
16.2711 114.157 78.4702
45.6323 174.915 172.942
70.6234 191.044 77.9679
46.9926 155.447 127.584
20.8714 122.28 34.8754
34.9885 111.894 87.7633
26.2304 157.64 35.3739
52.4267 198.603 260.171
54.9415 64.0034 188.67
73.5638 117.425 14.6563
16.3835 140.216 37.2624
18.8211 102.28 11.2022
41.9745 122.187 151.772
23.9672 136.496 114.563
21.4154 138.153 1.51933
34.96 185.784 215.663
69.2606 189.377 101.154
9.31888 122.199 13.7902
40.5604 231.807 76.1142
26.8876 222.131 262.365
58.5893 121.696 2.84716
58.2659 220.211 63.0835
58.9018 68.9211 118.595
74.1827 96.2786 54.1269
18.0066 184.26 273.694
42.7997 98.7181 176.608
62.0901 226.2 96.9103
19.1139 226.961 122.425
59.4771 128.083 49.855
35.8937 92.7315 167.894
68.9207 62.1844 185.893
70.6483 185.374 123.297
63.7384 85.6358 120.525
47.2244 82.8153 152.114
51.3387 200.185 125.548
63.7473 149.043 126.465
21.6926 113.031 34.6699
90.3875 82.9618 181.466
55.9065 190.618 268.154
60.5802 133.189 154.405
73.4441 117.549 33.5709
65.559 153.444 30.4777
75.4047 168.541 69.6515
52.6027 164.722 134.841
17.7497 177.295 273.85
10.8938 131.533 28.5908
63.4271 100.64 28.5393
56.433 148.652 27.5275
69.0756 97.0044 25.8916
80.0826 141.947 95.9309
17.0408 132.729 29.4811
41.8363 98.9438 66.9533
37.9173 83.4313 54.3753
27.2883 119.071 68.4018
82.3747 84.9211 187.591
60.3742 117.538 51.2031
72.6074 142.979 142.056
75.3023 155.039 67.6195
50.4658 167.683 23.2744
13.0641 194.164 93.7566
64.8813 137.737 12.7092
65.7423 142.524 6.49607
45.7774 133.177 92.102
33.6989 159.107 34.2572
50.2401 117.28 116.083
68.6547 193.536 124.172
57.0808 211.309 50.3154
16.2574 129.147 31.1653
39.1333 185.446 241.219
43.3111 62.3845 146.695
10.25 192.925 267.102
65.9234 184.799 100.358
34.3067 98.6865 25.0286
96.3064 78.5757 177.025
53.9454 130.386 56.1587
70.9019 81.3149 56.4283
66.4093 206.174 116.278
65.237 122.297 35.6852
73.0764 104.696 10.5213
70.4815 103.097 51.4622
36.3084 93.7551 22.183
58.9104 106.877 4.83848
67.3987 145.553 123.45
59.7435 231.77 110.044
19.6651 179.262 257.52
50.7047 80.3612 18.6949
73.2297 214.331 78.9003
55.9625 139.675 158.859
74.3011 168.539 60.0279
14.6635 167.904 160.276
71.6705 209.259 117.991
64.9198 113.511 2.53259
40.4061 99.6945 51.4209
69.5416 129.303 33.5878
75.4198 95.804 46.9926
48.885 136.026 32.551
39.2875 54.0837 132.885
73.5491 164.328 79.5856
89.1799 103.298 172.545
71.7147 114.725 169.919
42.6881 107.929 53.4422
77.3589 85.7552 192.273
90.8768 55.417 179.098
64.1713 97.6215 12.1322
12.8 86.1613 113.434
85.9261 80.7653 134.667
41.0012 118.631 0.987098
41.4117 91.6489 56.0014
35.8076 175.16 243.22
71.5543 170.481 105.102
45.9544 95.0819 175.038
50.3802 159.23 18.0377
28.115 180.374 249.333
14.3404 98.8262 112.533
51.0241 88.1208 60.2935
22.1168 216.069 274.731
73.7684 144.671 25.0839
60.6378 100.825 64.2169
38.5725 95.8488 59.1234
17.1757 126.952 62.5454
49.3625 192.676 265.722
47.4654 94.5557 61.8551
