ply
format ascii 1.0
comment Created by Open3D
element vertex 881
property double x
property double y
property double z
end_header
47.0983 202.831 122.263
48.2913 197.534 32.4675
48.5324 152.449 68.1837
29.4804 195.521 109.101
53.8223 118.101 112.897
35.765 149.231 128.002
18.7134 149.773 86.2065
46.0371 170.471 12.2981
32.9695 102.212 50.2326
29.8642 162.504 231.267
33.7702 207.639 192.868
22.8306 187.412 81.2488
57.6496 186.077 185.99
49.6756 177.957 222.315
31.2255 169.493 225.549
23.8984 188.293 185.577
64.0467 97.7313 24.8164
73.9734 102.712 20.4371
74.2682 217.943 45.011
48.1432 147.81 135.073
30.7776 196.487 186.645
20.1157 182.381 191.82
31.2686 134.324 15.363
101.381 97.7519 33.1729
25.9482 185.688 113.726
48.1638 183.898 3.53693
21.4391 171.44 234.747
76.6088 124.647 117.978
90.7019 210.626 78.7297
28.3478 162.627 24.1188
59.4438 135.451 132.173
31.564 199.932 205.575
40.3121 199.311 86.1382
40.7347 195.779 72.047
96.167 189.024 9.86226
56.6156 205.088 56.4399
52.147 89.1947 52.4354
66.7786 208.217 53.0682
22.7349 194.762 230.896
26.2748 191.672 31.2629
16.6861 193.406 76.6249
41.2172 187.861 127.777
34.2512 116.887 21.6929
18.9965 163.015 222.843
30.6355 165.795 219.297
50.9788 187.047 27.1423
54.0793 210.359 126.889
52.6636 167.244 216.055
69.0968 87.4182 43.6049
42.7492 203.939 56.3444
21.9301 181.945 100.328
60.7304 191.577 223.169
61.9503 167.274 127.884
76.117 87.3499 45.4904
18.3686 137.145 91.0974
40.9145 99.8446 83.8567
41.1059 193.973 114.596
65.1068 227.256 94.9561
68.2582 190.977 149.398
22.294 143.228 80.1545
56.2729 130.632 123.758
26.8268 154.386 99.8822
41.7877 174.469 185.295
44.2428 203.905 69.4109
63.3703 211.048 137.432
85.8894 124.482 10.7492
20.2171 200.989 220.031
39.1136 139.792 129.823
89.2194 190.99 93.7463
29.8071 167.274 12.2258
50.7078 170.676 191.797
62.5665 115.225 128.255
24.5224 154.591 118.482
84.3285 97.7935 21.7187
59.7573 176.493 198.427
19.6763 156.876 58.6932
43.9942 110.237 115.375
89.7438 89.0043 49.5949
102.757 110.941 19.6781
33.799 134.435 9.1598
33.2219 175.658 186.588
45.0005 93.839 75.3477
53.226 95.1896 71.9522
51.6221 174.976 197.984
58.3937 160.871 139.603
29.5808 123.184 46.5836
45.5403 130.977 127.407
71.0123 203.836 148.375
39.226 106.755 65.6434
19.9633 165.391 115.406
25.3056 143.232 65.8275
66.8009 205.735 112.825
30.695 208.571 217.059
26.5854 116.824 61.7097
24.7014 182.252 209.823
21.3436 170.139 193.603
47.8462 98.9127 39.741
30.5433 173.765 119.396
95.4907 112.752 11.2055
47.1314 108.863 101.436
82.5422 214.995 83.5414
75.9519 198.328 14.0076
30.5995 178.905 83.4481
27.3835 156.267 216.813
34.1429 106.591 38.276
56.7279 121.697 129.192
49.0172 97.3448 47.8798
52.9354 188.057 119.408
58.5489 155.158 133.812
15.8481 182.638 60.4216
24.9889 153.304 29.568
44.5114 164.266 196.603
30.9831 174.052 28.8274
48.9881 165.411 224.641
21.7491 166.043 230.071
67.4702 209.249 23.6476
45.6655 103.571 77.6986
77.1104 115.045 121.424
25.1479 201.797 190.123
39.4254 177.521 194.419
37.3995 176.917 16.8933
67.9751 169.972 150.075
33.6497 155.245 217.466
31.8269 105.713 59.57
65.8852 193.89 125.307
73.6107 169.204 149.575
73.7166 83.9023 54.0749
49.7416 104.875 69.3534
22.4054 136.296 46.5402
29.1641 203.871 200.179
57.7954 98.0076 97.2498
25.8423 122.099 20.0602
61.8573 218.622 49.8894
65.5098 218.526 39.4188
78.2437 206.573 138.184
61.8906 203.874 20.7717
19.1467 141.747 59.2953
96.4434 126.7 10.6223
25.7693 167.087 207.532
27.0984 133.988 95.1375
62.9506 224.203 110.152
17.3455 162.99 93.9365
43.3618 201.562 96.7543
47.352 207.288 46.0157
32.429 127.242 84.8006
42.5758 166.946 132.319
92.8534 95.5279 29.5768
104.618 123.656 11.0306
29.951 195.036 233.152
35.239 112.206 99.9947
45.2947 214.972 80.3029
16.5065 121.776 51.4884
50.5338 180.874 186.276
32.8804 194.599 18.8091
37.6241 181.606 23.4097
37.7262 97.4995 69.0031
90.7615 106.698 17.5721
37.48 107.84 106.699
33.5097 160.011 207.849
60.6509 87.3005 65.0961
13.3477 139.107 45.4147
58.1424 222.122 69.7774
67.6862 116.592 121.243
71.6913 221.84 128.066
96.344 100.469 51.3581
64.0117 83.7779 51.9411
46.6309 188.148 16.1863
18.438 200.099 206.199
63.4406 104.259 13.9565
51.3083 214.642 56.5879
72.3686 192.74 88.0094
64.4693 146.674 138.622
20.0296 134.42 23.778
101.057 144.281 114.538
84.1718 173.384 149.86
21.5186 124.393 71.5202
88.3609 88.6922 58.6228
89.4023 205.308 33.2008
75.0331 88.8649 37.5379
32.3185 182.253 79.3939
13.2417 169.317 206.144
45.6628 192.568 223.587
29.2268 207.57 75.9816
19.6848 154.544 93.4417
16.278 169.953 96.772
28.7287 204.333 93.2853
90.6676 206.181 68.1433
30.611 185.268 181.798
44.2215 173.976 197.787
50.0768 187.606 228.623
48.916 91.4948 41.8705
97.4361 197.39 27.861
49.8205 94.3775 31.6698
32.1675 185.926 40.4121
17.3091 163.364 213.651
67.6197 220.16 85.667
51.9959 162.775 54.4548
35.7155 207.025 97.2222
54.1012 188.824 134.731
41.5907 194.556 11.0727
31.4855 114.843 81.4481
58.7608 187.597 2.44459
50.39 123.949 6.0084
31.7388 172.601 231.617
27.9129 159.241 37.0485
40.071 100.06 43.8895
49.8999 196.903 112.558
32.2699 118.15 38.3628
21.5355 128.358 43.9544
57.7386 89.5009 38.2741
62.1718 174.55 206.056
59.3615 200.233 201.284
52.3711 164.668 139.427
29.4813 165.512 34.37
26.334 156.052 11.9396
68.5008 140.89 22.4017
77.1457 146.53 136.631
23.3835 184.766 63.6969
63.6121 223.656 119.726
62.2164 186.451 148.544
57.478 137.089 3.95172
15.6108 148.544 18.9679
15.3302 167.219 219.812
56.097 94.6627 27.7416
102.548 99.9099 40.3271
88.9196 138.368 129.547
13.0542 177.499 217.576
75.5896 213.837 143.133
29.9067 171.594 238.311
15.472 163.743 44.7452
22.0927 163.083 200.035
25.0412 192.679 205.934
52.068 197.16 221.405
58.1913 108.74 119.212
40.127 186.24 188.042
16.7771 188.714 232.788
21.9181 165.732 49.9206
18.4407 194.795 192.252
27.3875 112.423 26.6488
34.9675 202.531 228.041
79.2834 127.111 128.461
76.36 108.05 11.9098
55.773 194.865 188.206
34.7697 208.247 78.7375
18.0922 187.045 42.4338
83.8741 96.0896 74.5762
25.4623 121.253 52.8206
36.1499 192.05 59.5044
35.8265 194.903 182.599
26.4447 124.434 92.5347
49.1015 205.98 202.434
18.6389 142.377 102.198
58.5943 210.705 44.13
82.8706 87.1488 50.3666
36.6259 185.133 239.696
28.3409 171.272 39.2567
59.8054 99.1725 77.123
25.7519 141.942 94.5821
23.9382 183.986 45.6328
43.0707 107.393 58.2838
57.4366 196.905 143.956
57.3409 217.068 37.6107
52.9473 109.575 118.815
52.9519 196.204 9.49817
48.4829 177.814 232.44
68.5727 203.123 83.7929
18.9621 118.464 36.258
26.9949 107.425 34.0709
76.0364 123.514 3.9103
69.703 167.399 122.457
54.2146 201.719 210.046
105.614 149.897 120.48
64.8419 186.934 218.75
19.9758 173.78 219.725
34.7104 102.743 73.8448
27.7407 164.719 120.707
18.2631 172.923 208.344
55.8404 167.414 206.329
77.1878 193.564 110.078
38.1245 189.934 31.4814
76.4598 220.94 105.989
60.8211 219.14 125.112
34.0239 166.892 191.775
56.1418 222.909 105.234
60.7966 119.997 5.87907
20.8138 192.76 38.2389
49.2908 176.398 2.25614
64.7495 202.936 123.242
86.7002 192.394 109.894
43.4327 203.661 226.272
23.9854 180.478 39.2983
62.0762 196.127 11.3669
42.1547 91.8825 49.7118
16.1473 163.186 82.9394
31.4995 128.964 16.6583
22.1357 184.6 33.8092
44.2571 108.561 20.3603
101.905 186.854 14.3177
75.9132 209.23 102.197
39.3374 178.647 126.674
81.4947 113.873 7.6043
19.0273 192.781 44.9148
59.1607 199.602 214.828
21.3557 190.648 56.2494
50.2787 220.144 62.8595
82.3598 105.242 17.5468
59.6393 173.769 218.642
13.7426 209.926 143.046
17.2423 190.746 199.508
17.8957 174.341 104.892
87.9355 190.012 14.4195
39.5289 165.447 4.47436
22.8992 173.543 116.471
59.0586 190.651 193.308
43.4696 192.39 190.252
36.3978 203.895 221.338
68.9458 98.9897 90.9536
56.5068 90.7403 45.817
16.0639 152.898 72.6526
35.9472 199.653 24.8973
95.0233 155.412 2.40079
67.5585 223.64 74.5067
20.1735 162.562 38.8482
34.1248 200.307 57.3106
24.5008 178.727 194.021
33.4841 209.293 84.3455
68.2603 98.1263 61.3841
56.6476 197.358 134.519
54.0201 136.709 135.771
51.4677 172.027 128.316
78.9802 194.886 5.07513
52.2395 102.803 27.0462
18.8034 168.018 83.2616
28.7582 168.092 20.6717
22.7331 174.993 78.9126
64.0511 182.167 121.593
29.6303 169.76 65.5417
63.7382 129.178 129.906
37.4581 184.87 181.945
36.0734 163.104 231.564
49.2309 188.625 184.49
61.4967 173.899 146.786
24.6085 164.149 213.445
66.4486 96.8544 80.5374
36.4311 74.3402 61.9321
20.3181 164.486 104.894
31.9054 178.503 233.39
61.115 214.265 27.4017
25.8202 167.798 82.9196
35.1614 158.789 200.91
66.9652 166.77 137.446
18.1139 140.717 42.1168
41.5336 103.674 96.1777
97.5548 124.71 107.445
29.3102 180.482 29.9784
26.6582 207.293 208.82
86.0852 181.936 4.64912
50.3032 176.254 130.054
21.0599 184.416 203.43
24.5073 111.911 50.3774
73.4169 155.887 135.049
13.9235 188.991 206.12
84.852 165.239 141.136
84.3376 229.74 90.3027
14.0125 140.335 24.5303
33.0974 159.283 223.65
23.2899 138.64 17.9975
21.9631 172.462 43.8391
23.0217 164.32 13.1923
34.1247 147.374 119.44
45.6854 102.051 50.765
91.0293 130.346 126.655
91.2379 210.523 44.3319
78.5203 211.018 34.7561
48.7866 139.235 134.869
41.1947 194.832 231.551
29.7004 165.362 53.5057
46.9505 181.863 123.151
49.4907 205.385 212.401
25.6641 183.694 238.535
27.0233 128.535 86.1573
14.6527 157.34 66.517
52.8584 193.225 125.96
17.417 125.475 34.7623
16.4447 177.281 87.4552
75.1611 184.573 149.536
54.4299 208.406 92.5514
72.6131 210.553 87.6955
30.7812 112.363 91.1198
77.4847 207.849 64.8624
33.5698 181.422 12.0218
20.1671 158.036 64.8573
36.679 160.51 124.855
73.929 106.305 100.799
40.4005 168.52 235.24
94.8927 205.497 82.7355
13.712 132.998 56.6745
82.4136 214.76 72.8345
49.6646 99.3774 94.1863
42.9683 202.974 194.374
26.2576 153.882 72.6438
28.7803 194.407 211.302
49.3063 220.115 79.3513
93.7785 137.45 120.335
74.5642 209.247 28.5553
31.4852 157.872 10.0166
41.1254 155.674 214.064
67.8546 107.906 109.247
42.2599 186.315 235.532
54.8085 100.801 34.9305
22.7065 124.028 30.4781
34.0769 204.789 49.3926
96.1989 198.654 16.9527
28.3588 132.892 75.1267
41.6791 179.646 8.84268
21.2447 190.527 99.2274
84.9805 197.444 31.424
100.509 198.345 138.586
55.7387 200.909 108.217
90.5562 200.251 21.6144
40.0455 136.229 9.42046
35.0112 105.603 95.6648
15.539 131.992 48.9458
35.4126 208.528 200.847
39.8656 113.874 24.9823
28.5417 173.154 18.5277
97.0038 138.854 3.42695
81.3383 206.977 74.9746
30.2803 110.475 51.827
66.3334 128.513 137.405
87.3417 209.071 138.666
67.7327 211.788 62.0637
70.7537 138.915 2.20055
44.0449 161.304 218.452
66.0083 215.677 106.375
70.9352 141.889 137.702
78.3677 99.3849 33.0506
72.023 189.88 98.5549
89.0801 165.012 1.74655
34.5032 105.598 82.1523
104.258 107.032 27.4554
34.008 196.273 31.6517
16.5311 174.767 226.181
17.304 164.089 205.116
78.5669 184.632 138.593
80.9146 215.562 39.5569
38.9331 199.727 228.939
67.3571 215.803 75.2714
55.6601 183.168 140.952
24.343 173.912 11.497
79.5195 188.607 97.1745
34.9868 143.116 4.22348
81.2259 203.955 19.5819
62.7098 200.181 147.309
66.3112 182.547 212.122
23.3306 178.946 105.786
32.2735 189.039 237.282
36.0213 122.594 10.3311
49.9908 192.867 136.384
57.913 103.541 86.1858
30.759 149.593 6.50934
26.8468 110.759 83.001
19.2224 146.788 27.8861
51.8203 200.628 192.325
34.4096 199.208 68.9645
22.2348 165.44 17.4317
23.5369 200.757 226.119
96.3944 209.834 87.6063
27.8488 185.558 32.9281
57.6431 213.403 83.2606
43.1537 206.847 20.4276
32.6432 121.447 78.6112
73.9724 95.8602 28.0824
28.0193 185.746 49.3956
25.7494 151.275 9.47241
87.8616 216.738 51.1631
20.4063 152.131 49.3195
35.1506 120.195 113.743
20.5967 150.988 112.535
70.1634 225.073 122.509
25.3141 169.348 34.2779
46.4645 164.972 207.006
34.2001 163.658 197.357
50.754 117.548 124.209
15.6536 158.792 106.962
29.3199 193.581 63.285
29.0711 169.381 113.089
89.8559 107.319 60.245
85.5147 212.37 64.4534
71.9903 226.248 112.17
78.3944 196.431 149.445
51.7312 168.125 67.1586
99.06 131.402 115.127
51.987 105.274 18.4942
80.9641 152.046 1.74402
25.9992 113.327 72.2048
60.0559 93.5607 83.3958
49.474 211.286 91.7714
69.4232 110.36 15.4254
54.7842 101.32 109.337
86.5745 183.089 106.631
92.6995 201.112 136.602
19.295 178.899 42.1915
42.4208 158.952 206.108
21.6296 141.067 35.0238
17.4685 169.76 39.7296
17.8519 155.615 103.862
15.1097 183.862 211.086
37.4826 129.417 8.80992
93.4612 126.501 117.57
28.3108 201.631 215.493
14.7499 151.108 67.3888
16.4506 173.115 77.3416
33.5937 165.674 126.661
68.0241 196.222 83.3364
46.6714 206.707 31.2157
47.8766 121.468 9.98631
86.9015 189.572 2.40011
17.168 125.39 60.411
37.2517 204.486 27.4415
41.0184 132.715 116.36
58.2499 102.874 60.7678
15.9404 165.429 59.3229
39.0399 210.181 205.476
21.782 162.46 70.6698
37.1182 205.742 209.874
84.5712 93.2965 30.7292
111.622 149.815 8.80562
61.3615 101.509 64.1112
45.662 133.285 7.17629
26.6788 181.073 58.7178
95.2048 211.374 54.3863
76.2611 161.345 142.253
72.5662 121.27 129.903
39.3795 159.29 4.1906
45.3293 208.156 92.9558
77.553 188.481 4.01183
55.5209 167.579 134.078
40.7636 172.904 119.803
86.9677 100.941 49.8312
75.9199 207.548 53.2276
51.4466 99.1005 59.3858
58.8251 181.001 148.222
94.0545 124.103 89.1285
74.4943 216.546 98.3955
61.7848 94.2873 65.4945
96.5072 174.872 3.43644
25.8299 175.172 73.395
76.7045 91.7176 28.2778
104.086 217.332 94.1288
72.1964 175.701 150.929
96.266 102.146 23.3203
17.3753 183.011 48.2663
55.5287 211.66 26.4978
14.8694 160.67 47.8506
16.6643 156.954 79.694
104.457 220.871 105.063
37.4185 211.377 73.2736
14.0522 171.23 66.3108
57.5798 116.701 122.655
54.8381 172.315 223.801
15.7763 164.04 69.2846
39.9765 159.302 224.538
23.3268 168.155 25.383
54.5183 221.038 80.5208
44.593 127.379 121.347
39.7346 209.362 38.3051
57.5672 160.935 105.731
12.7748 157.347 52.9605
30.099 177.025 49.0892
21.6756 169.592 74.84
13.3308 157.512 93.5818
41.0689 203.723 41.2065
14.42 160.651 23.5459
17.5261 151.878 55.6249
28.3439 150.49 17.1301
78.656 230.031 115.471
85.1909 231.097 111.035
88.939 224.859 124.524
21.7224 157.897 13.3484
47.7269 198.267 18.0563
19.4132 185.875 28.3047
73.5953 99.206 72.876
102.799 137.072 119.67
19.6669 184.8 52.2614
44.0848 94.8975 33.6278
26.7162 143.99 100.326
21.9175 174.173 60.7737
72.3434 213.554 92.3963
45.3766 216.883 86.3878
56.1908 217.915 88.8103
29.7719 159.531 45.9571
25.6091 169.031 57.12
32.1894 161.632 14.1513
41.7074 119.306 11.8299
50.6983 163.509 75.3632
74.8317 212.788 73.1044
82.1551 168.011 133.369
15.4967 128.202 68.5387
77.3935 174.175 142.719
35.9994 196.309 42.5441
80.0599 199.75 78.3943
90.0875 174.623 2.10714
92.6073 101.362 86.4989
31.896 177.686 41.967
20.767 112.847 40.8843
27.8023 197.07 61.5517
82.2206 134.793 136.482
11.691 187.843 222.863
65.5035 93.9931 83.4883
75.513 86.997 65.2297
25.3365 152.567 24.0674
61.5412 215.01 91.1621
44.1288 206.395 212.342
100.137 179.515 7.77675
24.3521 178.013 22.9097
12.7816 155.51 78.9446
52.3936 110.56 12.229
41.3769 194.557 43.9381
69.7325 190.853 116.207
67.1882 95.3915 73.7165
27.2487 124.1 71.7188
17.0464 194.064 87.8741
14.357 188.097 216.781
83.8244 108.281 23.8183
111.83 113.606 28.717
17.0592 168.696 54.4762
87.1452 199.198 16.4338
27.4129 146.113 119.146
70.1993 132.855 25.6556
79.9339 196.376 86.8684
33.4578 170.322 32.2477
86.2164 96.3023 63.6285
72.0857 198.897 88.4758
27.3154 183.688 22.3007
30.7615 148.883 124.081
13.2842 186.694 90.9592
25.0879 199.853 42.9796
55.5416 170.665 38.6981
46.6406 197.225 187.916
13.6933 181.808 73.4921
65.9187 197.489 205.721
40.7095 202.936 216.524
20.4221 145.694 12.9092
23.1247 204.714 214.022
44.3608 210.352 52.7431
17.3205 146.266 24.3974
66.7592 206.232 143.755
49.4412 158.77 82.5544
25.2618 181.744 225.838
52.3727 131.844 2.59166
51.8353 166.673 3.25314
26.8593 158.365 31.5535
16.8249 185.613 73.758
19.5908 168.605 69.4124
71.7714 208.684 41.1404
21.6105 155.17 36.9324
58.0071 105.521 106.137
76.5152 220.258 70.1057
40.6774 145.495 2.70437
17.1629 165.568 23.8571
88.6942 179.833 115.235
25.4194 189.96 55.1675
87.408 220.303 93.4934
15.5556 151.238 27.9324
100.434 120.278 15.1544
45.2718 199.672 101.771
74.2636 167.007 56.6604
89.1401 143.459 5.643
18.1856 157.562 51.768
69.7134 164.042 82.1918
61.6901 175.99 133.572
88.2662 226.039 102.203
26.3899 113.339 95.9744
68.2799 162.371 25.6423
54.4589 119.413 37.9923
67.4306 115.741 10.4143
17.6808 127.795 25.6531
102.243 202.719 42.4442
24.0203 158.015 110.352
75.3989 231.393 108.224
20.5376 189.19 30.9201
63.7205 212.16 87.4887
45.2274 97.3381 19.872
69.4315 181.295 150.434
86.4675 217.529 85.5337
33.9117 160.137 1.39643
81.9379 227.814 104.346
100.478 161.085 9.38037
92.0438 118.504 114.876
18.6903 149.988 13.8931
105.537 210.374 112.029
54.877 127.086 1.49471
93.4497 215.647 132.371
51.4096 173.677 206.209
84.3482 150.192 126.294
14.564 175.901 71.2252
28.6568 173.805 54.1729
26.6971 170.351 8.65844
69.6501 95.6829 48.6891
14.1383 155.676 29.7814
22.6344 152.159 18.2799
12.44 140.854 54.5959
42.4201 200.121 27.2367
67.3133 166.512 59.3756
41.2468 107.503 30.3387
23.7876 172.247 16.6195
89.8953 152.767 1.60101
23.9689 162.741 21.5475
94.8592 217.806 103.229
17.1379 156.424 13.5183
23.8516 163.202 177.602
19.9502 194.147 53.0883
18.6151 192.289 215.451
23.8854 191.638 214.823
20.9605 160.857 19.4958
22.4212 172.449 38.5422
17.8574 188.475 48.1545
111.917 177.543 10.5241
48.8676 211.685 35.4467
23.8455 175.122 54.3854
75.0187 204.228 21.3714
21.1404 168.904 21.3232
76.7605 169.454 77.5909
66.2413 212.603 43.1522
79.215 89.0234 62.9812
21.3109 172.073 33.6567
72.7966 214.79 59.6833
13.4065 169.048 86.5967
94.47 115.085 91.4817
22.9884 170.593 65.2819
48.6099 169.215 229.917
25.3493 148.963 12.9454
80.1071 228.961 98.443
52.3474 95.7486 81.1898
78.8506 163.84 124.546
101.551 201.067 91.4696
74.2323 109.747 117.608
86.0379 209.373 145.21
85.1889 136.086 3.72692
22.4069 185.964 25.1717
19.4113 145.854 49.5399
13.1527 169.927 73.4849
17.0048 189.566 70.0857
80.9626 98.2877 46.9614
21.4266 165.598 60.8043
101.646 145.136 7.9724
34.4736 162.423 122.049
80.456 171.674 122.146
68.701 100.005 77.259
18.0335 154.382 67.507
60.2819 190.691 124.93
80.0271 97.9701 59.611
61.3102 98.4705 60.1596
39.4914 212.577 49.7963
99.7673 192.427 21.2534
33.7559 202.943 40.048
56.5294 176.209 142.291
34.5701 187.351 9.54942
13.6866 152.411 52.4362
25.8733 169.427 74.7933
14.0467 149.509 58.345
47.2084 160.549 1.32232
89.2409 156.547 9.62113
93.7778 150.057 127.426
84.7554 203.91 87.0744
25.2532 122.843 83.6643
93.1837 211.528 137.568
62.1982 182.149 1.31949
15.3452 144.24 34.3194
13.4497 164.73 34.6584
62.6491 103.362 57.9333
13.9773 156.322 75.5135
94.1924 194.891 86.7465
13.7612 143.078 38.7337
17.6713 138.463 67.0584
20.0653 183.222 223.465
28.0434 159.076 60.01
26.4936 202.372 73.2497
32.0642 156.929 16.8769
58.3121 143.583 1.25897
26.2735 189.733 38.6082
18.6518 191.227 63.3912
23.6207 135.859 66.4605
41.9585 207.268 25.3709
81.775 208.152 86.0784
21.8922 190.828 48.6755
25.3974 195.627 51.6834
17.3784 161.269 34.2206
72.6669 95.0241 79.7214
77.6441 174.404 128.712
54.337 167.929 105.091
24.7581 197.245 36.5917
18.6149 157.72 31.0244
48.3512 114.898 16.936
23.4967 162.092 43.3386
72.8261 174.324 131.413
62.4733 159.297 1.1578
56.3647 130.809 67.8253
15.1099 152.361 61.3959
14.2282 156.596 19.6156
30.7063 175.574 69.8168
18.7407 162.762 79.2313
17.4495 171.967 201.153
69.6935 127.958 129.003
25.2478 191.544 236.583
23.3138 150.997 52.1552
107.894 155.188 113.936
79.9347 137.467 50.2446
89.488 95.1749 37.1416
17.0998 131.562 31.2868
26.7186 192.49 41.8387
50.7587 215.663 82.4664
50.7915 219.223 89.2573
34.0957 205.889 64.2271
15.1489 168.418 103.047
20.9956 159.741 53.7581
50.1652 138.011 1.40842
40.4831 194.878 27.8018
25.8662 177.23 175.703
99.6651 171.89 8.94598
57.6222 166.72 67.1393
91.9295 178.766 133.282
81.1269 192.881 91.1537
102.761 210.672 102.194
23.0706 179.895 52.2988
44.8957 189.392 9.33145
30.1017 111.167 74.6152
61.2125 196.032 119.517
20.7724 181.844 66.7875
46.5609 123.063 117.196
45.8385 208.351 39.7204
92.6157 135.46 3.04987
107.279 199.119 28.1331
69.0321 169.244 1.09538
17.381 146.41 71.435
67.4413 174.592 130.583
16.9921 166.583 29.3944
12.757 154.966 45.8755
18.6581 150.278 77.0466
91.2868 122.883 9.09327
76.4091 168.068 120.67
100.978 123.782 96.6479
17.776 158.99 22.3518
97.5247 94.2701 45.2496
73.6815 129.553 3.50749
98.7688 133.967 102.815
23.3745 164.811 32.9692
23.6794 183.422 55.4591
17.8169 177.001 66.3782
59.3115 187.559 200.471
77.0243 129.676 62.691
14.5832 149.97 41.6737
17.5467 191.372 51.0969
41.4412 166.733 127.25
85.0506 152.094 132.23
16.1892 187.241 57.3446
98.0211 203.471 100.361
34.8714 170.909 111.399
74.1025 94.5975 41.9126
96.8921 108.311 86.8271
22.5837 149.194 46.392
97.6129 211.728 74.884
25.0426 163.474 39.0202
102.99 186.025 135.139
91.8126 169.431 135.273
87.3611 140.523 8.96701
23.4379 156.272 43.0406
56.2782 92.9384 64.1359
33.1802 127.05 98.42
95.1772 229.332 103.785
25.4943 157.186 65.3544
20.2452 173.098 71.159
22.712 159.175 31.0122
86.8434 130.164 2.07207
15.8984 155.14 43.859
44.6457 192.304 21.1222
16.1754 147.487 51.9327
66.4447 163.48 79.5576
19.8652 192.206 68.5099
99.9986 202.73 79.4586
