ply
format ascii 1.0
comment Created by Open3D
element vertex 265
property double x
property double y
property double z
end_header
41.6997 158.307 75.3717
16.1477 197.971 92.6505
14.0686 168.113 72.7203
26.9192 161.124 109.577
28.4843 165.539 83.7801
29.1967 158.064 101.179
19.3944 169.738 83.2197
12.8465 113.564 46.2851
15.5807 181.098 92.0907
26.0161 183.421 129.758
48.9371 163.627 84.3753
33.655 186.224 81.9635
26.2883 157.377 76.6014
16.1622 174.59 88.6837
31.3774 166.544 104.53
18.3066 186.222 84.1952
51.8237 133.122 99.5068
27.5856 174.475 98.1329
26.3931 196.911 94.4838
28.7619 126.807 66.6504
22.9288 183.652 115.4
25.2794 198.522 108.105
11.4897 130.143 68.4937
10.2146 173.726 78.5944
36.0466 157.331 97.9061
27.5363 172.853 113.953
41.1552 144.555 83.7663
22.4012 130.201 104.026
8.91421 145.902 53.9214
46.2685 155.466 50.2325
32.7447 129.305 103.418
16.5999 189.427 133.573
19.5584 177.791 96.3907
55.8033 148.202 102.372
59.9189 141.949 108.315
19.9496 129.983 68.8347
26.2293 143.456 60.9802
29.5621 176.816 134.26
23.921 146.22 123.108
14.4992 158.126 54.5357
15.4661 105.47 81.527
31.9145 153.272 130.897
41.0063 177.957 128.038
11.8704 182.794 113.701
18.4889 188.17 76.3873
28.6074 171.067 91.7383
58.626 121.531 61.1713
25.3366 136.953 94.1904
8.40773 175.645 132.944
22.0476 168.796 75.028
23.4864 175.505 89.2585
30.5078 182.342 110.954
49.917 182.218 80.5589
23.0082 200.313 117.98
22.659 163.485 63.8653
29.9177 157.861 45.9893
22.4136 168.288 142.251
67.2014 164.923 105.925
59.9288 185.754 85.146
58.119 141.114 96.1488
27.2846 178.731 103.902
17.9498 203.97 107.882
57.816 139.403 58.2624
48.2752 118.952 87.1779
42.5286 132.159 87.4248
36.7249 175.713 97.2249
62.9599 131.636 62.3745
26.6742 189.678 123.453
12.319 103.275 65.3401
20.0045 181.5 105.254
21.3349 157.739 47.78
63.1164 155.334 90.6551
28.467 194.26 115.497
65.815 181.719 87.7118
14.3564 176.546 68.8356
10.2827 170.48 60.4584
10.7801 161.75 66.416
34.4141 136.761 112.322
19.442 193.229 124.549
9.48119 111.884 66.9718
69.3044 163.393 67.0278
10.6523 124.209 50.2088
67.8093 145.126 57.4447
20.7747 103.892 71.6669
11.4133 142.559 67.609
41.1268 153.845 43.6468
15.3601 183.186 27.2482
58.0604 145.81 65.3475
72.8391 150.143 120.986
22.0052 106.744 64.9753
54.1052 166.347 114.783
46.7616 165.368 60.7807
60.355 160.275 76.8223
40.9265 161.429 83.984
10.1032 143.916 45.6183
28.9168 145.108 92.5763
65.1586 142.511 120.821
67.3618 172.521 74.8401
63.3834 134.39 55.8128
33.0449 151.608 111.766
12.1728 190.268 94.6067
79.0871 142.061 73.9147
35.8805 182.173 123.394
57.5214 159.555 104.716
13.7067 118.052 69.6768
36.7416 165.276 88.3237
43.4688 187.113 109.039
56.0404 119.636 99.6654
23.1569 124.096 72.9196
64.6799 151.937 79.1844
16.3522 152.168 69.0069
46.1873 153.335 67.5284
39.084 164.807 102.491
39.0469 136.776 96.8533
7.87969 189.181 102.703
43.8526 164.275 52.3547
16.7251 106.87 99.8076
53.1313 166.392 61.2278
26.1387 143.86 47.5344
35.2184 168.874 50.1412
30.9542 151.22 100.153
25.8726 163.115 55.1211
40.9252 127.928 78.8874
35.634 148.974 93.9949
35.0336 147.679 104.793
78.1944 145.931 111.701
15.1831 188.084 106.838
35.7733 142.904 121.819
35.8829 170.968 113.118
17.4294 161.905 77.7626
45.3468 150.104 108.235
40.8252 128.269 94.6661
20.4924 121.196 83.8545
35.2029 184.826 70.8671
17.9511 138.36 44.7655
39.5849 156.482 121.299
29.6193 141.788 97.7001
51.9764 122.074 84.185
12.2542 105.547 56.2985
31.7267 138.725 85.1664
26.9155 167.752 117.687
7.47395 167.727 37.7655
11.8843 119.527 61.4962
65.7131 124.81 65.8577
29.9552 127.281 56.197
58.8203 162.951 99.2064
57.5205 128.736 113.046
61.4963 177.835 76.3582
13.7215 116.23 75.6882
17.9959 147.12 50.9726
28.0827 177.031 58.9247
72.6339 127.191 105.897
33.0552 129.574 75.3983
35.5669 184.707 111.119
42.1481 188.238 82.0325
65.6934 138.944 99.2489
41.477 131.981 42.1908
36.7945 179.415 62.2678
35.2702 193.411 96.3646
33.8347 162.928 98.534
59.9187 147.766 89.5091
29.4635 148.105 44.4271
49.3061 157.922 57.4494
50.4963 150.44 120.398
43.601 142.988 107.123
37.2761 180.045 90.2432
25.5376 154.925 62.7065
63.8651 121.076 76.3494
41.5332 168.65 130.256
55.5412 127.909 92.153
33.4529 133.414 80.0912
58.3003 136.76 49.383
30.7823 113.596 79.1
34.3231 132.951 53.5737
47.3282 165.039 71.111
13.274 121.989 55.269
22.4384 127.273 95.5891
38.1389 142.047 39.9211
16.3057 138.698 66.3747
23.531 116.779 56.3562
70.1205 143.018 115.751
37.4455 128.052 71.108
23.036 133.245 61.121
30.477 109.911 69.0444
54.075 148.735 59.5789
44.3428 133.197 104.509
59.298 167.064 94.9669
61.2518 147.516 71.6346
51.0867 157.403 71.9283
51.4223 177.705 65.722
30.194 120.386 96.3081
31.845 122.187 71.9047
25.2458 134.186 83.1694
66.9509 138.698 90.0294
32.6081 191.003 111.13
58.3224 126.746 50.7607
45.5809 175.338 60.1335
49.3963 136.61 108.661
53.7402 116.409 75.1742
59.5169 163.721 111.661
40.6701 152.821 95.2585
62.6419 157.315 57.0399
29.5671 186.309 78.2844
23.2198 126.499 79.4322
25.3647 141.555 114.362
59.7139 182.434 95.3643
50.93 182.33 72.1184
54.7079 141.662 121.232
35.2118 161.615 122.615
51.1257 139.019 41.8737
21.6099 126.429 45.375
41.1786 146.808 123.284
34.39 171.382 133.491
53.9603 157.647 76.4613
62.4371 164.064 105.33
38.8388 119.219 58.1361
29.3618 164.552 128.436
72.3174 130.857 115.251
49.8378 189.612 86.78
60.0093 155.128 69.3811
16.9483 179.606 35.8853
21.6385 120.814 66.1399
65.5476 126.117 110.339
67.8621 148.404 85.3604
23.1202 110.252 85.4349
54.0416 147.46 47.8564
21.8598 113.836 78.5435
39.2214 119 89.2383
32.5966 119.54 90.185
64.0009 123.715 92.0058
31.4363 165.124 92.1979
33.2045 132.748 69.7042
71.7435 149.523 60.6231
47.0286 183.734 117.603
58.7319 153.358 122.735
79.8357 148.05 69.4029
49.127 185.399 96.7326
65.463 146.536 93.6496
54.6321 150.918 53.0585
69.3515 174.861 84.0144
62.1709 137.124 99.3652
31.1127 141.566 102.838
73.9379 128.815 66.3405
29.5347 191.047 97.1964
70.039 156.973 63.7057
67.3914 120.804 84.7381
40.1334 159.912 125.739
63.6173 159.035 64.9835
76.2999 157.105 108.394
50.1142 124.242 44.7418
18.2799 184.516 35.9366
61.3465 162.948 60.546
36.6584 162.975 94.0543
34.4553 119.99 83.4466
60.0016 174.147 69.0447
47.898 114.11 66.4723
49.1582 145.649 116.308
73.5991 125.823 76.3298
31.2266 124.866 83.3674
33.3806 162.953 131.685
73.686 165.781 108.391
52.7086 172.884 114.417
73.0782 138.19 61.8774
51.7901 117.913 54.9512
81.0271 137.95 104.942
