ply
format ascii 1.0
comment Created by Open3D
element vertex 226
property double x
property double y
property double z
end_header
30.8405 166.17 254.315
8.91548 126.565 103.045
29.2982 157.856 115.228
9.18995 160.188 114.454
51.2152 159.59 61.1719
23.1788 156.406 128.459
8.69893 109.802 97.7465
33.3889 191.575 243.927
37.4646 164.3 233.254
39.2735 158.313 75.422
25.824 196.278 241.503
46.4673 161.366 260.634
22.2343 164.534 81.8284
49.141 133.586 232.981
20.4855 129.729 3.74655
57.5189 136.621 46.908
8.1753 125.84 116.086
10.7945 195.527 101.526
34.0063 146.536 230.697
9.36093 144.751 127.75
8.35507 162.073 131.181
33.6457 155.126 107.555
70.9933 153.832 30.9143
37.243 184.763 234.489
10.7434 154.051 109.366
24.5 157.526 72.6789
8.13292 192.946 76.584
8.29019 153.9 98.4151
27.8795 193.222 252.404
17.5382 189.27 247.674
80.3292 157.668 31.6899
16.3736 206.767 237.766
17.0665 119.569 100.293
11.1839 188.334 257.504
11.6247 175.79 247.501
9.64626 139.988 119.685
83.2682 118.875 107.015
18.8248 95.7149 2.82732
56.0572 119.391 114.165
33.415 172.863 263.765
9.09693 131.076 94.6901
8.5382 104.442 121.214
8.40544 116.771 80.1278
31.2814 179.128 243.101
7.19499 166.749 121.703
9.90879 136.254 3.85802
73.0499 108.365 272.296
33.4633 167.562 226.931
12.0109 144.686 148.057
53.1066 122.591 93.6637
7.84676 188.175 98.3381
31.9878 165.734 132.725
12.8116 179.516 92.5033
26.1411 169.731 266.104
63.5706 167.969 38.7684
18.4113 112.969 113.192
40.8992 163.821 266.664
40.4239 161.702 44.2531
24.9039 167.35 233.225
39.1171 171.131 74.3427
34.9402 124.617 114.557
29.8692 189.539 86.6434
16.3033 216.862 240.29
28.6511 130.361 108.498
18.3328 144.774 84.4632
49.0653 172.225 40.5581
32.4524 135.193 92.6074
91.0192 147.194 112.39
53.9612 137.501 58.0684
47.5122 127.491 76.617
21.0094 129.922 128.974
54.7951 188.079 49.5938
29.1185 125.764 100.465
8.6727 131.966 74.303
14.3164 189.471 237.82
26.1023 156.365 97.6287
35.6853 154.855 269.832
13.806 174.119 93.3285
19.5997 158.232 97.9837
26.0054 174.167 84.4247
18.0037 112.137 2.30518
32.25 164.618 94.0325
60.5364 159.905 79.2207
9.87077 136.489 132.108
23.3876 188.511 80.4888
23.0154 126.69 96.5087
31.7318 151.896 126.928
54.2259 115.805 85.7784
21.2524 147.302 112.507
64.0234 128.194 59.474
9.15988 198.817 244.918
10.0634 212.507 65.1526
30.1389 195.014 233.221
21.504 190.945 70.5257
26.0816 179.53 233.714
8.93009 152.487 126.855
40.8042 140.652 237.038
16.5251 198.696 249.86
9.01762 126.702 2.46898
46.6872 170.832 259.901
39.3147 155.956 90.6552
59.102 154.176 36.7203
7.67222 168.321 85.6389
25.6421 165.212 106.27
28.3467 93.8878 4.64149
13.1451 151.243 116.992
7.69892 183.47 130.226
39.3747 164.388 54.9188
22.5784 84.1016 1.98739
46.0329 133.364 48.7633
52.6143 147.166 69.4496
37.2614 132.739 137.188
54.5588 167.391 33.0787
25.5002 151.807 92.0624
7.42956 181.049 112.723
33.2858 152.008 258.551
18.0102 173.542 231.76
7.64688 111.588 119.042
32.1488 134.762 76.3986
87.1274 122.887 90.0449
94.8667 122.828 97.1194
70.2807 154.828 58.311
24.8227 170.882 137.988
62.9307 192.793 44.0809
18.5322 161.721 138.847
54.6464 154.005 255.081
38.7779 173.508 54.233
29.7133 158.491 269.853
42.13 143.481 97.5379
115.505 130.481 100.369
9.56723 172.963 258.673
27.3336 148.095 104.892
53.5766 156.676 87.9733
9.38142 186.604 63.8033
7.12185 156.194 79.8677
51.7606 133.772 54.2679
29.6436 151.044 78.5399
7.05214 137.245 63.0744
104.165 115.111 99.2741
29.7866 136.736 228.891
71.2839 140.612 48.8825
38.6257 171.879 238.594
12.0133 143.172 139.236
21.6131 183.806 235.402
76.3601 127.236 41.6849
7.62048 179.444 120.88
39.1232 149.396 248.307
57.1383 155.847 50.1813
46.8935 151.617 51.5187
8.96059 174.115 108.204
22.5267 160.723 144.736
71.5375 131.348 65.063
9.486 134.324 85.8137
10.5232 142.861 83.0941
31.6333 142.063 115.123
46.0759 187.491 56.3829
48.9065 156.262 255.855
12.8816 183.057 76.5006
84.3968 180.464 62.0251
31.5002 88.466 2.22877
57.0003 172.589 46.8026
42.3788 169.229 64.6643
46.2821 164.503 35.0911
41.9261 165.24 255.786
76.2719 128.754 56.672
70.4747 126.793 53.3956
39.1643 159.573 64.0429
13.6289 153.289 89.8533
20.2456 137.132 125.176
57.0949 168.157 67.9352
65.4941 146.45 80.7349
14.8266 137.637 97.7476
17.5333 154.117 135.969
33.9071 100.336 1.83924
38.233 140.349 118.387
76.0967 126.732 95.6074
32.8609 166.144 65.6868
62.6233 184.185 53.5479
17.8191 167.786 124.417
23.2721 136.204 101.055
20.9658 169.178 107.691
41.2177 111.544 4.25524
46.7202 166.856 76.4733
24.631 166.147 116.07
18.8647 166.379 113.841
23.8768 153.716 264.466
15.2619 187.639 69.6838
55.3025 132.461 71.1803
102.733 128.458 93.2297
60.7317 150.697 97.3537
45.8591 172.851 61.4745
13.6851 145.186 98.6682
110.17 138.906 99.7948
68.1678 134.707 72.3284
73.6917 162.49 42.5123
62.386 143.313 66.4938
78.9066 165.683 36.7342
32.1682 151.942 65.4302
21.1282 131.795 110.835
69.4215 178.47 57.1502
19.7693 164.31 96.8872
49.0635 113.666 2.50455
110.713 131.777 105.776
7.22896 119.073 130.551
47.6687 141.288 96.0781
12.8948 137.18 108.429
75.8291 156.144 49.5851
43.6981 154.678 254.653
12.7813 178.292 117.674
47.7825 155.816 55.5896
10.7883 208.414 69.2943
69.0629 120.313 64.1073
36.6699 150.815 119.276
25.5573 171.054 111.337
79.5063 169.821 59.0489
63.2037 184.123 65.7544
61.3063 181.779 47.5383
66.2903 146.969 53.4721
37.1506 145.712 124.245
63.0618 136.663 78.7692
58.3556 116.668 95.9638
30.4647 155.049 90.8703
22.8066 158.349 81.9486
33.8004 146.023 119.901
57.2257 112.208 99.5546
97.5598 137.702 108.168
