ply
format ascii 1.0
comment Created by Open3D
element vertex 113
property double x
property double y
property double z
end_header
36.7136 133.172 107.414
55.6379 190.534 161.627
44.9933 192.509 172.399
53.9809 100.019 121.157
43.1835 103.958 125.24
51.0795 189.916 151.923
48.348 114.825 115.957
33.1459 193.521 157.158
43.8743 103.62 114.771
48.4153 100.701 99.2867
44.7421 218.096 149.191
76.09 96.8844 94.5327
19.7873 91.7002 141.772
59.1089 205.747 148.504
37.0444 207.822 169.017
40.1071 199.68 151.108
32.0388 212.618 168.095
51.9174 210.593 171.57
71.1911 92.2195 128.302
55.0296 189.337 173.883
32.6974 72.5809 137.58
15.1694 80.1704 134.334
35.4204 204.579 160.122
40.2468 205.172 142.332
63.5751 98.8608 108.677
45.2616 195.327 149.105
17.8705 172.387 202.368
30.5804 78.498 150.142
68.6454 112.742 132.909
80.4551 112.179 114.059
65.7455 96.7266 97.4131
72.096 122.265 91.662
9.93212 81.2887 112.339
64.6429 132.882 109.811
40.0151 205.001 179.276
68.8958 89.5487 108.564
10.2366 169.76 212.948
32.7572 213.668 153.392
55.8036 126.71 106.358
46.4209 187.581 165.041
54.4381 105.804 112.215
29.1419 91.3713 140.323
53.096 216.821 152.85
52.4072 109.943 100.142
36.1647 196.289 172.373
39.5188 74.2528 139.672
56.9171 197.199 166.777
62.2583 109.641 128.89
46.6456 96.8357 107.087
83.7958 119.21 106.655
16.9784 168.474 214.286
43.0297 217.132 171.617
28.0654 65.8136 138.577
60.3973 110.189 92.8339
54.4884 197.056 180.76
79.2608 102.884 101.63
30.7048 203.252 168.042
57.5867 218.414 164.419
48.9974 210.892 160.37
57.6405 100.658 132.576
47.575 129.637 93.7629
23.0006 105.398 111.637
53.5246 91.4425 122.477
66.4799 98.1741 77.6645
54.9873 98.0587 102.012
65.7991 127.591 98.8964
52.2425 201.947 147.28
64.5635 202.093 169.675
66.7713 99.1984 134.966
59.1309 91.7072 113.715
57.2695 97.2827 88.0518
48.8719 200.245 177.945
79.431 117.11 93.0934
76.8819 102.565 123.478
61.0579 112.428 108.47
74.3098 92.741 118.487
28.3828 210.93 157.379
42.7794 74.3045 143.962
62.6769 109.196 136.363
83.1538 113.069 100.767
128.06 99.0421 16.4258
70.6444 110.996 94.6228
75.4262 103.632 131.871
24.7914 66.9774 133.658
70.3886 87.2495 118.415
54.9418 101.683 95.0915
61.7403 68.5214 96.5159
49.3082 106.871 108.03
55.4002 135.551 125.278
70.9499 107.189 111.58
73.8297 123.782 101.997
31.7975 203.05 151.383
15.2847 73.7953 136.422
62.2161 213.733 161.659
66.5434 118.46 97.0878
52.5161 102.561 88.9445
27.8635 202.625 156.767
77.4174 114.755 104.564
20.3161 83.0683 112.788
82.039 127.556 100.374
45.4008 194.362 179.551
49.0328 137.503 110.989
41.6387 212.53 159.888
14.9216 79.3486 113.464
48.3134 219.153 156.571
81.4092 69.4667 108.275
80.2357 106.602 128.072
124.915 81.3487 15.8721
27.8228 74.6209 135.87
80.7032 74.7696 109.61
21.9643 78.0797 146.269
77.0052 132.561 102.085
45.6829 132.796 98.6541
