ply
format ascii 1.0
comment Created by Open3D
element vertex 623
property double x
property double y
property double z
end_header
34.7828 137.432 7.40831
25.1418 159.48 32.9007
54.5177 100.411 4.52231
23.3651 167.956 32.967
40.8722 216.115 98.3631
52.8759 222.601 117.176
47.1512 65.5464 189.982
66.6131 228.535 22.8884
63.3737 177.7 118.944
28.0894 136.881 16.0591
33.2457 170.132 65.4097
25.9437 155.117 25.1417
75.9362 84.1378 24.151
69.065 155.913 7.40474
82.6078 88.7677 30.8935
40.2049 212.609 139.467
69.9824 88.4758 23.5326
50.7073 167.894 8.38429
26.6677 164.023 22.7852
69.8007 82.5917 6.14319
72.5575 90.5743 31.3144
31.4528 224.741 140.329
67.3889 81.9096 13.3283
28.0592 145.595 20.9273
35.2437 222.127 149.176
31.4023 160.92 12.836
42.582 190.86 104.166
49.9072 176.004 115.535
91.3397 100.47 20.8479
76.418 82.3918 9.12013
38.0944 136.246 48.7757
30.5214 151.164 15.5622
56.7999 173.433 93.3443
75.9699 140.103 16.2735
41.8805 184.417 122.651
89.9145 102.866 30.4651
31.1016 172.805 44.6728
61.2156 96.5903 31.8281
73.6604 131.673 36.2092
56.1784 215.905 111.619
93.9252 119.043 33.9977
39.9108 194.47 139.912
54.4192 101.272 25.73
34.8835 209.061 107.49
89.3888 93.703 25.9126
90.9551 93.3444 17.1468
81.7555 142.645 12.7897
54.3839 138.107 50.8319
36.6042 201.482 141.356
93.033 100.875 9.8635
34.0419 211.388 150.506
63.2185 230.134 138.661
74.751 128.7 9.70072
34.4025 143.883 6.27641
37.9268 134.135 40.9834
32.9079 125.694 22.7291
60.054 181.307 106.234
35.4889 193.427 113.602
51.7847 124.409 44.0793
42.5127 132.804 224.865
75.5928 219.758 35.4836
66.8967 146.268 51.1013
40.9928 157.767 4.37033
28.8513 171.86 26.1977
74.8682 159.737 16.2856
67.2665 97.5002 24.3985
41.4001 220.178 141.434
43.6011 200.587 112.145
46.8626 150.98 63.4151
31.1819 164.69 46.674
95.4923 107.489 23.9411
32.5497 176.696 22.1152
57.3895 178.97 41.1634
36.9327 124.188 32.7278
27.2283 155.533 19.0334
54.4013 146.368 53.9087
69.773 112.661 19.7026
41.2499 152.732 62.7678
69.2961 220.572 35.204
84.7024 85.2556 19.0193
59.8081 129.878 48.9038
48.6741 206.589 110.861
63.4317 167.107 85.1077
53.8442 198.627 144.696
81.0627 117.041 10.4361
75.0585 129.958 22.8728
26.8714 137.904 25.0879
32.2167 158.86 49.1924
42.1809 117.302 34.4837
64.1601 169.659 11.4284
38.5792 116.569 28.4892
48.9741 220.487 142.801
64.168 170.263 33.4037
44.7243 200.595 105.027
51.3319 181.803 97.1252
82.869 153.774 6.94232
87.3926 118.987 16.2644
34.6404 155.458 6.58591
74.9235 209.838 26.1181
36.3989 144.478 46.0433
74.3614 226.043 28.9369
74.5988 222.635 19.9324
62.5137 209.034 22.9032
84.5528 215.681 26.4323
81.1062 220.543 20.2716
28.3743 153.055 44.2613
29.1259 166.655 58.6476
38.8299 126.61 2.16815
44.8969 121.938 37.1549
87.2663 222.28 24.9936
92.0047 135.227 6.73484
52.9371 209.2 144.834
56.2918 166.264 5.25611
58.5221 90.4553 19.8334
30.459 207.905 122.178
35.6005 119.934 2.26488
80.3001 229.817 24.2596
54.3474 195.3 112.228
61.6757 136.462 49.9107
53.3436 156.057 52.7969
33.5347 120.442 14.3341
76.5172 196.035 17.3942
86.6183 114.183 7.70238
74.4252 82.8976 17.1294
48.2052 182.079 126.486
46.2881 161.344 52.8702
88.0181 89.7636 11.2394
60.7816 183.561 113.992
28.4873 177.516 31.6694
79.8468 141.075 22.3863
111.127 191.928 147.748
70.6911 147.543 6.26865
34.9456 168.796 13.382
51.3126 166.274 75.4602
27.6618 201.716 131.246
24.0342 175.14 46.0251
136.007 143.101 107.822
50.5845 205.014 139.083
47.8124 172.843 66
46.4989 191.786 134.543
39.2879 112.169 13.5604
65.8029 166.888 44.109
54.6768 130.761 46.7349
64.4869 176.959 110.014
53.0582 177.235 71.3383
67.7494 139.141 45.3496
29.948 177.17 38.6574
51.7529 193.085 138.65
38.0764 195.123 86.5105
48.9675 214.072 145.442
27.0175 148.665 34.1176
61.5137 181.958 11.5658
30.2534 216.848 141.051
63.1034 84.8213 3.99718
58.3784 205.79 140.763
88.4042 229.134 21.0843
49.5503 166.702 61.5139
50.5045 205.626 130.061
7.31865 225.194 104.548
74.4368 230.209 36.0692
32.3841 147.39 11.1622
81.2756 85.2775 4.73805
97.9911 116.878 26.3009
41.669 183.693 111.707
54.713 182.486 112.071
83.2476 98.7674 34.3624
48.9144 160.461 3.16246
74.0055 213.516 35.2527
47.6115 155.673 51.8733
68.443 94.7286 29.2297
61.8713 227.941 30.9601
65.1027 220.014 132.422
87.3259 109.188 13.5784
87.5243 128.554 25.9644
71.6924 193.45 118.873
62.773 187.245 123.878
68.5865 175.63 107.809
113.426 5.33666 74.4612
71.4248 116.174 12.0532
72.8409 160.667 51.4572
62.67 148.426 54.0186
33.6384 150.103 47.8031
81.6703 114.258 41.1026
50.5296 178.407 15.67
56.1558 108.847 19.6465
53.7973 229.578 138.914
77.6024 95.9727 37.5804
65.2953 200.36 36.0806
92.8089 109.403 11.2542
33.9906 183.31 47.6179
40.2636 162.336 51.5775
57.1775 206.043 113.603
74.7614 126.284 28.1791
56.9435 170.618 85.8971
34.6968 137.141 34.4434
65.3387 129.917 46.1737
27.0136 167.48 39.9307
48.8204 118.826 43.4949
75.6876 149.431 12.0994
47.1165 194.133 111.519
34.6068 188.76 41.3766
37.6519 147.365 81.907
37.2075 163.781 7.06243
62.7635 172.126 95.88
43.5583 165.571 6.63696
75.9646 201.098 113.369
69.3645 168.136 29.5608
68.7384 175.081 20.4323
95.3046 222.064 24.3723
40.5053 230.974 81.1667
34.7961 198.264 120.719
60.7417 217.869 143.952
30.4097 133.863 9.70956
29.3885 197.612 126.06
42.6801 207.006 115.053
120.241 197.597 136.724
69.8249 105.364 22.103
88.1298 114.546 37.9868
28.4933 138.427 36.0044
31.3085 170.49 51.4679
55.1816 222.051 44.6446
75.9415 119.132 16.313
68.9986 179.675 27.1561
67.4903 108.51 27.1946
42.2826 107.296 2.87808
56.7359 115.03 43.0973
81.9735 209.027 28.7056
31.5824 132.592 23.2379
43.0969 202.928 67.5605
41.6649 178.315 62.8719
33.5599 126.582 13.8195
55.9212 180.573 13.2854
45.253 103.984 16.2398
88.2621 111.861 26.151
51.5442 92.9475 15.4245
30.7234 129.447 31.4279
39.8821 128.881 44.899
57.5729 228.409 55.0054
97.5099 102.57 16.1212
42.9335 99.721 2.04835
56.1033 185.449 126.404
40.8034 175.146 18.0932
27.9098 204.573 137.509
36.7435 215.046 114.856
49.4139 132.109 45.7743
74.2679 155.175 12.0802
78.8727 172.218 22.6256
69.4058 166.078 18.9496
45.2159 166.121 67.6775
63.2259 208.166 134.552
85.8662 83.9997 5.3069
56.8541 217.983 136.715
57.3806 203.015 37.3653
41.1621 180.998 18.7442
41.0123 203.508 147.132
89.8545 138.534 10.8508
23.8774 153.872 39.9487
63.3977 114.688 40.6175
34.9088 208.88 198.36
50.0926 108.486 20.2378
49.8106 109.24 29.5962
34.2935 165.588 53.3044
46.1871 226.349 60.5771
31.0006 197.628 137.351
44.9494 134.045 49.0012
78.2248 140.609 7.70827
46.9925 170.267 58.6722
49.1912 115.822 34.5392
63.9657 148.421 29.9817
53.5708 192.829 21.0378
55.8176 199.416 128.248
40.5012 213.485 62.7921
37.0161 145.577 55.2312
35.8699 113.465 9.29266
65.2183 193.95 21.3945
72.6882 207.482 35.0117
76.8671 141.821 44.4602
86.7242 150.375 30.0112
29.5371 231.117 118.377
83.6319 139.602 44.8807
57.7332 172.971 110.487
60.064 106.622 38.3567
85.9148 135.922 30.484
69.5735 99.4548 34.7426
40.1815 223.931 127.831
67.9601 87.1031 18.5395
85.0047 161.776 8.9553
39.559 132.089 1.76461
33.5525 176.725 53.184
58.7753 152.773 2.18092
56.6634 172.662 68.2428
81.3355 197.24 19.9213
60.2426 93.0543 7.97467
57.3468 102.217 9.69638
129.531 117.157 33.7653
15.6648 230.02 102.36
61.8868 87.5205 14.542
52.0479 227.672 123.984
66.0727 123.487 46.3026
36.4984 205.864 116.159
113.674 107.381 82.0937
67.9474 186.681 26.3193
71.7526 131.219 48.6948
84.3051 127.111 40.3264
59.2432 195.014 107.381
58.2885 174.991 74.6794
86.5918 204.316 25.5913
78.2781 215.024 30.4109
54.5943 104.446 15.8793
74.7106 153.088 42.8641
38.961 119.534 21.0726
32.6774 177.883 59.7985
35.5409 229.485 139.85
33.6741 189.529 52.8622
53.7335 227.336 39.0612
42.5793 114.687 17.8338
66.1139 159.327 46.9393
88.2379 139.369 23.695
73.404 207.296 107.274
129.082 143.467 59.0054
57.9868 104.875 34.0964
71.4356 138.822 30.1514
47.8487 143.273 54.888
80.692 155.685 47.8396
61.9105 173.769 20.349
84.2628 116.689 4.57095
61.5709 100.633 21.0549
100.613 113.606 17.3709
27.5444 148.671 28.0065
86.7457 149.694 14.468
79.7912 120.364 42.9001
78.7482 131.658 4.03113
39.4197 192.999 121.064
64.8328 171.264 75.4448
51.0229 152.814 1.73615
34.3349 201.218 110.893
74.4503 185.797 28.3285
74.6192 142.901 8.21472
47.2666 216.318 109.406
62.7278 182.423 25.3331
30.3951 169.191 18.277
59.2309 150.414 57.9318
69.1699 141.892 1.60422
85.7599 159.387 23.1911
71.8099 110.729 29.1704
44.4071 104.833 7.12639
69.2146 231.145 39.3579
65.7401 221.016 43.6674
64.5311 103.153 10.5943
59.9089 220.366 128.91
89.7074 123.164 39.2875
33.6434 183.378 34.5301
82.4312 224.3 32.8168
26.6614 159.113 40.3655
28.2378 210.396 131.353
38.3313 114.044 2.16861
50.1165 184.372 70.526
46.0332 221.552 133.644
70.903 117.198 46.3593
45.4935 200.199 138.535
65.8065 103.978 18.8009
47.6105 172.898 11.8686
92.7194 99.7656 4.48534
82.1875 104.338 39.2972
59.6559 160.216 53.8219
75.1484 103.744 39.61
42.514 194.079 24.6018
89.1077 90.4994 4.39817
43.4309 192.851 125.764
48.3988 187.128 102.411
53.3561 213.569 52.5893
31.6417 208.946 139.061
43.7277 218.108 56.8151
42.8572 164.941 56.7973
84.1548 117.616 30.8932
48.4176 209.766 135.378
52.0683 221.477 128.121
113.1 105.945 158.676
39.7623 195.789 41.7368
74.958 110.671 40.369
77.7251 166.157 11.4266
68.9574 213.81 33.6913
48.6274 218.554 67.3128
69.9991 194.65 18.4349
30.2417 181.565 53.6144
124.558 158.542 170.756
69.0856 199.69 112.391
42.5438 229.834 135.032
85.9894 147.772 23.965
38.8706 138.769 2.25205
12.3764 160.533 60.5076
62.9815 218.382 35.0643
51.0443 219.161 61.0196
83.5934 147.209 18.9713
37.0678 153.75 52.4848
51.3662 201.041 70.6235
45.005 153.686 1.27101
49.6821 210.598 30.0842
72.0459 138.309 4.31553
35.3694 190.903 131.507
35.3071 202.689 50.1119
57.247 222.847 51.3698
84.5747 144.739 35.0635
44.0373 178.406 13.083
46.3222 183.471 109.159
41.0209 178.846 70.6744
35.0097 186.721 56.8762
56.5132 215.429 69.11
83.6605 133.747 34.8172
35.7194 171.447 146.901
77.4067 135.068 45.24
30.956 205.014 114.424
97.651 122.126 2.8726
43.1778 229.136 127.205
42.9136 142.46 53.4372
41.2546 231.435 147.067
52.7956 88.8159 2.86444
61.7907 105.438 15.9712
46.3834 185.178 24.5531
96.092 121.826 12.2894
59.649 145.161 50.4372
51.5678 186.1 118.977
97.9489 97.7082 4.2098
38.1739 148.174 1.37051
38.0854 174.492 57.4827
50.766 180.124 25.3215
45.451 128.15 40.8875
41.4778 196.492 60.2133
85.3945 175.068 19.5791
54.39 109.242 37.1051
65.02 89.8734 28.0844
62.8471 206.637 36.5538
77.6358 132.463 30.9529
60.8618 201.683 73.0349
74.4579 177.55 17.1039
63.5244 165.08 4.1086
47.6387 161.696 69.6224
70.9775 155.405 47.0116
89.425 107.952 33.7717
30.2817 213.89 126.236
42.0547 189.755 117.797
40.0602 181.048 27.3784
48.3012 180.924 120.365
65.0225 176.455 49.2529
56.7776 160.907 60.962
53.2147 230.256 62.4445
58.5098 218.776 39.4497
36.6962 125.926 9.3365
52.257 230.303 114.543
43.1315 193.879 32.0467
51.9685 196.93 34.6585
61.7724 216.056 70.3191
45.6912 186.849 130.106
85.147 197.875 27.838
79.2236 120.387 22.1022
61.111 99.3207 14.693
45.7371 160.794 61.1583
46.0046 211.476 54.6401
73.7884 115.807 41.5397
86.5678 167.459 18.653
83.1441 125.581 5.54156
70.0196 199.713 28.9233
85.3272 146.277 40.2987
51.8176 141.294 13.7184
31.7468 144.71 40.8243
26.996 160.778 46.336
44.8783 189.897 67.5224
75.5694 122.806 45.6353
43.6655 110.535 21.7534
58.3208 124.546 43.1005
55.3719 173.911 9.6956
8.44524 186.708 38.0146
92.5395 130.886 26.9584
79.3995 156.062 53.6652
15.4156 226.008 113.258
56.9574 190.279 103.857
56.8482 178.956 27.0513
80.9423 202.628 32.3246
50.0858 225.013 71.6356
90.3939 165.951 29.8955
30.2255 189.28 30.987
66.0757 105.619 37.3931
102.475 116.665 9.48691
34.4417 193.932 36.262
91.5754 130.874 36.5268
60.0234 158.309 63.5448
86.1848 152.235 34.8894
53.4662 186.366 21.4452
39.8867 193.053 37.1885
39.1687 183.936 60.2536
40.4008 150.055 52.1194
67.0776 180.022 74.4362
101.861 192.113 126.079
59.7641 196.013 126.773
91.5007 113.85 21.0951
53.9121 162.173 63.5694
69.348 162.973 5.51731
92.8768 93.6071 1.53241
58.9855 106.846 26.5083
56.1233 192.396 73.5356
81.6778 163.985 24.4344
66.4573 187.301 104.331
48.6241 100.642 6.77884
130.837 95.0517 85.8043
54.4325 215.877 32.1721
80.7272 154.74 20.8823
34.9789 217.289 118.783
50.4608 231.467 131.794
53.8129 222.164 56.7248
44.0289 188.006 31.4476
34.6455 221.001 130.262
58.0908 230.011 130.92
69.4546 185.286 98.3397
56.4756 208.319 71.3011
86.6112 155.179 27.0522
51.0058 102.802 11.9166
71.649 127.229 40.6548
43.6959 220.821 70.5204
99.848 229.423 24.7733
27.3843 187.904 46.3551
64.253 176.504 81.7567
45.7173 225.618 67.0514
60.2815 190.182 21.9716
46.3443 174.455 6.84803
67.1913 150.917 1.43292
19.5275 213.147 63.1413
58.8187 88.4549 1.51728
50.2422 208.169 65.0399
87.3809 140.024 5.7802
74.414 170.282 28.1599
50.7354 101.761 18.5675
44.177 188.557 63.7045
66.6572 121.1 37.6962
50.6568 185.854 111.185
46.4582 222.128 50.931
58.6517 230.733 120.751
53.5965 136.851 12.6344
58.5164 223.988 69.0501
38.3242 195.306 55.7387
40.4435 106.725 13.1446
75.29 136.08 38.7812
63.7466 181.359 93.8754
73.4901 168.295 77.6805
58.6289 120.423 42.6158
46.0424 200.729 54.8306
67.3026 227.773 101.002
27.6341 174.163 53.5861
49.4035 207.241 39.0108
50.5641 206.163 57.62
48.9092 195.645 68.3083
50.561 213.617 116.854
58.7467 108.762 184.646
63.3935 92.1682 21.2043
69.6627 120.377 40.9177
42.0678 207.287 62.1091
43.6694 218.361 115.589
85.4107 170.66 27.3401
99.024 100.566 1.26698
53.7315 188.06 28.1446
66.9706 207.915 72.9182
80.4401 141.209 1.65606
49.0623 187.056 76.0236
77.1683 178.849 97.3034
64.9803 164.115 64.1116
60.9078 199.915 112.038
60.076 214.359 47.9631
60.8194 211.431 61.2395
86.3379 159.301 51.1523
49.1001 91.5442 1.30452
42.1322 199.393 37.3388
35.3333 198.341 47.2257
71.8415 147.097 45.097
87.3803 126.804 1.34115
58.6617 231.653 43.8956
92.8978 112.419 5.0835
81.1497 186.104 37.8237
42.4582 202.627 59.6535
72.7156 214.706 106.393
68.1176 114.781 39.2789
58.5515 226.827 41.6165
39.8396 219.967 121.157
60.4917 196.708 31.463
81.501 151.534 43.3031
35.1054 194.336 49.4364
75.3129 166.597 70.0413
38.3577 200.904 114.059
54.4518 212.088 41.2057
40.8255 201.362 49.8686
74.6063 181.888 21.487
40.6499 126.239 39.1939
93.4095 207.403 25.959
91.6439 217.365 27.9484
43.0759 207.384 50.1713
56.4818 173.402 15.5638
54.074 157.56 65.4235
32.7795 204.406 135.648
28.3604 221.879 128.237
84.9389 157.572 14.6346
50.047 190.745 128.064
55.5022 208.228 48.3586
72.6442 138.882 45.4535
108.363 162.541 90.8677
62.6436 110.292 23.6224
67.2451 210.188 37.0017
40.1154 226.394 138.14
83.599 139.7 39.0952
74.0824 174.357 54.0842
39.9843 205.016 110.603
27.9793 182.913 32.962
62.9428 225.614 111.815
44.2194 199.683 44.3207
92.9907 140.021 29.8237
49.3694 196.85 62.4255
48.6966 190.922 28.0993
50.3392 211.147 68.9148
59.6095 213.014 124.814
45.1887 180.244 67.9084
71.6862 226.309 65.4403
91.6498 147.88 29.1776
34.6975 177.354 65.7972
60.4741 228.464 49.1241
59.1211 115.024 38.697
44.6742 231.833 57.381
