ply
format ascii 1.0
comment Created by Open3D
element vertex 216
property double x
property double y
property double z
end_header
52.4092 133.248 160.245
6.1004 121.412 74.6318
9.85139 113.036 59.4838
6.67846 108.403 158.68
96.3027 175.128 171.964
14.9318 160.052 103.934
98.0773 215.168 194.408
47.2911 136.414 141.157
104.386 218.84 206.894
9.17726 135.636 108.679
114.945 201.01 204.382
128.884 197.283 210.097
9.70324 94.3176 74.3099
6.33099 149.695 106.051
14.2748 156.674 113.434
3.90835 113.27 54.4185
3.0584 153.33 95.2194
12.2895 106.512 106.808
11.5883 134.224 117.53
33.5112 122.775 137.931
7.84412 160.606 84.1792
60.8237 148.327 136.94
89.906 230.334 186.633
6.47118 135.076 79.7205
18.4994 163.62 106.993
6.48665 132.108 73.1175
17.3507 144.881 75.6044
14.5665 91.0947 90.881
18.0192 94.8959 103.897
3.70423 114.28 77.446
82.5125 165.574 41.3104
24.5167 170.905 116.059
10.8559 88.9844 76.6094
102.129 212.931 201.457
13.1675 153.65 104.852
84.0318 149.655 232
10.583 104.835 62.4033
35.4223 124.299 152.301
33.7755 134.714 137.568
91.8301 148.977 227.242
12.1867 101.526 90.4696
25.6687 111.415 148.016
85.0717 229.744 177.603
9.75974 149.695 109.871
38.91 207.453 6.51929
8.57286 166.1 101.663
18.7978 153.624 91.2417
45.899 131.011 161.427
30.4957 129.086 148.937
37.8602 106.229 136.377
2.87713 122.777 62.4545
70.8532 182.12 50.3775
26.0335 84.5214 75.4699
79.1241 176.562 58.6322
49.6164 119.743 159.755
22.6721 90.481 87.4712
40.9021 170.497 89.478
49.7995 114.082 156.771
6.09202 133.3 93.8603
6.21152 138.025 95.0493
23.7788 164.589 121.815
13.9759 100.609 79.2858
95.9243 227.467 191.653
15.1507 97.8287 84.9307
39.7567 135.438 150.05
35.6256 120.073 156.165
103.581 222.398 195.629
20.3863 86.0815 79.9193
9.87206 95.963 68.7642
2.81917 170.259 83.7549
4.12553 117.956 83.2094
27.7715 117.746 150.568
18.5681 83.9239 73.3013
2.45297 136.402 75.2221
35.5985 81.488 103.182
60.0851 136.296 154.903
62.9368 78.7741 81.5644
53.9422 179.016 28.1134
126.23 210.638 208.354
49.2055 84.8864 7.79821
7.92331 119.196 66.0904
43.1058 126.349 99.1685
110.606 210.737 193.347
41.6917 102.619 142.406
38.1372 126.299 147.824
93.2689 228.392 180.686
100.417 161.244 72.5043
67.191 77.9005 75.184
7.64373 106.629 85.1355
8.74431 91.7926 88.9243
118.758 134.975 64.9573
9.6237 104.484 74.4041
1.92088 138.132 84.5836
43.9942 125.37 160.585
53.8489 81.1593 14.6284
38.4466 138.472 133.416
2.3927 148.721 76.9149
10.4926 112.953 66.8299
28.6419 143.797 129.474
2.20145 159.827 89.6694
6.56455 124.37 87.5194
81.1342 139.189 112.581
4.71063 128.029 67.45
110.804 216.373 201.107
7.84961 109.215 78.6474
20.7033 148.166 117.61
9.9351 115.328 107.455
2.37631 167.598 96.6751
7.80759 187.555 91.9096
30.1861 84.0162 107.646
5.31544 110.264 71.9176
48.3726 77.913 96.9886
40.9221 122.143 153.063
40.0485 130.595 95.9107
26.9748 89.069 80.81
2.36231 143.792 89.9992
102.18 151.288 239.158
86.8294 165.506 47.0735
47.1082 127.109 143.166
6.16374 176.965 108.4
5.16652 101.794 91.3513
93.9012 147.488 235.513
134.089 199.42 222.025
39.0689 101.093 135.032
38.9534 135.745 92.7329
121.603 203.813 207.553
9.91149 105.721 68.7629
4.67757 142.519 78.0273
1.69646 155.198 83.6922
81.6576 179.376 66.682
43.4608 127.802 88.1957
43.7514 115.813 151.767
95.2047 164.025 49.7371
59.4303 80.9666 89.3438
114.127 154.849 66.8859
83.9813 113.212 90.7152
7.77942 145.846 85.3614
33.8463 103.126 129.771
11.4239 147.646 106.351
9.36365 98.7156 84.4162
47.721 112.304 145.499
25.9943 121.562 139.27
14.4566 94.119 95.2922
28.0561 110.924 138.821
103.593 216.008 190.53
46.2092 137.378 148.641
39.4298 107.751 142.47
11.9138 135.453 101.936
30.5582 123.94 145.161
30.2092 114.338 143.026
11.7617 119.158 100.068
62.2435 97.883 118.245
53.0901 135.331 152.628
53.6199 88.6171 108.019
35.8755 129.854 142.563
35.4787 115.313 150.542
85.9802 127.805 99.573
22.429 114.598 120.365
44.6027 131.03 154.31
62.8418 143.596 144.639
73.123 105.958 70.9292
14.4131 127.01 76.8219
16.757 112.878 78.5211
29.5879 108.535 133.286
36.4075 168.779 107.479
34.6351 158.565 122.186
85.3565 156.272 58.3806
43.0994 105.579 146.767
18.1855 125.678 121.911
19.3471 153.226 105.729
8.18366 150.416 79.066
40.102 111.341 147.234
52.1734 85.3588 89.8633
29.6782 135.129 58.9051
50.3054 122.619 85.2286
97.0129 162.525 77.1661
23.1686 102.374 112.31
27.5446 131.895 143.818
132.389 205.806 214.635
91.4912 161.621 44.3477
51.1338 125.411 158.229
7.00772 113.626 81.7019
111.802 133.886 65.8797
31.9099 127.807 138.345
66.7494 146.676 128.549
106.845 163.018 71.4913
26.7886 156.826 74.2547
18.4915 114.667 116.266
104.029 166.788 70.8117
47.7016 133.558 94.1616
11.4146 93.4857 61.8285
58.2156 77.4138 94.0735
5.06435 128.909 79.0222
50.6971 107.738 129.124
53.4884 121.222 95.7306
82.2572 111.882 102.619
83.5497 173.552 61.1061
4.32803 131.634 84.6573
63.613 93.1697 76.8287
52.838 76.5289 94.6904
51.4813 135.951 54.979
35.7526 155.679 66.6838
11.9953 90.5319 83.3638
6.81618 129.65 102.149
120.243 214.232 212.438
47.5241 88.6679 109.673
39.3927 86.5189 93.9211
34.6031 120.025 145.905
40.9393 90.0013 79.2601
64.7987 139.177 137.062
112.857 144.896 79.7303
101.832 136.945 81.9406
67.1814 162.727 106.448
102.531 133.467 65.7532
36.8856 164.742 79.9196
50.6973 141.731 134.028
