ply
format ascii 1.0
comment Created by Open3D
element vertex 448
property double x
property double y
property double z
end_header
11.5132 102.053 102.247
23.6683 117.624 201.658
41.8021 124.183 176.36
31.397 128.119 190.069
17.3696 113.835 174.39
18.038 123.26 123.899
31.9739 103.255 196.268
8.81037 91.1513 114.935
9.00934 105.469 108.662
23.5839 77.0552 105.284
8.54592 103.49 183.506
23.518 106.347 204.529
26.0348 141.366 128.706
6.46925 113.794 91.8548
8.67745 120.12 72.0082
14.664 71.9479 130.293
6.76991 122.685 94.2334
27.0101 92.5428 171.412
22.7197 77.5591 97.3867
22.447 105.334 136.388
20.8447 90.0731 74.635
31.2674 80.8219 79.4651
39.7249 121.527 191.409
30.3042 76.8606 99.1704
18.0428 98.5194 165.345
19.2183 110.591 133.386
43.2655 124.297 58.2484
27.3299 90.8292 192.061
32.7779 134.11 57.9334
11.7868 95.2698 186.791
22.7729 93.2339 133.852
40.7875 102.555 195.347
7.35141 125.606 111.638
28.8538 84.378 175.212
30.3962 110.12 178.69
38.2445 81.9543 173.942
31.2591 120.068 183.192
9.12982 138.728 72.8823
41.3252 125.735 167.717
18.4024 114.608 124.98
28.2883 98.1188 189.075
21.1483 103.796 173.275
46.9794 79.0554 83.8352
21.0708 81.5215 116.385
8.28144 102.656 80.3629
38.9984 113.129 145.361
25.8119 136.218 116.124
16.3042 140.722 121.003
19.9648 87.3136 122.022
16.886 133.183 119.673
6.97999 104.355 90.6844
27.2812 86.4988 127.4
41.7345 153.294 82.9007
28.5357 82.5006 122.057
19.5953 84.2086 168.349
27.7368 152.428 77.0301
28.5291 97.0724 63.5794
22.274 118.008 167.252
24.237 116.918 129.783
11.7003 109.335 168.328
39.0136 100.889 173.74
27.888 101.261 158.647
45.4852 77.5277 92.7217
16.4283 134.561 65.7331
24.7558 76.2748 88.7794
58.8553 152.5 120.309
36.327 84.7425 162.441
31.5392 143.032 117.637
33.5509 108.76 58.022
9.24599 133.207 76.5618
29.4302 121.978 142.553
11.6325 132.898 105.793
16.1768 147.705 73.9929
10.2077 117.458 175.063
7.49857 96.7811 111.773
41.0463 78.1055 83.3163
22.3637 103.356 196.682
39.0781 152.204 115.188
24.3296 79.5458 111.656
38.0106 103.576 156.011
17.2739 84.6976 84.5426
36.8349 83.9412 70.8932
29.8998 76.9763 109.154
26.5851 91.5565 69.322
16.4328 115.363 61.8765
42.0822 146.112 125.238
55.4911 76.6258 106.799
22.9703 90.0506 128.28
11.9328 95.2388 172.801
31.2193 81.2012 115.437
29.77 93.7961 178.774
29.7192 131.326 137.842
20.8011 97.3208 181.073
25.8982 112.065 138.252
23.5159 80.9402 86.2657
13.6339 81.1383 106.382
16.5568 153.532 89.3374
16.9386 95.3488 134.674
53.8036 96.7241 65.5453
12.4275 89.3997 83.0654
14.5027 84.6119 118.759
44.3323 131.889 143.049
11.6274 134.855 67.147
13.6586 126.314 114.746
11.9265 106.944 177.687
33.353 145.42 123.3
35.7444 126.71 165.155
22.2972 116.116 58.0321
36.4617 92.4847 181.169
35.8561 131.937 172.48
44.9738 158.564 99.9242
7.07316 140.041 80.6045
22.2118 124.035 171.613
20.1053 92.2884 83.2761
9.6861 88.3051 105.766
22.5261 118.425 137.595
38.5479 84.9616 78.4248
22.9773 132.613 133.799
20.5656 104.519 159.632
29.0408 153.456 83.2959
42.2646 106.315 144.709
33.7438 152.353 122.625
15.8044 145.604 114.193
28.9685 131.633 182.295
16.2426 139.729 73.0992
56.1744 156.642 113.353
7.04481 133.168 95.6802
26.4201 130.416 58.3421
16.3408 78.3974 101.195
40.0756 132.761 57.7808
56.2395 150.74 76.7923
31.2586 88.4049 133.997
34.4003 152.995 72.4633
13.1521 143.451 79.6075
52.569 136.926 141.021
12.5526 125.45 122.167
39.6991 142.582 132.8
12.6645 83.3165 92.8262
23.5949 83.762 182.149
12.179 114.641 107.721
15.765 104.483 77.6895
23.3966 140.791 111.228
6.48844 128.022 104.975
11.061 109.483 127.736
19.7825 153.218 78.3272
34.0799 117.69 141.994
34.92 118.955 159.694
28.2977 84.6891 74.1155
39.6151 114.745 199.613
57.0183 83.9785 103.068
46.0403 138.77 137.713
14.2636 125.744 61.7888
31.9004 94.5353 196.338
34.0331 118.625 108.403
16.4543 103.534 132.973
31.3586 158.707 86.1135
32.9798 126.246 58.172
23.2715 85.6051 83.3358
5.47227 113.555 80.1841
12.4067 98.8395 129.175
29.6886 93.5537 140.62
12.9893 138.822 112.137
17.6845 116.993 133.519
24.6362 101.005 143.02
46.5189 117.793 139.197
45.8589 96.3393 189.897
51.5154 102.035 60.8441
8.78374 135.981 102.782
34.3297 156.916 100.254
10.5309 132.806 113.974
24.9045 157.063 87.3306
57.6468 91.6613 71.2492
7.25926 118.506 103.069
46.8584 167.25 105.416
37.444 75.7989 89.1327
10.8909 119.515 65.3543
16.7065 100.02 190.338
11.0565 146.989 107.056
26.3036 158.999 95.7991
9.67428 143.556 85.2143
38.6309 116.518 57.5753
14.9462 141.819 105.372
14.3968 102.874 162.108
20.1828 150.756 109.509
27.2257 140.968 64.0946
39.3519 79.942 117.944
22.2478 154.656 101.62
31.874 123.313 169.109
22.1316 124.148 59.7818
35.3453 90.8013 167.991
6.60663 142.686 99.103
55.2069 81.7874 94.1143
23.7445 106.363 62.9775
24.6631 81.5228 79.5356
40.0753 95.5632 193.345
8.37577 125.557 100.036
16.3791 148.104 85.9495
22.046 63.3482 129.147
32.0157 108.336 140.692
17.894 106.315 124.774
43.3292 158.206 87.2499
24.2109 99.3411 170.785
31.6795 90.217 156.931
33.2203 109.646 204.502
7.18647 126.323 72.9964
42.9926 119.789 183.306
5.93224 133.3 89.9832
22.0987 94.3464 139.127
10.2348 93.3235 121.228
12.9164 149.056 91.8008
28.5132 110.611 160.857
31.8482 122.439 202.258
15.6378 96.9704 123.512
10.0015 85.6033 116.132
38.9829 142.055 63.9261
25.3533 127.216 138.057
26.5753 115.408 143.339
21.2038 155.305 94.4545
21.436 95.3382 66.6124
25.308 127.196 197.477
23.2246 146.363 74.4155
33.379 99.5507 61.3911
11.3245 116.012 123.877
32.5475 91.133 66.4492
56.1456 132.942 131.338
28.3201 113.09 58.9826
12.9787 96.4289 71.0854
42.8088 106.066 55.6668
20.2167 112.952 163.372
13.231 86.5675 175.339
27.9781 151.528 70.3531
8.15644 99.3016 120.618
42.8612 85.0183 73.6933
23.9268 134.902 121.267
15.176 102.213 175.985
36.3421 110.31 140.424
35.2651 77.2685 82.5016
16.9295 99.0314 66.6174
24.5061 85.2764 189.058
8.86687 113.332 114.181
8.68082 110.473 85.2208
32.5628 131.026 133.301
8.56414 111.894 182.684
17.3624 91.1084 191.727
35.5846 75.7815 94.3157
36.9686 122.844 142.724
13.7776 120.496 128.299
48.3013 82.8207 77.6005
31.6724 159.706 93.1751
17.3267 126.304 185.41
10.584 129.124 67.8899
27.8119 123.471 57.9474
48.3691 143.683 123.986
15.7598 127.329 130.272
25.5321 107.095 142.48
39.595 137.011 138.858
9.7827 113.77 67.7339
5.81684 109.69 97.7777
12.6626 109.826 71.6066
8.89556 120.374 83.7511
5.64449 104.699 114.298
6.33769 91.0648 107.02
43.3325 87.448 117.857
31.5023 117.727 175.192
33.7064 117.085 194.601
35.7343 129.764 139.686
16.9925 142.828 66.7692
48.7741 149.83 73.1824
47.0052 95.3331 63.4702
44.936 114.571 55.5864
28.6396 130.287 173.074
26.0386 83.742 165.102
21.6686 95.5531 174.219
17.9044 79.3283 91.9872
25.6557 106.555 165.983
48.0012 87.8628 71.2002
12.5985 96.0449 77.2435
44.1392 125.616 144.531
26.0797 105.058 58.0412
19.3939 90.7876 173.131
40.4756 101.04 138.651
40.9038 161.131 90.1611
52.6237 142.199 140.142
43.0747 103.796 167.881
8.94822 114.923 101.515
10.8856 143.669 95.0095
32.6406 85.1109 72.6928
39.3188 76.1612 105.861
40.9108 154.674 75.7798
36.477 148.152 129.716
31.7031 114.297 162.712
28.5894 78.1629 92.1128
22.0026 139.871 62.4022
24.7265 133.848 86.9715
49.2117 108.854 58.5804
38.9201 99.6524 58.0753
34.0928 105.33 54.3989
23.4471 100.97 63.2636
32.4553 86.5954 184.188
12.8521 106.185 65.7721
19.898 134.839 110.021
52.8953 112.852 141.242
24.3426 94.0039 154.251
11.3695 80.5211 111.951
54.5589 129.034 62.5479
16.8745 151.059 99.83
66.8325 129.383 140.004
33.605 113.783 185.248
18.7111 123.904 67.5418
34.7582 89.3494 188.312
55.5919 153.385 129.546
33.7682 103.856 144.676
50.5228 153.996 81.3052
24.8504 122.895 138.256
43.6589 86.8805 92.0835
47.7883 76.7967 104.755
22.0167 149.42 84.3633
49.6673 151.144 120.293
28.9374 137.217 133.367
54.689 120.801 143.508
33.3259 96.0794 141.572
37.3939 94.297 143.304
35.6953 82.6123 124.788
45.0278 80.6404 99.3392
11.3238 104.523 118.809
58.5276 78.3852 118.658
49.3939 120.395 145.454
45.4228 101.11 61.8627
22.9737 123.603 182.366
21.9701 111.803 62.285
48.7345 151.256 112.737
35.8191 159.066 90.2607
43.7197 75.9432 112.52
7.26011 104.468 99.2045
14.8548 132.117 127.238
35.9565 137.256 135.526
7.81994 131.856 83.9883
27.7124 157.027 104.682
55.2289 145.981 135.843
23.0457 128.382 177.465
61.8124 82.9504 128.984
42.3957 119.349 108.291
11.544 109.564 120.549
49.289 145.042 134.381
32.0386 145.624 66.0335
57.592 110.591 61.0659
43.1607 86.6305 135.155
10.3585 119.404 111.514
46.8788 98.9744 143.382
46.153 93.2031 134.145
15.0364 121.269 179.536
27.1028 4.15659 19.921
40.5856 91.3042 66.0637
39.8763 91.3069 131.111
30.1186 105.263 164.101
40.6171 88.9186 123.993
45.1354 146.076 67.9941
38.5439 148.121 67.9576
21.7877 136.262 128.482
48.0784 151.981 129.201
65.7902 133.871 135.903
37.194 87.8687 135.748
70.7918 147.423 128.684
41.7144 118.766 146.539
40.0939 110.686 54.2792
24.0967 108.359 189.47
41.5658 93.4569 140.961
35.9276 77.6862 101.298
52.313 128.132 138.024
15.9022 85.9288 99.4613
49.3158 158.613 120.531
30.091 118.328 60.5879
46.6579 111.784 143.836
47.046 161.855 111.271
28.9772 148.496 112.337
41.4203 158.975 115.851
21.703 145.45 108.036
65.5707 154.502 119.643
56.5331 128.449 140.73
53.0082 160.708 100.131
9.86827 89.7234 93.963
24.2736 134.97 60.252
30.5512 156.162 113.419
31.6594 150.286 104.107
31.9225 79.0578 87.1589
5.59126 105.662 84.5674
5.85578 126.17 80.2243
30.1023 91.9724 186.253
39.6607 153.353 105.564
46.1933 120.117 55.6617
53.5532 82.5183 131.803
8.91564 110.674 75.564
14.0201 97.8985 110.041
35.8424 142.573 87.1994
22.9931 95.5323 195.408
53.136 158.2 92.2909
61.3776 140.986 132.869
49.9553 105.96 67.0261
42.7941 110.49 187.26
58.7772 85.6604 79.7279
38.734 113.401 185.983
42.6136 154.918 122.969
28.329 94.1221 100.891
48.4548 75.3652 114.36
53.1731 138.576 65.1129
57.4275 81.0599 124.84
53.3174 115.563 56.9226
62.4776 82.6534 93.7556
44.2271 83.3616 106.494
34.4519 118.568 54.9921
48.5191 136.29 61.7794
62.2412 149.157 132.491
28.587 121.229 190.804
39.2526 97.2752 160.725
17.3747 126.208 177.5
19.0763 118.364 191.487
54.8122 159.405 106.22
53.3964 76.2466 87.7257
47.9328 158.998 114.049
16.2515 92.856 178.076
36.5372 92.6722 67.3858
38.6036 103.448 97.7549
30.2779 141.67 90.202
36.372 86.6677 177.622
58.8049 159.33 96.0684
20.5065 112.701 83.2256
19.206 116.078 87.2042
44.8076 147.811 132.4
13.5681 91.9776 100.073
41.6907 137.299 60.4911
37.9757 112.508 109.565
41.7539 147.693 71.4563
52.2543 91.0639 74.2111
36.9853 158.037 77.612
7.42604 118.953 128.572
63.6737 81.0019 102.092
35.6386 134.987 126.462
48.1435 160.263 93.5263
22.6518 112 195.031
21.5469 86.2385 161.314
29.5111 73.343 121.47
56.4903 146.064 71.4498
65.7044 138.846 128.787
16.3765 106.924 187.799
58.9357 112.63 131.306
53.8584 143.271 127.248
40.6141 85.8199 106.844
30.9874 144.289 131.113
