ply
format ascii 1.0
comment Created by Open3D
element vertex 401
property double x
property double y
property double z
end_header
8.49631 165.417 128.396
33.7231 112.218 44.9623
7.17558 159.081 100.923
8.38263 149.523 107.377
49.1838 191.253 94.1491
24.496 189.964 226.805
28.5324 180.052 228.874
38.4182 175.451 223.531
6.82358 149.971 79.5659
6.96669 169.796 96.1442
6.80505 149.911 97.5264
17.7368 114.981 57.4866
44.0952 172.95 117.654
25.9693 186.267 98.2598
12.3236 109.371 74.0412
24.4291 48.4947 192.068
8.33582 148.026 72.4054
60.0876 181.901 211.938
18.9415 175.783 117.136
60.9839 166.002 75.9871
32.8844 49.2091 186.87
51.1241 199.624 238.045
48.003 119.879 93.0498
15.6534 207.388 92.8305
28.34 190.027 73.34
19.3867 163.063 119.609
23.6317 109.326 47.3422
33.7956 101.695 71.0663
7.80403 174.798 124.803
64.0927 141.13 108.741
36.0194 173.854 211.288
54.8883 162.96 124.472
39.7254 182.216 102.386
15.5636 183.64 124.115
8.34453 181.566 115.295
31.7952 156.885 127.863
51.1051 140.147 122.827
23.3933 111.131 55.398
51.3921 127.155 87.433
62.6614 136.71 80.5375
53.2461 183.954 207.375
8.75853 140.965 79.4734
30.4887 125.879 46.9174
22.8504 147.203 124.586
90.5406 9.1033 16.9079
48.0928 165.729 125.021
24.0814 184.678 117.18
34.3966 187.423 68.341
7.50985 194.815 87.0699
42.5743 156.487 128.482
25.0044 183.515 104.803
9.44432 140.404 105.702
15.7903 183.382 114.885
40.6277 119.712 99.8576
28.9966 169.764 120.289
19.9294 188.618 109.632
39.8871 121.767 46.2088
7.62392 169.275 84.9532
30.6768 129.274 59.137
44.3748 170.631 56.8836
17.5496 175.125 87.9626
36.9957 126.618 50.5119
8.72349 151.381 59.9695
20.1587 130.937 109.1
24.9492 106.146 65.7962
35.9516 200.364 225.302
13.8159 124.289 90.3547
41.4466 196.182 204.946
13.3897 204.407 78.1861
12.9715 179.661 73.4629
31.092 170.154 225.1
11.2568 158.563 117.209
19.8274 124.611 49.9748
12.8893 145.249 56.4612
24.413 181.372 221.496
48.8064 210.309 231.426
64.6907 176.523 220.062
18.2529 169.919 126.711
43.5001 138.075 121.645
26.202 41.7897 194.121
20.4846 181.743 62.6818
15.7948 136.141 107.416
54.3168 118.623 61.2794
24.3692 120.193 87.7602
34.8957 183.242 211.864
46.3458 183.062 249.098
8.85686 138.261 88.264
24.3271 178.697 97.0103
36.3138 170.872 121.886
32.9329 197.354 94.9565
18.318 155.552 123.713
20.4502 109.858 77.8549
52.6516 120.726 83.3377
14.4998 165.772 62.8157
11.7107 118.127 72.315
38.0273 187.663 99.1062
12.7855 135.724 79.3064
17.5517 65.0038 208.315
41.7879 178.153 242.195
26.5293 48.7619 205.786
15.3143 189.269 99.6403
55.1317 168.607 119.321
26.2158 183.028 215.974
41.7527 192.847 86.9182
37.6005 176.334 253.248
26.8123 191.303 219.086
66.3687 142.584 89.8395
52.7325 176.402 113.735
64.9604 170.548 83.9016
36.8081 206.787 230.561
34.0383 176.103 112.599
21.7722 193.826 105.191
104.752 7.40691 9.31254
39.8788 187.054 80.2489
29.9743 105.199 79.3125
17.1439 143.824 114.019
55.3769 167.867 228.754
14.7213 124.02 66.4285
31.7879 57.5307 189.624
66.0618 146.548 81.741
45.8839 188.38 216.699
66.3387 191.004 255.516
69.7379 154.776 95.6286
31.2361 195.014 102.898
19.2294 134.772 59.5999
66.6928 156.922 82.2555
32.293 132.461 49.3119
91.8791 7.44235 3.17511
39.0494 118.319 91.9177
61.1503 167.548 241.774
24.9459 101.725 53.682
39.8183 115.354 79.512
39.2567 114.186 50.1696
63.1993 201.498 234.461
51.0781 122.619 74.2476
11.5029 185.818 108.491
33.4001 140.033 60.181
38.0247 198.758 87.8827
46.9557 209.247 247.602
20.4727 135.673 51.5542
44.5656 137.614 56.2956
34.6601 175.01 246.712
35.7426 133.931 71.2683
48.7191 188.176 86.0845
69.9971 193.688 246.372
43.9148 207.488 220.852
100.752 7.83543 2.8642
33.4827 177.751 232.822
30.1018 185.929 236.724
65.2329 150.346 111.205
51.5597 133.978 57.0109
6.03959 145.074 91.2262
46.8981 125.149 101.74
23.6434 121.94 45.3777
35.9831 186.966 239.038
66.9855 41.5577 119.142
27.3404 195.065 88.9993
23.6888 173.371 57.6002
55.461 130.12 106.199
26.505 197.078 233.534
6.81436 159.234 84.6008
53.4301 150.064 63.9366
26.3061 127.664 107.234
16.2268 205.206 103.262
33.1886 177.215 103.955
51.1783 168.265 73.1689
96.6386 9.17815 11.5492
45.9128 188.832 255.11
44.3303 182.156 63.7
43.4641 116.456 69.822
29.7254 194.629 240.341
13.9158 165.536 73.6278
27.0406 195.789 75.4298
22.8936 178.043 104.8
28.9873 191.049 82.3517
20.7747 124.087 93.6243
16.4987 148.481 68.0181
41.066 202.721 214.364
55.5834 127.171 68.4507
28.8006 119.675 78.8445
53.8588 136.386 115.502
26.6269 203.067 86.2025
20.1909 189.397 76.77
39.6884 104.341 68.9307
28.441 200.944 227.323
56.0589 147.965 121.674
43.7418 147.277 55.7491
25.5883 194.111 95.9771
19.4148 158.967 62.9952
31.008 151.7 62.6516
51.772 197.757 252.799
25.714 203.016 106.298
37.6817 171.929 62.6001
41.9102 121.253 53.8034
54.0415 166.69 60.6091
27.3748 195.47 106.535
43.8674 131.499 113.597
36.3146 106.883 76.9676
63.6416 166.407 88.935
33.1037 188.971 245.642
16.9822 182.31 102.512
56.5504 204.936 220.589
47.1214 151.06 123.084
35.762 109.233 83.7568
33.0219 129.525 111.556
23.5813 155.386 120.425
45.4668 171.813 236.566
51.2165 182.511 258.77
31.8788 175.531 58.8992
19.7468 179.177 110.888
123.683 63.0025 259.718
11.1697 135.825 63.1747
48.0134 204.474 218.064
51.2098 203.709 248.843
14.1319 175.971 119.975
34.6873 153.443 54.4504
37.8343 207.327 219.927
38.2594 122.919 86.9871
13.142 159.001 56.1485
6.75985 191.201 103.397
42.4615 115.635 62.6042
57.266 192.522 223.741
43.3837 108.867 57.5862
52.923 194.738 210.867
12.2384 133.992 101.169
11.8099 190.453 72.3797
41.4133 152.541 61.3947
41.1579 123.859 74.5403
29.9389 188.894 93.2079
66.9272 179.418 254.003
33.2009 142.647 51.1868
38.9405 137.672 54.0566
64.9166 191.974 218.737
61.9049 158.758 118.156
52.5266 181.975 72.9045
42.0485 203.487 253.418
71.0193 150.14 88.7166
46.1955 184.683 97.1779
33.395 121.853 83.0215
41.109 185.482 246.288
9.42505 183.683 83.7305
34.969 102.277 61.0637
27.9932 169.251 60.4889
22.1935 125.046 102.237
8.99981 158.033 75.3366
40.6967 145.323 50.3847
99.1893 15.3043 15.5339
53.5537 155.012 119.3
19.7749 180.572 74.5698
58.906 197.357 215.056
33.781 204.686 237.542
46.096 201.507 211.014
61.5708 199.081 226.277
18.5347 107.555 64.2732
19.5011 204.533 86.2739
53.7943 176.275 253.928
56.7945 174.919 234.566
58.1013 142.911 71.1887
15.2465 173.697 71.9437
35.8084 176.989 238.085
26.7311 103.301 73.2785
86.7237 4.49102 8.92147
19.2328 204.994 98.3959
46.2396 170.205 224.443
63.8904 153.538 67.7147
35.15 191.636 90.512
40.4394 211.808 235.895
63.9149 204.898 223.408
47.7477 177.341 255.024
9.00954 172.172 64.1189
60.27 142.835 116.854
53.6201 136.091 71.5134
38.9794 112.939 72.6573
65.7196 135.127 96.0824
62.2445 161.71 68.0357
9.81105 196.661 99.7561
61.3288 194.815 254.752
52.4265 207.529 242.957
20.5131 204.494 75.9716
34.2202 141.851 126.234
51.7866 200.465 215.193
65.498 185.19 258.46
57.4073 182.698 98.8262
39.1991 193.181 247.863
30.1195 148.691 44.8972
29.7143 112.647 84.5989
45.6021 182.548 76.4861
59.1314 128.472 80.3352
13.1338 165.41 112.504
29.924 173.492 115.004
67.5986 184.304 223.003
34.7884 203.081 82.7213
65.0405 194.799 235.247
67.6033 140.26 100.886
16.111 117.344 65.3397
37.75 187.211 91.8192
31.8422 138.09 42.109
23.6337 163.97 54.689
68.2268 146.98 103.017
49.6464 143.943 64.3937
32.3093 189.663 216.844
31.7953 182.639 97.8451
56.8522 157.507 124.475
44.9012 182.87 70.3078
30.1613 123.156 93.7961
10.3504 203.256 89.4688
47.6691 182.718 103.431
41.5481 209.395 245.486
26.8278 161.015 66.3782
39.6795 158.648 156.395
16.8574 195.885 65.8055
14.7782 196.148 103.944
27.1738 176.354 191.441
36.534 191.061 74.6985
47.8779 120.611 67.1022
28.3485 132.328 74.0658
25.5125 205.6 79.3312
57.9643 196.006 262.376
37.8896 150.46 99.2577
67.2229 179.495 231.11
58.85 191.011 234.003
23.793 110.414 84.2711
38.5211 198.346 248.737
43.4986 167.905 68.1812
31.391 48.5511 199.296
11.8748 168.161 107.258
11.8621 157.337 69.1237
70.6891 180.922 244.339
56.2532 174.173 96.4908
11.8826 168.102 102.195
25.6213 200.591 77.8312
25.6054 202.346 96.1876
10.72 188.074 78.479
66.6407 199.134 242.466
32.3794 154.694 122.525
22.0678 129.582 85.1706
39.4431 189.105 254.838
60.8474 175.134 111.155
59.3228 205.957 231.015
36.6486 186.986 85.3956
59.7913 176.053 248.463
43.1948 168.222 230.448
50.0651 178.031 90.059
37.8318 110.708 55.164
21.2773 159.578 57.0129
50.1847 181.503 241.532
17.7984 195.324 73.8733
32.0975 168.695 66.4173
11.8905 192.386 111.856
28.6627 203.995 91.2469
20.6713 173.337 109.837
64.7639 162.037 98.5043
57.8068 171.437 107.707
104.599 10.1351 19.5657
39.5758 126.284 107.877
47.4183 124.102 56.8205
28.9255 179.789 64.0977
16.5396 150.9 54.7967
55.8101 172.223 90.1657
64.2684 180.761 81.587
51.5952 161.576 63.0294
62.2124 206.165 245.232
48.8774 176.253 245.777
51.9645 176.091 64.9675
24.0407 138.249 114.56
127.852 58.204 247.012
35.8956 172.119 71.1186
61.3164 176.297 254.729
15.2275 89.542 234.725
60.2158 165.441 103.802
60.9606 131.65 100.737
8.31583 162.834 105.951
61.1148 184.808 91.3547
34.0498 127.177 104.501
40.4512 186.822 74.9624
48.0669 115.711 56.3026
15.2049 124.344 57.4067
50.9319 182.219 81.2815
58.0745 178.425 81.0507
64.4273 148.101 71.4845
40.8098 179.967 95.2385
44.9883 130.284 63.2536
28.0597 162.562 61.8198
35.3977 160.909 64.6808
70.1289 184.424 234.121
29.5116 140.687 183.572
128.397 59.7237 263.021
104.016 10.5048 36.6889
44.676 196.664 258.123
14.2743 162.78 107.827
6.54325 188.019 82.4939
27.1177 167.328 67.6251
48.9737 208.381 224.872
85.7246 115.174 194.378
53.4622 174.008 82.9779
7.13314 189.265 75.9887
138.408 22.5661 28.7415
28.1699 140.236 67.5348
18.5151 130.249 51.7798
48.643 131.342 67.2127
95.2177 1.24547 12.1239
