ply
format ascii 1.0
comment Created by Open3D
element vertex 703
property double x
property double y
property double z
end_header
38.818 32.6435 172.538
7.26948 47.5201 154.818
8.1562 61.3864 257.226
10.6722 200.751 136.386
8.16702 46.3489 63.2952
10.2988 90.6119 83.0276
8.22514 94.5649 130.689
17.0302 203.422 204.271
12.4712 55.9733 61.8239
10.7802 172.367 197.274
31.4356 130.325 51.334
9.40111 92.2206 111.001
8.40902 22.5448 122.851
20.1633 85.8461 83.7823
9.33386 52.8476 149.826
10.1 162.647 109.765
11.9298 203.879 182.777
22.2373 139.277 268.98
14.9946 93.1999 111.283
6.89328 137.781 92.8786
10.4527 56.798 54.3676
17.1855 45.1486 43.2325
13.7532 47.8704 157.443
11.4963 30.0309 116.283
8.79982 209.66 56.1593
14.4579 173.385 221.421
10.8356 131.033 118.842
10.6578 152.33 107.435
17.5767 83.3622 127.3
9.13681 135.667 80.937
9.59357 136.747 29.9763
21.4861 88.2497 262.965
19.5551 125.495 271.317
10.5727 171.782 39.9198
13.588 70.5762 65.8438
12.583 72.7421 76.7384
12.2171 85.2147 65.7405
20.7636 167.475 195.55
31.7815 132.985 136.034
9.92965 178.372 209.798
11.3833 164.4 256.257
16.3134 19.5271 112.122
6.74797 167.548 218.383
12.0623 85.1273 272.142
39.202 144.492 136.508
34.2629 111.541 135.363
9.73516 148.774 92.4678
14.83 19.9399 120.876
15.0975 187.388 54.5357
10.5665 137.78 12.6909
7.97101 10.4045 7.4057
11.4663 141.957 69.1616
7.81133 84.499 111.002
13.7693 156.586 47.1885
32.7752 133.995 145.206
16.1493 210.723 158.994
10.5593 142.234 22.7975
12.3471 166.384 46.4997
17.5941 49.6358 267.929
21.3615 202.648 214.54
11.2533 2.31505 44.4021
20.7617 149.159 32.4197
7.57895 21.8766 115.779
13.431 54.0962 252.762
16.6068 159.969 255.026
23.7372 40.3499 54.9678
13.5146 67.2939 248.457
11.9907 126.428 107.177
9.74854 142.496 87.5824
12.5166 78.0814 88.8236
14.3263 32.809 110.446
18.209 166.702 3.13284
7.2078 14.0066 138.436
7.00163 30.5287 111.518
9.12574 163.009 71.9639
30.4883 120.216 142.991
7.74214 158.992 94.8744
29.8544 143.486 53.576
6.85048 142.686 16.6742
14.0523 225.193 215.654
27.992 124.378 137.399
7.62747 204.37 239.962
20.1984 113.125 115.761
7.2721 25.215 109.06
8.43593 117.464 94.4735
6.58178 181.399 85.7223
15.5461 178.224 250.12
9.26399 136.023 109.243
20.7104 200.067 208.136
18.3548 209.417 91.7906
17.5003 132.062 271.617
14.5723 201.153 82.0898
15.4539 148.606 32.5563
11.8226 155.483 114.167
16.3945 77.9836 251.154
16.7077 196.773 89.6999
23.3315 210.127 210.361
13.5028 27.1128 121.209
9.98407 177.691 201.698
33.9815 127.782 129.079
11.4864 39.4496 50.2205
18.4005 153.45 66.6831
13.7679 68.6126 257.967
7.96854 38.8422 61.1511
13.2539 210.767 76.0963
12.6313 41.3746 146.035
10.4136 181.884 78.2691
17.801 198.773 73.7187
15.9329 204.759 264.329
13.0803 174.166 32.8403
10.7496 215.018 204.456
16.1146 38.1838 193.505
11.259 191.206 245.245
19.1894 126.599 69.6823
12.4852 175.476 254.467
19.8134 183.836 137.155
19.6362 143.923 121.811
17.2294 33.9473 56.8075
14.2294 192.748 161.321
9.9426 141.233 99.071
8.53922 80.326 258.042
13.1374 206.399 66.7058
14.2244 5.63334 40.3191
8.68227 88.4516 77.3828
17.0113 48.0187 58.5879
10.7475 5.57719 31.6306
17.259 41.5806 48.1383
15.3814 37.5552 62.0507
22.8669 88.9108 256.284
12.983 124.22 18.4052
17.258 85.8039 97.5012
29.728 198.09 272.1
17.8783 31.7548 187.221
13.7369 14.7368 246.543
12.2613 93.737 124.909
6.81112 165.799 93.5031
9.43609 200.373 234.923
19.2351 224.467 213.524
17.8653 222.646 206.455
19.1595 189.51 217.465
17.3287 165.494 267.307
28.7704 91.034 257.733
12.166 194.774 236.732
10.8437 146.812 111.617
10.4663 21.8755 138.659
12.5949 219.086 168.45
8.90314 186.309 134.557
16.0591 223.533 223.048
16.9149 163.017 115.452
11.5274 161.329 37.0112
8.55683 211.228 250.161
13.0191 134.949 102.473
20.4881 216.285 162.099
18.3129 2.14951 244.72
7.23217 9.49858 246.549
7.30318 21.5766 145.421
9.73661 130.376 90.0886
36.0493 133.514 151.896
21.1048 222.931 220.682
12.2843 74.7601 60.063
18.7044 169.468 54.5121
25.8809 190.482 76.2444
7.8018 46.7414 147.229
23.8892 120.835 114.718
17.1551 220.321 273.153
17.0898 27.8072 114.859
17.6121 126.753 76.2011
9.52247 153.441 88.2063
25.6454 211.245 42.185
13.5256 101.804 116.318
8.14458 100.498 116.18
16.3741 150.963 20.697
15.1742 106.645 104.914
19.0214 154.963 47.077
10.4169 219.444 240.454
13.5865 220.001 259.288
22.7357 54.2615 50.7494
16.0007 114.275 93.3704
19.6599 164.457 68.3913
18.8848 138.614 10.5707
9.806 80.5634 73.185
9.61229 195.196 250.948
17.6194 8.01882 35.8666
7.83767 166.019 100.991
14.6046 135.06 67.0325
48.167 138.404 147.021
14.9899 179.309 195.199
20.3847 127.274 119.906
11.616 5.89533 253.146
39.465 108.224 144.645
15.9174 27.0826 108.327
7.50486 167.189 264.015
10.3083 33.5206 56.8478
11.6385 24.6186 100.768
6.94265 128.209 84.6187
12.6473 205.137 160.296
18.1655 167.254 108.538
8.81173 212.218 240.48
36.9051 123.065 129.816
8.54531 154.069 78.5101
12.0503 212.784 258.053
14.7838 93.2839 72.3869
42.1895 114.298 143.99
9.6532 179.828 96.0974
18.7159 85.5321 108.421
39.6462 126.145 152.625
21.7578 77.6715 83.1249
26.0844 175.219 251.475
15.7886 202.891 91.2027
11.9247 202.77 53.8308
7.10224 88.0917 123.834
14.8683 136.253 273.738
17.9341 216.047 204.877
23.1699 212.512 82.0471
7.7326 47.1797 53.2562
23.3183 168.453 20.9826
22.9276 226.975 210.442
13.4875 17.0656 105.716
11.0504 169.043 247.166
38.8236 123.121 136.118
13.1491 6.25564 247.744
18.7682 197.877 140.973
12.9073 172.085 242.396
29.2788 129.97 42.8005
9.72824 19.3855 110.685
35.0447 128.2 136.582
16.8959 2.4634 251.484
12.4428 180.311 85.7859
39.5411 110.483 138.638
8.16603 214.249 179.165
14.9238 131.763 92.7538
10.6082 212.758 174.327
26.8288 45.8457 260.057
11.2043 170.38 82.3877
11.3174 136.368 96.1526
35.9429 121.034 142.35
53.4768 109.45 141.633
9.14652 165.263 211.067
19.1788 229.912 146.437
7.88491 42.7592 185.412
26.7291 204.792 42.3325
35.841 115.199 121.691
18.1061 225.434 189.352
22.3724 27.4386 100.241
17.1763 161.499 26.0918
36.9822 114.26 141.38
14.3701 175.883 101.089
14.4136 157.902 216.103
9.58419 49.5089 190.452
16.7917 119.426 14.7349
17.3647 32.9538 103.326
6.8174 189.599 82.1557
13.1221 173.144 47.778
37.8376 121.289 149.634
23.9867 137.989 15.324
33.1839 141.848 42.6688
23.2666 16.3015 239.516
21.5026 162.829 56.0774
10.5208 205.757 261.33
14.2607 191.866 144.812
14.511 218.997 217.153
13.1427 219.262 207.702
13.5788 117.726 87.5878
23.1522 147.205 18.593
16.1968 2.33332 33.4161
18.5509 214.855 221.719
22.255 191.207 91.8828
10.3665 123.589 90.0408
23.857 220.483 71.388
34.3776 150.12 2.29585
17.7325 169.966 21.078
10.3237 150.679 70.7498
53.5483 144.721 144.104
7.16833 203.308 251.917
11.3241 45.6308 46.5978
16.4235 153.243 29.5289
23.6945 176.835 259.489
35.793 155.965 8.24383
15.2217 119.99 109.369
12.5804 142.954 31.8166
16.6826 180.843 40.1225
35.3462 128.871 43.6656
15.7739 105.005 96.1483
18.3324 161.354 49.8484
8.90432 157.653 207.259
28.9358 204.159 53.6257
22.9616 163.185 25.9737
7.60846 115.216 30.231
23.7924 168.52 107.237
15.0367 195.73 128.819
23.7401 121.466 11.5262
9.9773 126.748 75.5819
15.414 143.852 110.078
21.0348 78.1348 66.3217
17.1843 138.517 15.9124
11.0904 203.865 60.2398
9.87103 218.703 253.107
15.5176 149.118 94.4873
11.144 32.5627 62.0284
7.8861 124.195 4.27059
16.3148 41.1119 54.8505
15.8956 11.8269 252.969
12.6838 204.852 151.407
19.6947 191.087 235.243
17.8722 209.693 76.7298
25.9906 172.808 17.4899
22.1489 134.23 67.0663
6.18403 173.142 83.4501
22.3671 217.674 271.328
7.54667 20.5953 106.547
16.4459 110.2 88.3188
18.057 7.50815 244.277
20.1796 137.365 34.2736
23.6229 210.332 75.2401
29.0919 42.7062 238.313
16.4364 130.418 21.4992
17.8014 192.146 243.37
39.3262 106.797 133.956
8.7154 68.3485 263.091
20.2798 150.638 118.752
19.5517 229.021 219.894
9.50369 220.773 232.07
7.64765 173.574 91.3299
9.13815 172.806 77.7023
24.0794 149.348 25.2123
9.04679 133.516 5.66767
9.14946 41.2198 193.455
7.80116 94.5207 117.779
44.8661 109.44 141.272
19.9173 197.856 156.649
9.24886 17.6776 249.519
23.5163 142.766 111.97
21.1046 187.424 167.91
11.6351 191.879 139.975
16.7311 143.635 114.929
9.71221 2.34756 22.8725
19.6954 224.206 148.598
7.5645 2.04271 244.15
23.333 205.862 48.4699
17.2405 99.0996 120.45
20.6823 161.025 202.904
20.5638 191.35 74.8192
12.0051 230.981 152.575
16.5664 137.725 111.928
13.8032 44.6029 189.606
39.4203 136.333 145.019
22.0231 230.75 194.523
20.4984 177.836 72.1171
26.8937 218.181 211.516
14.7607 198.197 188.767
23.851 147.615 115.989
25.3413 36.5244 245.745
16.7757 127.526 31.7091
14.4269 167.123 194.635
12.5904 130.736 26.4134
22.8462 160.812 209.245
11.9922 121.304 81.0355
6.77742 158.211 84.8676
28.0358 153.36 124.415
13.494 57.7631 274.061
18.2628 219.715 167.209
9.66864 185.507 140.507
24.8793 165.388 118.813
10.6853 147.35 27.1576
13.3481 231.238 233.868
12.7248 121.082 117.093
7.82114 95.3843 99.2587
19.8267 143.487 29.5942
17.4301 230.476 93.7375
12.119 38.43 185.915
30.2462 47.8995 252.471
27.2827 196.2 52.9293
26.8262 178.507 103.794
21.3915 121.846 80.0447
7.3303 37.1591 194.36
21.4575 173.453 79.7214
20.2192 181.336 200.072
16.3121 172.399 261.315
40.9708 142.737 128.043
37.8731 192.791 263.604
13.5862 206.097 187.908
33.9801 111.016 128.98
19.2235 46.564 189.965
8.37592 6.51252 240.332
23.8502 47.9092 267.15
23.1428 224.626 195.285
16.174 162.158 240.553
12.1955 124.599 94.9322
12.8099 160.92 249.269
6.3438 165.837 83.3747
16.2298 14.372 239.439
32.7523 199.211 265.282
26.279 165.731 110.404
16.5156 92.4557 274.179
24.6985 230.808 267.67
7.79332 38.6518 182.594
23.7562 104.49 95.984
20.8472 77.6477 257.073
23.6034 89.5151 75.7806
19.2221 120.435 1.89323
16.9925 144.867 36.0737
40.107 120.525 64.0905
18.1978 208.354 71.0406
21.6576 204.503 186.567
10.7758 202.685 172.075
32.1909 119.445 70.0499
14.9865 84.2703 117.559
23.6891 203.014 201.929
24.9414 196.97 42.8778
21.888 34.1562 195.28
22.1853 201.213 66.8591
16.4782 90.7566 126.422
11.6592 195.064 183.189
15.5423 197.655 160.581
7.48721 207.316 223.649
15.7892 212.508 187.14
14.2165 168.737 101.809
18.7194 176.789 32.2361
25.7945 136.805 65.851
7.49636 57.0581 269.849
35.3888 128.34 61.8316
14.1711 31.8078 195.743
10.1891 29.3375 104.061
24.0866 154.658 42.5662
32.7926 151.265 13.8274
14.2381 166.678 72.219
40.7206 130.568 135.627
11.5054 223.641 176.943
20.8252 161.356 262.71
11.3768 120.199 12.1718
14.7637 210.761 83.6182
15.3087 180.641 204.654
21.3209 202.142 89.256
9.20965 105.106 86.7834
22.1816 145.289 57.1203
26.7087 31.9848 256.75
17.3692 81.5414 268.011
6.34765 217.283 222.409
16.9095 56.8403 60.5633
17.5774 80.4842 93.3868
16.4328 7.27351 237.875
17.5356 121.462 84.8111
23.1872 190.354 176.923
16.8717 26.402 99.0012
17.1984 136.741 86.0788
14.3343 147.301 81.9324
18.3087 200.049 183.12
16.793 125.558 100.789
36.3078 130.656 122.874
25.8826 179.478 2.65622
24.6964 156.336 50.6433
37.3592 70.5703 234.941
16.0867 173.551 78.7606
22.0863 175.999 244.805
9.31368 185.062 89.9497
16.8818 229.671 157.409
22.7731 159.078 34.4073
11.3757 48.2868 238.249
28.9487 112.579 79.0306
11.9948 156.935 102.093
25.3552 195.971 63.6886
16.2359 212.076 263.165
38.9248 137.677 136.487
12.291 230.619 146.686
16.5489 156.216 98.7136
19.4984 81.9624 274.279
11.8505 149.31 116.506
8.68415 200.977 244.346
23.8324 193.026 251.573
6.36338 125.749 31.109
16.5815 209.094 54.9942
13.8866 215.869 235.046
19.0835 177.271 46.5174
20.4705 221.268 244.696
22.5178 152.932 58.5355
19.354 227.913 270.174
31.6916 190.841 207.449
17.5554 69.8212 69.3243
40.4531 129.288 146.332
16.2523 229.205 109.837
12.0238 190.126 223.683
26.0234 142.293 118.355
29.3831 161.922 204.941
27.6825 15.1408 229.655
20.1221 139.726 118.698
23.0791 53.2092 260.155
13.5955 44.8315 181.812
28.058 180.564 158.311
26.0472 115.758 75.8404
17.9351 214.351 213.295
9.688 211.87 266.972
17.1027 163.788 217.782
11.006 129.75 18.7716
38.4495 181.3 20.8036
20.7366 212.205 216.197
17.5414 194.894 79.9819
13.5182 71.8136 273.287
9.40711 99.4494 111.052
27.1122 168.841 220.269
15.9702 211.062 231.997
17.7509 195.465 178.122
16.4128 229.702 100.329
11.3045 20.1825 52.1046
17.225 130.851 41.0575
16.0082 119.623 100.252
19.4939 193.386 171.902
33.5337 50.309 267.844
16.8692 191.986 186.56
10.8813 149.659 86.502
15.3161 60.3123 258.719
18.6177 207.555 86.5734
22.7351 115.458 87.5144
19.9979 119.953 73.5208
18.6087 148.272 247.535
14.3491 74.7723 258.312
14.9755 115.327 103.155
18.6826 159.161 60.3856
19.5817 172.24 102.19
26.5505 169.636 262.031
24.5588 160.866 47.352
19.3131 19.5185 126.425
23.5213 194.455 165.289
45.3162 108.486 134.95
17.24 176.82 53.5137
34.262 88.1281 263.06
9.68143 228.995 179.794
18.195 227.876 84.7424
20.99 129.942 19.3325
26.2753 174.248 52.1132
8.57129 197.787 153.507
25.6972 186.63 234.945
16.723 21.3469 106.363
22.8139 68.6198 243.685
23.4043 219.032 65.4008
18.5874 93.6177 83.444
40.1836 113.389 131.362
36.7029 201.176 270.799
22.6287 198.283 51.384
10.0364 123.635 35.6724
14.2182 54.7592 51.4429
30.0376 198.566 70.0863
6.04777 118.802 105.418
18.3967 49.3926 149.022
21.537 94.9143 125.864
13.1917 155.814 91.4679
25.0518 194.999 258.306
13.4566 223.276 94.3388
22.1128 179.534 96.1741
8.71843 151.294 243.807
27.6151 84.957 253.83
24.707 231.745 179.82
30.5175 192.824 65.8999
26.0997 127.356 67.6074
23.8254 196.376 182.962
26.0908 170.734 243.93
29.6865 202.818 63.7694
8.18983 132.962 16.8348
23.8709 209.432 90.4821
16.2484 96.9654 93.1019
22.6141 127.461 78.6127
20.6432 55.2405 270.85
12.0925 127.989 2.65177
20.9513 72.328 263.003
6.46068 158.625 240.486
19.9916 211.41 273.301
14.5234 211.138 177.333
22.5394 155.396 69.7182
7.07561 198.328 223.909
33.0155 168.63 10.3249
10.6942 146.119 97.3766
21.3154 174.16 206.413
38.6025 136.909 121.237
16.1872 144.087 69.9456
33.4138 162.694 10.1026
9.10388 14.0077 1.27003
19.0878 138.239 24.2387
26.7981 169.214 9.80995
31.834 134.57 44.1575
18.0634 94.5584 89.7792
20.2841 58.6999 251.928
26.4162 180.847 30.6155
40.1691 125.346 142.586
8.331 176.485 3.76371
21.7353 126.49 111.31
8.61677 22.5986 2.7398
34.1618 218.941 197.4
23.1545 229.744 164.578
37.5156 135.102 45.429
22.0445 200.079 173.589
19.2726 131.524 3.88094
25.6789 172.383 45.024
19.0853 231.52 262.231
12.7932 11.1217 236.649
16.9376 177.17 89.3747
12.272 210.392 51.2737
39.7004 183.27 27.288
23.1834 212.603 205.163
32.5618 197.948 52.3652
19.4536 185.474 157.475
9.86969 231.615 244.246
29.0657 123.462 77.6202
7.24617 216.506 77.6204
34.2116 71.9635 241.424
24.8828 129.112 17.892
14.1259 188.87 82.0585
26.2339 118.5 81.8534
11.5476 207.809 234.618
43.9791 118.1 130.013
13.9682 123.349 9.07856
31.3014 189.869 155.449
21.1835 187.717 240.526
25.0016 173.337 100.784
24.1876 137.779 23.2419
13.6309 37.657 71.0457
33.515 115.055 74.5836
12.0812 183.529 189.535
33.0377 123.499 149.003
28.4873 186.67 173.102
8.90367 20.4425 8.82782
16.6962 78.8843 264.641
20.8493 204.778 163.894
39.129 93.4056 271.343
22.4658 209.814 161.641
38.1309 79.1135 237.74
25.7923 59.646 252.021
19.3908 164.429 88.6355
30.6995 70.128 233.565
27.5103 231.866 199.393
23.3659 3.3523 275.098
28.9022 208.26 91.2868
16.7026 207.509 174.081
29.8041 226.78 210.834
23.0121 76.7984 270.443
6.86976 125.559 96.542
23.1654 181.241 37.6277
40.8779 132.384 143.198
20.382 63.6134 269.598
23.1949 218.689 251.198
26.25 164.424 53.7823
15.1356 80.2322 76.4153
14.8757 183.148 1.40956
15.0339 40.45 268.588
20.7293 160.56 112.618
30.8865 176.983 8.8533
22.6795 127.768 94.9253
16.5 177.002 65.5423
7.45382 220.356 187.155
23.4079 73.1749 252.613
22.0114 186.805 212.41
30.9147 159.904 18.454
20.5842 185.825 60.5682
29.8874 22.1163 250.133
7.78177 207.193 164.533
15.2973 202.128 195.07
19.7635 229.76 275.115
20.7889 210.04 232.17
37.1172 77.8421 246.407
26.0587 229.854 192.088
21.0229 144.939 63.9862
7.39094 230.554 100.541
23.6512 82.7943 262.597
31.5721 166.95 3.93403
25.271 175.847 28.0217
59.1292 142.159 142.599
26.4284 156.507 117.067
17.5652 47.595 49.6937
15.9586 31.325 93.4926
43.1332 140.089 132.985
44.724 68.0716 239.806
20.9541 174.778 252.427
18.3037 162.656 246.881
24.6234 188.76 37.247
15.0069 189.802 1.02449
14.4501 175.259 1.01211
44.6249 134.111 127.354
30.1173 176.999 23.1189
16.086 92.1539 64.6351
29.9556 218.928 71.2939
23.1983 199.303 190.7
47.6925 109.868 128.835
44.0175 120.467 124.261
45.6029 148.642 131.497
23.8446 186.026 54.416
25.4195 135.781 114.396
27.0811 224.538 262.822
41.1432 69.7685 242.743
12.6413 187.839 49.1008
7.98764 205.884 178.394
22.7965 226.401 235.592
25.2391 164.806 256.105
26.191 145.029 62.7817
34.6207 157.693 13.8262
14.4563 167.656 211.024
18.5439 125.119 87.6637
25.94 220.828 217.311
23.734 171.664 64.619
19.0526 210.404 259.111
8.96589 188.4 216.38
13.0603 169.873 188.28
29.5041 221.607 205.125
25.7409 138.741 6.21639
21.691 214.487 259.083
33.5884 136.088 120.067
