ply
format ascii 1.0
comment Created by Open3D
element vertex 235
property double x
property double y
property double z
end_header
17.0516 75.1447 161.274
25.7761 98.9442 187.378
16.2588 86.7151 137.28
28.1083 86.6348 158.707
37.5037 113.852 90.8734
28.288 140.14 114.016
45.0857 102.511 93.4179
22.0034 141.948 123.514
44.4453 122.751 108.994
15.7669 98.6323 196.897
47.1828 101.532 83.4993
29.2665 112.814 85.1397
18.758 140.461 79.3302
22.1606 135.576 129.697
25.2909 131.224 136.25
18.6825 131.727 113.82
22.9905 153.7 133.203
50.1144 171.761 117.129
50.1767 166.713 72.339
30.1075 173.772 136.868
40.4423 131.111 78.0705
8.49165 81.3211 156.58
23.0074 112.546 188.235
42.9842 142.079 106.598
20.5861 175.101 126.128
38.081 105.805 87.2593
25.5744 67.2689 161.041
14.3858 139.76 93.1039
14.371 126.881 99.8742
34.2866 93.6853 193.781
61.1626 133.186 79.2305
13.9084 85.3409 148.332
34.2686 164.93 120.448
28.5839 127.361 130.097
18.761 86.9841 191.223
25.6443 18.7017 269.605
17.9658 118.317 92.6772
30.4298 140.809 66.7781
50.1349 116.551 74.5899
28.7393 141.744 78.1382
43.7649 169.783 107.134
61.6899 119.641 77.3832
11.7223 92.2636 191.316
28.1968 120.166 104.945
13.5792 131.469 90.1288
28.6562 129.375 64.7307
15.7904 171.1 110.402
54.3858 129.12 71.935
52.3395 167.756 81.5879
28.9786 7.1854 115.711
23.3351 188.642 121.194
27.0296 143.249 107.28
47.5064 149.116 68.2987
50.1352 129.916 100.722
14.4424 107.838 197.803
80.2187 26.2536 206.514
63.8334 128.28 129.983
13.0054 143.859 54.4585
90.5024 30.8873 199.419
15.0197 94.346 172.366
63.1419 172.141 78.1006
25.1442 112.302 102.412
12.9552 109.466 188.829
17.9323 118.76 103.28
26.8938 91.561 191.666
40.0361 124.006 91.4365
11.1713 178.619 120.59
25.9646 83.0175 135.867
43.0817 139.534 120.322
31.1637 69.6431 148.037
15.2907 146.695 49.3413
36.3791 113.997 80.4592
84.1899 36.8239 200.183
46.6939 128.326 86.7513
8.89434 95.847 174.107
28.2484 118.13 80.0117
26.1613 169.86 101.684
29.1866 125.406 113.104
11.5901 77.9746 142.287
27.0526 172.577 110.832
21.8762 95.1317 195.686
48.7372 174.399 86.0712
23.6648 133.9 143.325
63.7454 180.692 89.3173
35.9163 174.26 110.917
52.283 96.645 89.0538
26.9573 91.2829 149.955
24.8522 182.29 115.743
45.8134 118.075 82.0569
18.827 131.098 79.2553
15.1072 123.474 85.7963
49.0288 120.388 100.942
15.9384 140.437 86.6158
33.6557 141.303 85.281
28.9912 116.228 114.419
35.1057 160.568 113.631
29.7062 132.551 84.0142
40.8243 128.774 112.113
13.9982 67.8596 147.062
70.0909 168.73 82.4701
44.5078 109.206 78.226
33.1519 76.1057 155.308
9.90526 104.347 181.539
24.8455 116.644 88.8952
44.4318 154.858 88.188
23.3006 138.999 89.1571
69.1051 151.115 76.4446
18.2499 131.626 122.072
22.5671 106.45 196
26.6591 62.8613 150.967
31.7883 142.717 98.3237
20.4327 105.939 182.837
11.4829 126.026 193.41
51.915 152.957 59.5924
71.3367 162.599 78.1026
35.3712 134.137 135.217
72.5093 140.458 89.1938
55.5821 132.421 126.099
42.1873 179.341 85.0398
85.8934 21.328 200.861
22.4275 135.672 69.491
62.6338 125.505 74.2417
13.3651 179.98 108.941
44.787 177.505 99.1813
46.7981 110.315 87.8144
64.0311 133.752 124.207
19.3207 172.902 102.549
21.0823 143.733 136.705
29.856 142.514 92.2717
32.4314 101.553 193.764
56.6747 143.496 50.8127
37.5836 122.813 116.526
69.4108 131.913 81.2633
36.5967 172.859 93.8225
17.1227 182.136 120.856
44.8251 150.46 119.936
24.9863 130.739 76.4593
12.4456 146.302 141.955
13.918 135.662 129.785
36.1692 154.581 107.406
59.2916 143.709 136.492
32.4222 165.213 134.721
17.8899 193.194 125.116
37.51 179.051 103.84
22.2105 174.797 118.684
30.4003 108.827 187.536
25.2361 161.409 133.625
15.1743 96.5995 185.033
38.4799 119.936 103.509
33.0563 80.3608 145.996
41.1207 134.317 95.5459
71.3665 141.644 56.9558
7.77528 116.948 201.919
26.3663 123.902 71.2608
28.2409 188.293 108.637
55.7882 121.227 96.9961
14.8128 126.414 108.515
43.1977 134.781 70.8865
41.4733 138.928 62.6193
62.1967 170.798 112.981
74.6721 173.713 89.9374
38.1127 141.508 76.1864
20.2067 186.971 107.621
15.0641 156.02 124.926
22.7994 180.604 103.605
39.6748 147.62 87.6079
20.1713 121.98 75.1421
63.9784 138.309 58.7791
13.2959 62.686 152.065
59.2545 144.653 128.962
56.6985 142.13 71.8666
47.2696 144.682 75.6273
24.3991 74.6321 139.115
61.6774 163.164 74.3744
32.6642 134.752 125.244
36.178 110.894 190.307
17.5818 86.7153 155.297
72.114 141.634 65.511
58.3142 147.343 58.6072
21.6197 69.0825 142.616
55.455 104.292 93.99
57.2272 136.423 84.5614
34.7581 132.18 91.1622
48.8521 146.777 88.3745
45.1452 168.382 90.5287
89.3946 27.8946 204.104
21.2154 116.299 84.3702
21.9109 23.6953 263.544
27.4555 168.025 119.001
70.129 156.088 82.2081
42.2791 160.059 116.287
34.1805 149.913 103.735
51.8851 156.178 71.0526
22.8979 112.762 95.6753
41.3791 172.248 119.915
67.7641 176.163 101.955
30.2716 180.552 111.623
44.6465 137.124 113.866
60.0016 135.589 132.891
47.1445 160.463 90.9929
61.0745 143.953 90.4909
57.8672 144.834 80.8284
47.1333 160.785 84.5089
34.3502 135.719 63.3455
49.2182 137.572 65.1394
38.8836 180 97.0724
24.9602 163.263 113.886
19.3469 123.094 62.3792
31.2949 141.826 138.529
56.4148 153.22 54.5377
53.6979 132.239 59.7752
34.0385 143.104 121.602
54.2987 166.694 101.952
48.825 132.084 107.342
72.8243 147.876 84.7782
35.2321 128.924 84.6771
69.2576 177.881 93.3957
43.6327 182.83 133.826
34.284 150.845 119.523
21.8835 167.598 115.399
37.9034 179.462 90.8626
42.0828 170.276 85.6678
65.1332 132.477 72.1038
12.3216 120.606 198.2
72.8941 144.806 72.7698
60.179 131.359 63.4626
67.5077 134.905 67.9764
86.939 32.8143 203.878
18.7735 21.5579 269.066
58.9718 164.341 125.019
48.346 159.286 122.625
41.8629 180.321 105.762
62.9948 146.602 85.1373
14.6508 121.956 58.7053
67.466 153.895 89.9333
