ply
format ascii 1.0
comment Created by Open3D
element vertex 446
property double x
property double y
property double z
end_header
26.7552 169.846 96.7515
85.2443 144.511 80.1368
47.9269 17.559 30.1608
44.8999 75.2989 64.6064
98.7384 124.028 111.553
20.4456 128.952 140.984
22.9291 195.442 268.549
77.7305 139.094 86.5488
51.4353 38.9567 16.1695
92.6429 44.0765 35.553
60.7604 125.991 141.07
15.5313 5.02212 2.2076
13.0163 135.068 261.569
55.6535 167.799 64.365
54.9973 176.979 65.635
20.2836 175.389 96.112
66.2566 37.1579 29.0202
65.0276 44.8816 2.47814
84.3139 116.158 50.3662
73.9464 5.2715 21.0597
87.3169 31.1065 46.9028
81.044 36.6954 41.5624
56.5004 165.583 58.1051
80.2738 149.662 56.1215
63.8117 138.195 73.0729
46.2867 21.1915 22.5099
82.8634 46.0641 27.3713
100.202 129.874 116.5
63.2571 19.2554 12.1269
60.171 152.447 58.2108
65.7598 127.611 68.9732
57.8953 10.9995 32.0544
51.4121 29.8581 7.7358
71.5567 146.959 89.9052
89.6546 112.298 48.8474
93.6715 40.7253 5.31807
66.9908 132.447 55.6951
90.2331 32.9182 40.2529
53.2506 17.9997 38.2429
64.1184 150.831 55.9782
61.7006 157.44 52.3861
74.985 117.053 54.3933
90.0346 175.821 52.2382
68.6142 151.203 86.7165
65.1629 20.5672 46.936
51.6946 8.00414 30.8974
77.7028 162.701 74.8147
56.8088 179.8 61.2818
86.1928 111.184 53.8339
69.7382 34.2223 37.8884
58.407 14.5888 8.32039
63.2975 173.833 55.6625
70.8293 43.5101 21.6427
99.8407 122.878 105.431
56.2394 172.95 60.3404
83.8896 5.3325 24.2032
57.5796 92.3193 126.598
35.6824 148.678 232.848
83.3066 155.216 60.0196
79.6739 164.071 56.3439
81.8344 162.175 63.9735
64.9507 128.301 61.2808
81.0076 47.8821 8.48398
57.8543 168.015 69.4922
67.9847 174.621 50.2023
65.8283 133.285 66.9003
20.8791 175.799 33.1312
67.3321 156.381 51.489
50.7047 28.2746 24.5529
72.4703 119.455 58.6641
71.9012 130.899 53.5345
54.4854 38.7139 23.1665
59.9972 45.2424 16.2602
25.8476 131.311 150.739
54.5163 28.1638 32.7493
68.4382 44.4594 9.63077
45.326 29.9984 8.49217
76.7303 13.913 25.6254
53.0593 13.436 33.5805
15.341 100.358 238.889
75.5021 23.9973 50.2765
74.1169 113.577 64.6545
68.8815 151.808 53.5731
64.7293 135.101 78.634
61.6789 156.213 83.4151
82.8259 17.337 35.1316
21.585 45.2585 6.83046
100.35 190.08 114.722
78.7886 98.0395 3.39045
66.0235 118.273 64.5095
93.4649 17.1035 43.2879
80.2609 111.615 55.1976
38.9797 203.732 76.1465
102.572 152.067 113.386
97.4211 122.17 48.9797
72.4205 156.683 54.3888
77.6897 87.0902 127.497
62.6267 169.223 50.09
69.8456 158.197 88.983
92.2187 109.019 55.1286
58.3649 182.33 56.4299
44.3939 24.0733 17.7771
137.977 30.5174 55.9287
57.7736 29.6423 38.7919
99.9839 162.864 119.791
68.4879 37.0274 33.8768
56.5451 174.049 70.684
65.108 197.794 70.934
78.7283 3.76473 22.6873
59.3437 37.764 27.3526
83.3801 8.9167 50.0176
65.0501 1.98851 7.94303
76.0081 155.894 90.3543
70.3611 124.305 58.3972
95.6372 132.549 103.424
80.4991 129.581 50.3374
56.2171 23.2919 43.1049
70.4545 137.139 54.6688
57.9948 152.938 74.5625
92.9051 137.8 66.298
82.6955 121.992 48.4914
49.5438 176.266 204.216
63.4168 31.2248 43.9287
70.289 195.287 61.7854
96.5277 134.013 109.464
66.1328 45.3526 29.1056
75.6191 31.185 36.9709
56.0706 32.3461 26.0051
83.9545 97.5546 140.423
79.8037 26.4845 44.2778
70.6035 26.425 46.8372
84.2021 38.019 5.89657
58.5889 166.773 75.7616
82.4359 124.202 88.6673
86.3177 66.9474 198.798
49.7187 19.7114 3.14949
102.517 125.21 50.4811
91.4183 123.386 47.8518
82.2446 20.4193 28.3108
69.8017 48.8669 5.00272
86.0203 140.633 54.4428
70.1363 121.048 64.6338
83.056 44.7401 34.7478
99.6533 140.095 112.269
78.214 110.466 60.7299
47.8888 29.2837 16.3001
67.2771 183.384 50.3345
103.851 69.6501 112.1
69.172 131.069 11.2226
64.4983 26.2112 3.4246
60.5644 146.821 73.494
75.2761 161.215 49.9043
88.8267 144.627 56.4087
71.9352 31.405 43.4999
79.0889 158.725 54.2332
78.8959 76.5978 80.8719
75.7719 28.0122 44.3576
80.5378 35.4578 1.97607
106.905 174.862 129.946
66.4262 146.678 81.3066
54.3369 116.54 242.456
47.8683 9.11519 26.0399
59.1216 34.9612 33.0089
89.8166 78.0243 194.181
76.0265 195.079 69.7153
75.3277 150.397 54.4739
104.005 112.28 106.018
106.324 125.276 116.61
73.0629 30.5503 5.91707
64.685 10.5265 31.4619
58.5869 13.4744 40.6927
70.3864 162.132 49.2955
50.2467 23.259 31.5091
74.9509 8.89629 49.0044
78.482 171.09 60.9133
64.4361 33.7391 33.561
108.439 9.90581 102.202
82.2829 168.214 61.949
71.8069 32.1584 11.9014
57.7163 156.185 80.9845
74.1262 40.7249 34.8277
70.0437 200.74 66.4825
78.0705 45.5825 20.1044
88.2963 23.858 98.782
38.505 176.88 194.866
23.2897 140.565 28.4781
15.925 208.695 57.9382
71.0502 127.476 80.6355
76.2229 129.634 50.2937
127.908 202.843 130.714
86.9676 127.521 46.6669
77.4747 89.5236 83.0727
107.733 179.086 127.4
76.4745 153.262 85.3588
77.9564 161.148 87.3417
88.0526 168.738 66.2776
66.4851 13.7948 44.4003
114.038 176.172 127.603
74.1019 225.896 76.6625
70.887 121.489 70.2902
92.6569 48.4585 18.3343
34.5 168.098 229.136
87.9201 106.44 57.405
65.0091 135.122 61.1129
125.8 49.4825 127.078
90.9697 135.342 51.0816
74.3462 129.654 84.3198
57.7801 176.447 76.5234
95.0047 162.6 115.531
69.334 92.6128 221.853
62.5685 12.5081 2.12752
65.4878 160.73 85.4914
86.1782 130.141 86.0357
74.4104 136.627 52.0585
98.4363 5.30272 42.4146
61.512 26.3786 9.68535
78.2707 47.3988 29.2305
57.6157 152.831 67.0086
134.531 150.428 164.323
70.5019 147.336 54.6682
74.5276 49.1763 19.036
44.8958 133.697 150.509
62.0777 183.739 51.4012
65.9493 142.984 84.4034
55.4984 161.264 72.2859
89.7202 44.3913 23.6038
45.4236 4.27642 19.4352
73.5528 70.4281 183.609
89.1728 157.424 72.2585
75.2424 46.996 9.96608
62.8812 140.803 78.5986
67.001 38.605 14.5939
87.2641 107.255 77.4433
85.033 23.9349 51.4907
67.1778 7.90449 45.713
81.0315 143.75 55.4718
102.198 32.7882 20.9681
82.053 119.768 82.4393
46.6275 10.2208 19.7702
54.3015 160.14 63.157
63.1161 185.929 79.0711
86.4472 148.646 62.0274
123.085 204.803 110.47
77.4066 15.4096 50.5287
92.4016 121.977 102.194
79.0553 52.0573 15.1081
99.0633 8.83427 39.3202
95.4398 93.082 3.73858
78.6614 154.445 56.3023
66.6353 138.44 65.7659
81.5599 135.009 50.8295
56.7679 2.09429 2.63136
67.3003 10.783 15.9568
100.285 115.729 104.918
60.1136 116.39 100.94
112.315 198.956 114.396
87.297 137.026 83.3723
101.967 145.021 117.261
43.5895 80.1015 187.227
64.7889 141.777 61.7373
79.7676 117.297 50.8996
99.4041 197.51 63.8361
114.897 182.875 132.853
63.1883 131.383 75.0534
86.4324 160.153 67.9292
77.7392 197.751 55.8318
69.0114 139.209 83.5471
20.5611 169.637 17.6928
26.171 5.40546 43.9217
81.3128 132.035 83.3877
85.9775 22.8853 25.7775
56.5685 82.1833 219.39
58.1642 181.109 71.8363
111.125 124.641 116.888
59.736 132.569 60.0404
53.5385 165.533 76.1323
75.8829 28.8705 15.394
70.1328 70.6015 1.48717
109.232 185.887 123.185
62.4658 145.189 29.182
123.43 67.2638 107.171
96.4659 197.214 111.906
19.4736 126.899 6.16308
111.603 181.863 125.22
42.8244 142.199 11.5171
59.4328 200.784 8.94418
61.2727 8.79817 29.1975
20.9063 196.005 122.477
77.9186 173.214 46.2186
103.637 176.239 125.327
60.1388 143.98 65.7072
109.94 49.9062 145.443
71.7793 134.886 84.5381
123.005 198.164 119.495
68.2459 19.2723 20.5804
74.4378 178.666 42.2793
72.5479 142.814 54.3866
75.5575 48.3337 5.33646
75.0559 122.539 52.5497
54.8411 11.8765 2.47355
105.47 40.9727 158.646
97.5529 170.846 119.791
95.5824 129.643 78.5604
62.5319 141.165 69.5903
135.397 17.8412 74.036
42.8469 16.7448 14.3246
51.6024 213.551 19.7521
85.1233 54.7784 138.923
85.8258 13.4268 25.255
62.2116 149.968 77.6688
75.9651 36.1232 43.2054
74.9226 167.434 55.6279
98.7221 117.577 100.61
114.169 190.104 123.861
59.4511 221.302 1.83838
79.077 28.4525 49.3721
83.2213 46.9349 21.2642
95.2337 158.052 96.6039
78.8941 126.638 81.3087
91.1461 138.723 75.3091
60.0939 171.743 73.9635
67.1175 139.619 57.699
129.811 186.648 127.985
66.0447 165.67 51.1719
78.4145 194.181 65.1526
63.5141 180.071 83.0098
49.2633 80.7162 195.439
64.6415 152.59 83.5235
78.3628 91.9908 99.8862
99.1615 145.574 110.053
41.9234 1.34571 3.1853
28.9948 173.427 223.847
93.7398 194.908 105.912
41.8456 149.924 2.68598
20.7071 191.045 75.4967
79.3775 66.1395 167.943
48.637 27.2117 2.47219
65.6844 43.4882 22.7865
93.2631 163.246 102.868
23.0789 169.48 226.316
86.9639 172.885 43.8187
28.3281 174.435 123.242
37.2614 207.237 231.476
81.7172 176.466 45.8572
49.3153 3.50886 9.80016
53.5523 28.8984 18.0242
25.0718 171.382 88.7345
93.1023 17.8921 33.35
70.3868 170.766 56.8795
83.4115 32.6816 9.87337
77.8014 123.653 78.3593
85.8912 151.164 82.3468
61.3889 151.323 67.8998
57.5774 3.45666 30.2702
112.257 166.368 120.85
94.8705 74.6595 99.704
107.005 194.685 116.042
67.3628 10.4627 37.9647
95.5591 127.561 107.258
44.1801 1.84435 13.2103
82.9719 124.882 82.8186
88.2252 126.123 87.0275
72.7344 37.2758 36.0275
100.146 136.597 117.289
122.552 185.704 128.547
76.1404 169.762 48.1535
89.1847 120.057 82.8488
98.1714 151.7 112.802
100.115 182.549 111.571
115.926 185.165 125.119
63.316 3.05999 3.91232
87.1758 181.773 58.3593
61.4495 190.614 74.4949
73.0938 115.662 69.3526
96.9077 164.041 72.0077
73.7951 195.507 85.3069
91.6878 29.1511 46.682
89.6993 30.3389 31.6151
78.2537 120.785 74.9496
93.174 108.098 85.1351
83.0711 14.3714 48.0934
44.9982 12.0314 1.09408
93.1686 16.7098 203.826
71.3673 181.986 85.6799
95.3593 135.096 87.1519
74.1832 47.1886 27.4071
105.021 185.83 117.827
48.8891 15.197 8.22069
61.6822 22.5318 4.93545
87.0036 131.836 51.0727
23.8048 115.654 204.603
90.4143 11.6114 46.478
91.5217 117.91 50.9496
53.7944 206.163 47.1659
100.798 160.358 110.742
67.8352 191.43 49.2469
77.0645 187.777 95.8948
41.9432 174.268 22.83
79.4526 119.733 127.398
59.3961 107.469 155.177
93.3169 179.566 111.129
49.5353 8.60549 10.0064
97.9857 135.577 95.7604
81.1803 132.319 202.998
72.2752 167.861 84.8657
91.7456 37.6117 25.3048
50.1394 160.383 20.0604
64.7275 170.814 86.1773
69.8917 177.465 43.2409
88.0736 159.558 79.17
95.5093 129.165 99.3927
13.2061 140.821 200.351
76.2223 183.908 88.5914
39.4267 176.132 6.88331
62.0162 190.772 66.7537
97.5989 185.07 116.464
51.7868 159.154 14.539
101.302 168.896 122.112
62.1293 164.278 81.4147
18.5516 180.876 68.4482
87.4921 17.6779 50.169
118.925 83.8109 9.70091
104.39 150.482 121.028
70.6098 92.6121 125.347
73.5444 185.268 46.866
71.9267 55.1106 162.745
108.01 164.081 114.773
89.0045 32.9946 28.0246
87.1889 135.917 76.2846
65.2658 144.522 58.2857
117.899 188.273 118.054
71.5553 40.4502 27.6199
77.2579 189.538 60.6397
92.5817 197.12 62.3375
41.4276 215.655 249.258
112.528 113.452 39.9527
67.1762 137.97 167.577
70.4183 169.059 51.3646
95.7195 130.06 46.6135
82.0085 2.48616 42.0701
42.2089 143.5 239.681
50.4366 78.6553 229.086
98.1662 94.3425 122.128
89.7233 114.42 84.1517
71.2211 15.2072 49.6508
80.388 111.444 71.8699
