ply
format ascii 1.0
comment Created by Open3D
element vertex 166
property double x
property double y
property double z
end_header
43.381 179.251 115.684
60.9887 149.427 122.004
25.9488 161.304 74.8436
31.3741 176.117 92.6417
36.1611 187.478 107.82
50.2659 172.313 71.4873
70.9564 143.023 92.645
41.1109 170.259 116.48
43.3604 182.36 77.2512
25.1401 184.125 98.3578
57.6601 146.851 75.985
30.6394 177.454 106.396
41.2691 144.344 105.543
43.8658 185.274 70.2308
55.8007 159.517 102.229
33.4859 173.982 72.6237
19.8958 163.985 76.2915
76.2299 153.476 108.13
77.4018 150.645 84.5378
50.9767 149.106 101.007
62.5593 183.281 93.5009
38.8703 188.94 78.7969
30.5043 145.275 74.1744
46.3423 153.693 107.105
44.0693 183.682 101.352
8.92315 177.369 88.282
61.2718 176.975 108.785
37.6953 145.848 74.7164
35.8489 160.316 75.816
41.3954 160.868 65.3404
44.1613 167.189 58.3583
45.4169 188.653 111.1
14.4367 180.304 95.3497
39.7508 154.252 99.2354
45.5604 143.956 89.017
12.4139 185.367 86.633
51.63 163.93 105.711
58.5603 166.845 64.2401
70.047 176.107 62.5448
39.9981 178.638 58.8301
112.901 228.098 60.0421
57.6539 188.313 75.7673
47.7535 140.171 98.1602
35.083 174.504 110.915
28.1321 167.327 81.4214
67.0625 149.083 87.9068
52.2927 180.252 80.245
56.4885 147.416 111.936
68.7309 149.774 77.6003
35.8447 187.544 88.496
29.8455 147.298 89.0472
46.0758 138.976 82.4288
34.3986 187.098 99.2722
120.357 219.838 47.3948
45.8351 184.226 86.3252
54.2881 184.349 103.63
57.4975 144.265 101.369
49.1353 146.588 78.0572
108.372 229.57 43.0769
23.8815 173.928 91.2692
32.0036 151.658 69.3723
42.6192 186.981 63.4416
48.3276 182.887 95.0046
45.4776 176.783 106.041
37.4835 167.996 65.9979
34.0037 153.384 81.9812
72.5075 182.601 101.397
55.3237 154.088 82.642
31.0044 155.565 97.2002
57.3111 155.202 108.955
47.459 164.907 114.16
47.1093 192.41 76.2993
69.5385 162.021 109.065
55.4088 176.002 90.6156
129.608 219.129 66.2628
58.6784 187.917 85.081
129.809 223.738 55.6519
25.489 182.069 91.3302
28.6015 161.167 65.7207
35.8653 179.013 82.5037
32.0965 144.672 81.3645
46.3942 149.295 71.3763
76.8127 168.596 85.8364
50.2946 192.183 89.8587
58.9259 167.205 77.5109
69.3948 182.712 70.6077
18.1995 176.941 90.7782
32.607 184.471 67.0499
12.3202 177.307 70.265
40.717 174.445 93.3706
8.41277 174.377 72.6708
39.6465 145.767 93.9542
35.9656 139.783 89.8311
62.9385 160.779 78.2297
136.313 214.872 62.8518
43.624 163.23 102.652
15.2466 172.261 82.9426
77.5991 188.603 225.409
66.5713 152.526 104.165
64.4837 142.751 105.598
15.7004 167.508 83.3868
47.6986 174.388 58.7118
34.6035 163.011 99.3803
30.721 168.603 65.0117
44.703 155.462 69.6037
127.148 229.726 67.6302
62.103 153.982 75.6495
99.5164 218.686 52.026
63.0096 175.167 99.675
130.388 220.256 22.0414
22.3344 180.583 74.4791
61.5897 181.765 58.2176
74.2651 160.754 117.754
53.2319 155.99 113.517
138.944 11.2724 104.565
52.8451 179.916 60.1659
70.2988 180.943 90.9092
36.1361 181.096 74.8972
54.2576 163.1 73.4624
54.9951 163.771 111.254
36.451 158.955 93.1634
26.1429 172.993 74.0499
78.5655 174.691 101.53
137.398 230.438 78.4348
137.804 220.574 54.6345
51.1735 164.184 80.8192
42.0809 153.542 111.38
35.2852 174.067 60.7938
51.2856 159.657 68.0269
63.0736 187.864 71.2503
70.677 177.027 110.106
44.0132 153.25 79.1843
55.8547 144.805 85.4854
77.14 158.359 90.7303
13.0823 179.382 77.2877
69.0563 148.265 115.462
57.9249 170.833 114.06
86.5209 162.797 86.5382
78.2081 187.805 106.51
62.4485 188.215 64.3783
27.3214 174.87 84.5318
63.4154 156.937 89.1336
65.8732 169.281 75.3262
32.6264 154.63 89.9225
58.0167 140.384 88.5033
49.3674 156.572 83.5539
69.9579 169.41 106.16
109.389 230.074 34.6528
51.9077 134.372 62.9907
137.103 222.6 68.1959
49.6549 153.14 66.0051
60.4848 175.884 65.9591
135.365 230.166 64.0364
29.6461 184.363 93.655
51.5301 156.267 76.1236
37.2434 151.118 88.5989
67.9414 183.925 80.6723
51.494 170.879 61.3036
35.9156 180.442 89.239
34.5388 133.261 75.186
59.318 166.146 85.2054
116.919 231.797 30.2773
34.9397 133.678 80.2829
69.7704 157.07 90.9975
67.839 165.868 88.0704
138.88 220.154 47.7826
