ply
format ascii 1.0
comment Created by Open3D
element vertex 674
property double x
property double y
property double z
end_header
84.7753 51.642 151.064
40.6209 206.282 103.955
26.129 98.528 171.415
62.3281 175.669 23.1109
13.3684 111.405 147.916
46.7904 202.086 60.7906
36.6935 153.015 182.645
38.1192 164.443 176.804
24.7183 160.391 165.406
15.8228 117.215 158.372
56.568 219.762 108.181
24.967 176.377 149.929
68.2909 163.552 12.1278
23.0206 121.764 173.056
67.6557 205.662 46.6208
20.0193 182.961 100.065
48.5405 69.9993 175.553
15.0191 169.224 135.232
26.1318 196.709 106.139
18.2671 151.766 156.739
20.589 147.061 168.974
75.6678 182.722 21.1982
17.6097 163.24 150.195
36.5578 184.062 159.068
17.1787 162.32 82.105
34.0254 75.2263 153.559
20.7407 89.0182 146.963
27.2074 193.822 123.977
27.945 88.5026 159.821
95.1178 137.073 5.52902
29.5575 199.624 116.209
35.6784 203.054 124.025
44.0534 164.284 33.8073
91.8072 57.121 162.204
26.2599 135.675 174.881
20.3831 136.384 161.493
9.8536 154.209 129.182
23.4416 167.355 158.078
47.559 108.553 193.452
64.8203 80.5663 187.783
45.853 207.9 126.353
53.7207 207.653 144.67
29.5051 174.767 160.56
51.4373 167.513 26.075
45.183 211.619 111.518
45.0495 206.876 69.5624
52.7568 181.645 176.345
20.7153 128.706 168.201
116.236 58.3163 66.537
37.4155 85.9365 174.202
58.1383 217.041 68.9643
75.9059 68.679 178.286
36.7494 207.341 113.481
10.7023 154.877 137.044
91.017 70.1877 180.394
68.1133 205.559 155.898
83.8282 47.4831 117.951
29.0032 108.509 179.731
108.294 145.549 4.63929
52.1238 80.9385 186.259
58.3018 67.2755 176.835
74.0452 223.808 128.172
87.3195 229.117 91.0004
131.186 106.294 17.6007
78.7928 71.8505 185.32
12.9493 154.884 146.343
89.2044 50.3876 142.861
65.8992 69.8216 180.259
44.774 74.9256 171.861
57.7292 220.591 82.0108
57.1653 101.654 195.353
69.9689 224.667 91.2032
74.1118 225.388 112.079
101.441 60.8022 163.47
112.255 156.05 5.50569
58.3431 205.296 53.2147
49.182 128.546 193.471
76.4766 51.9358 152.823
53.0392 219.494 89.4041
25.2564 136.943 183.766
51.4789 200.929 52.9788
54.4062 202.119 156.703
65.3595 167.192 16.6394
24.5914 192.383 97.4497
71.0515 53.685 155.357
60.4439 134.532 197.266
18.5097 170.895 82.6173
15.6762 127.692 157.388
69.3144 112.924 201.005
16.0538 175.759 102.08
67.3287 85.9094 194.884
105.282 96.901 190.654
32.3219 193.29 142.308
92.8948 100.322 196.436
43.8081 201.391 144.893
97.4136 79.0377 25.3079
72.4402 191.627 31.3566
61.0321 205.801 154.419
55.9885 146.202 16.519
33.6547 101.406 178.334
102.725 86.5188 185.826
115.441 91.3425 18.6943
97.7098 90.8046 17.1523
83.9173 200.389 37.0368
89.5671 74.9088 29.4896
9.10332 143.293 130.904
53.6827 157.013 20.9134
58.4735 159.996 19.6572
95.3212 188.341 24.8316
63.958 212.813 144.176
108.051 51.7823 95.3392
68.4893 216.673 60.562
33.1607 198.679 85.4771
82.5496 52.65 74.1435
78.7852 228.936 95.8555
38.4989 208.367 94.4991
54.2781 175.055 27.5113
52.3062 190.805 44.5668
77.5017 96.1725 18.7727
98.0793 69.6301 174.683
119.104 99.7285 16.0431
58.208 220.524 117.64
105.896 61.1407 155.959
18.0351 166.902 141.629
75.9405 210.504 50.3637
72.527 79.2875 191.488
72.1584 62.9194 174.78
109.822 115.219 10.396
56.1294 117.557 197.701
64.9524 53.8159 156.979
90.5535 143.888 199.104
96.0802 54.5528 152.297
122.367 107.331 13.0796
75.8356 166.022 9.80863
79.4589 139.829 5.60134
43.7855 67.8257 164.977
61.784 217.665 128.217
12.2602 166.656 122.101
133.783 74.938 147.553
46.1667 197.309 153.049
49.5863 215.044 117.647
25.671 112.129 173.584
52.5411 56.7535 146.185
14.1301 139.163 151.138
84.8697 47.9645 101.758
71.6218 48.8002 121.971
49.5278 120.669 190.288
110.936 76.4674 172.838
48.7882 212.509 89.8673
92.6587 230.249 101.734
96.795 50.3165 82.4203
61.2068 90.5045 192.245
56.5477 221.163 95.5633
21.958 108.842 164.423
100.471 53.8748 141.726
54.8278 215.918 127.256
85.8284 191.61 26.8741
45.7932 211.198 79.6005
129.088 69.7233 51.4973
56.5302 53.0939 138.599
43.7023 179.762 171.95
64.5173 221.969 73.983
32.5759 144.752 179.889
119.077 113.947 9.40646
134.89 99.7826 26.5055
21.5158 188.889 126.514
59.1269 56.8722 164.067
53.9817 75.5056 181.615
37.91 78.7772 162.234
27.6694 91.3715 166.831
116.044 142.429 5.881
120.764 204.093 53.8633
94.3102 79.985 185.001
105.114 56.0568 147.318
95.1226 226.937 83.804
51.3906 189.283 167.384
9.48959 144.899 144.086
28.1976 77.4612 142.155
84.8306 154.744 3.63455
88.0553 56.4303 61.7188
8.228 112.153 132.04
39.8256 137.006 33.638
34.9515 173.332 167.615
37.2112 198.444 72.104
82.7935 166.708 8.55692
124.517 113.175 184.452
76.7195 186.498 180.236
76.284 228.725 105.55
85.634 225.151 124.89
15.4766 178.422 121.384
116.253 52.1023 96.2992
105.96 127.625 196.452
33.1838 92.3156 178.124
37.9216 184.17 54.3072
105.26 61.1442 60.9427
51.0885 212.418 71.8927
63.1322 193.122 37.4655
29.2767 125.482 181.67
105.468 72.6725 29.1921
56.7761 195.496 164.982
85.4232 76.7295 186.526
52.8661 90.4061 189.761
64.3261 224.132 84.9444
12.4998 123.64 151.261
40.9885 139.091 193.11
31.4979 119.513 177.66
38.404 201.518 137.332
36.5862 125.008 183.689
124.316 73.4022 41.7464
106.409 68.4242 166.701
79.1165 88.2417 21.7087
89.1299 182.724 18.0724
104.531 132.103 3.55202
28.5796 190.693 82.7957
67.095 100.325 22.1811
9.36598 106.005 112.193
28.4567 135.139 51.0476
31.4893 158.325 171.079
29.765 185.893 74.6732
93.6127 199.913 37.0923
129.525 213.209 82.9672
123.401 54.219 103.039
67.2664 49.2843 136.12
8.91088 149.686 122.143
17.4183 102.378 88.4538
89.6804 61.6419 168.494
79.8348 48.3441 143.444
66.2122 224.708 110.398
81.011 172.943 189.431
23.313 115.8 64.0001
126.236 90.9229 25.3318
121.328 63.8737 48.6529
133.148 99.8574 166.578
20.6878 179.948 84.7619
115.414 58.7605 145.015
73.2708 51.4045 143.906
7.83482 137.77 117.515
103.064 185.778 21.2998
42.5508 117.18 187.986
58.2602 54.3919 153.274
88.1667 172.129 190.411
62.9931 199.376 165.421
12.1145 167.793 110.498
31.3548 188.637 136.983
114.053 123.521 8.55502
81.6731 201.87 168.36
98.2416 162.503 5.96911
76.1586 200.386 38.74
17.541 96.7582 94.9683
135.631 80.3801 46.2473
88.6805 59.2768 53.0052
109.518 51.5773 81.6162
34.3162 144.262 41.0187
85.7002 135.202 102.63
42.0759 194.205 60.744
99.5699 109.782 7.74821
45.2543 154.424 188.244
47.2887 104.564 34.5413
60.1964 211.764 59.0736
9.41631 134.178 135.009
136.252 201.334 146.557
38.081 193.315 151.059
117.341 67.3764 155.187
63.1419 87.1247 32.6725
128.227 214.483 103.531
96.7802 54.8381 63.9301
76.4702 220.305 63.1896
125.615 134.996 188.842
12.06 123.195 89.4321
41.2771 115.644 35.4478
52.055 211.271 131.914
62.6566 60.6719 168.434
97.5064 68.0603 34.8708
42.1371 146.556 188.479
59.3866 79.2538 187.622
92.8693 46.852 116.482
70.3827 226.808 101.385
17.0092 125.975 74.3829
18.6704 178.926 134.267
10.5797 142.544 93.0645
105.366 155.166 5.77357
90.1738 164.226 7.14277
75.5372 55.6272 66.7423
8.11746 122.439 144.078
36.8144 162.402 43.3902
49.7348 184.361 42.132
23.0457 98.4774 75.9656
62.9712 66.1813 58.2297
84.706 230.276 101.719
112.674 170.178 13.3229
128.87 63.3839 74.0032
81.1182 120.687 7.77378
59.3093 182.374 31.3786
13.0682 160.034 96.8322
10.6509 101.96 128.41
26.5943 178.396 72.4937
103.776 50.4116 116.394
56.6759 171.297 184.92
49.8123 96.6829 193.657
126.507 63.5972 62.5647
136.67 83.8306 153.24
51.6671 140.179 20.1982
125.189 65.7963 145.634
71.782 73.0852 184.549
25.0414 184.176 136.82
124.766 74.3315 154.041
77.5796 137.066 200.258
81.5037 100.906 197.591
79.4902 176.118 16.0316
133.905 68.0317 131.781
119.369 168.775 182.855
31.4511 167.381 54.2303
108.058 161.322 191.35
62.7094 131.932 12.3592
129.867 166.243 22.0509
116.112 221.016 111.684
34.6591 125.455 42.491
77.0837 85.8656 193.325
85.9136 104.982 11.9429
67.4495 80.2103 36.9339
130.457 208.156 107.684
78.9453 227.892 81.3315
100.605 48.2586 104.402
70.9723 54.359 164.906
84.6041 110.051 199.967
125.094 145.078 9.35291
124.281 196.203 48.2427
113.272 129.709 4.34882
90.1378 65.6442 39.5215
65.2775 106.025 198.33
89.9669 176.05 12.8415
54.772 65.522 169.972
33.6745 178.787 56.1777
132.664 175.325 33.1921
27.8643 153.304 51.5425
122.105 80.7748 168.291
62.9652 50.2112 114.617
85.8954 66.2441 175.761
58.8847 56.3085 89.4748
14.5232 94.0942 138.299
59.0915 120.437 18.2431
90.2544 50.1109 131.429
138.522 73.6707 103.813
7.05438 130.384 116.319
125.27 78.1379 30.3434
39.7298 67.7409 155.901
123.519 122.977 187.06
78.7187 152.748 5.29288
126.643 128.417 10.0592
22.0645 167.806 70.0497
65.9933 221.532 132.047
13.5331 101.513 142.381
7.58348 146.749 114.562
29.8465 84.9059 151.896
64.8902 51.3047 143.887
96.9728 48.4549 125.119
113.552 221.345 122.568
35.3262 139.882 186.986
103.094 125.911 7.92816
44.9963 83.5144 180.576
18.1882 86.4403 105.045
21.9205 188.954 110.062
128.501 91.6328 168.78
131.601 194.864 53.2581
17.043 134.557 71.0542
107.133 104.617 10.6199
99.5798 227.824 99.1122
7.63065 124.918 132.946
57.5133 97.3158 30.6361
40.5283 64.6541 96.48
128.184 78.5761 160.448
56.6213 78.7341 48.9559
71.8136 150.923 6.06139
110.994 177.414 184.508
136.051 183.747 43.2474
112.681 60.6233 49.1094
135.675 125.598 177.355
132.066 142.948 13.8036
17.3856 150.606 72.3597
135.823 132.173 16.6307
103.6 175.955 13.7012
127.152 215.888 116.69
115.415 72.0429 163.697
28.8898 175.234 62.4438
103.576 64.2416 40.7912
136.976 159.559 25.8971
112.769 200.892 168.149
84.0884 48.3216 92.7222
133.553 208.257 119.779
6.57299 118.588 111.163
39.3199 207.538 84.7948
119.354 152.539 7.87595
22.9711 79.6677 135.472
126.82 210.665 127.894
101.688 53.0889 134.493
70.8801 48.4343 108.864
45.6024 136.177 26.7894
107.91 80.3406 179.835
87.6857 48.2596 85.3347
73.1973 160.687 193.772
100.294 196.025 34.3101
28.6291 84.2423 82.8484
77.8061 209.598 159.044
95.9121 124.51 198.616
52.2326 61.2462 159.554
37.3879 189.147 61.4423
43.7195 91.5225 185.51
117.696 56.2644 76.2951
28.9443 115.034 54.578
111.244 208.932 56.0605
69.206 51.1503 89.8965
46.4442 168.479 181.616
27.6175 147.95 174.871
104.612 226.162 92.239
19.5417 110.794 73.2578
138.475 93.8473 155.781
122.808 59.501 83.5086
78.0311 59.5408 57.1126
84.5052 113.226 10.5143
53.6422 87.7036 41.8267
19.8108 84.0407 113.935
113.991 68.9102 35.1351
70.1728 214.443 147.262
33.6331 82.3251 169.504
42.2801 204.858 131.925
76.1133 147.291 199.356
63.8769 149.456 11.5448
62.8441 122.115 198.768
64.2971 57.6739 74.7888
88.3861 83.6742 23.6669
118.613 56.9398 122.421
19.8645 139.523 166.346
120.27 148.834 190.242
84.4588 56.1856 166.106
109.425 195.513 33.0952
134.178 205.923 89.5379
92.3145 89.5238 192.791
137.318 70.5446 59.6285
133.941 79.1284 37.0329
94.6025 210.411 50.1148
138.154 101.888 36.0181
81.7983 53.6692 160.534
75.0623 224.967 118.428
65.8729 188.105 175.633
80.093 62.5284 170.432
76.1202 57.9281 166.952
43.4113 60.1438 137.403
134.136 143.53 20.467
95.9465 55.0707 158.014
116.4 59.219 133.845
125.046 172.706 21.8211
18.3459 88.3853 128.599
21.9275 96.0805 156.102
121.812 215.265 111.874
133.747 70.1347 67.9443
48.9595 119.758 27.5687
114.446 80.7156 23.219
44.2792 153.306 29.6102
73.9531 51.4974 82.673
99.4783 138.752 198.133
26.8039 161.034 55.2861
111.342 202.61 46.0148
98.1156 60.3088 47.9186
65.4034 139.778 9.41194
129.68 120.967 16.816
48.2154 193.222 159.684
40.037 101.85 45.2127
42.7584 173.541 41.035
116.932 179.088 21.5014
127.545 204.491 158.902
101.667 152.025 195.554
53.8989 156.55 192.296
106.719 225.126 113.955
138.849 77.1552 62.9719
81.5064 123.143 201.334
102.134 228.553 107.827
37.2293 104.793 185.376
12.1669 98.1792 105.11
103.19 82.4075 21.3123
110.888 214.582 149.339
97.7499 176.426 187.062
80.6552 49.602 126.098
134.338 66.2801 96.8396
57.4769 51.998 129.101
132.678 206.147 138.124
136.776 67.0774 111.115
54.3609 62.367 77.8343
102.494 166.932 189.797
110.18 193.977 174.1
138.517 121.965 27.0936
138.698 115.208 170.725
135.773 209.597 100.308
138.985 198.999 97.803
126.286 66.6258 137.553
116.633 93.0967 182.066
78.1497 77.5895 31.6881
26.2044 79.8971 94.8856
47.0011 60.858 154.288
135.237 91.4651 27.6358
65.1611 110.585 18.2283
52.3974 56.5422 98.4399
114.843 219.326 132.961
91.8391 162.928 192.488
128.618 61.6759 113.934
33.0259 69.4376 146.651
48.7216 179.389 38.4956
71.7209 121.261 10.3157
43.5862 64.9711 88.9923
69.0299 60.9785 169.486
65.9115 61.3123 64.6874
71.1864 66.6954 51.8632
128.907 154.213 12.6964
133.46 157.443 20.6077
100.914 141.225 2.06682
32.0207 69.0561 134.478
73.805 109.4 12.3224
27.4838 71.2503 121.143
7.45881 126.27 102.459
87.354 226.143 81.5972
84.7561 220.31 65.3122
137.179 167.907 31.7781
92.6647 221.308 141.211
125.407 84.8587 29.2607
25.0509 77.4807 124.097
133.506 114.623 16.8218
138.602 78.3492 50.6015
62.7657 167.977 185.982
108.782 219.769 141.132
10.1909 151.774 104.328
85.0866 85.5364 192.176
128.712 182.752 33.7619
110.317 150.436 193.521
75.3333 94.2936 196.007
99.3866 223.518 135.776
126.223 170.329 180.9
121.679 57.7743 113.38
32.4128 85.7709 74.5867
135.905 205.573 83.1358
118.879 135.869 4.6994
95.7757 148.686 196.337
20.6615 142.728 65.5631
81.5358 64.1907 45.8027
129.491 215.296 124.305
135.524 185.028 172.928
17.9202 98.2495 151.433
137.767 132.923 22.8073
53.3085 66.307 69.4832
63.2266 143.631 197.755
109.988 182.462 23.7198
102.858 226.496 122.724
106.366 57.516 68.5283
52.2122 53.8821 123.518
77.3735 225.729 86.8492
6.15696 118.908 121.212
111.609 49.3078 106.693
52.8735 55.4321 107.401
86.3188 138.353 110.272
121.315 161.767 12.7105
114.004 117.967 192.886
132.236 62.6927 121.743
67.9016 49.5199 100.078
130.675 207.917 131.782
35.1243 88.7635 64.5759
101.861 62.7168 52.1421
54.3345 146.065 194.948
67.9607 178.936 182.244
78.6849 83.1557 27.6408
68.3859 131.766 201.519
87.8492 130.039 7.15955
69.8867 126.044 200.287
116.857 216.115 75.2262
100.95 213.298 153.826
96.665 222.894 131.105
50.1232 142.323 192.991
94.2168 221.979 68.5362
45.7609 74.0255 68.7405
32.7505 76.0792 86.7855
26.51 75.1974 103.166
138.668 110.301 29.7896
135.736 64.2146 89.2129
75.8867 72.1162 37.4127
90.8148 182.963 185.023
83.1364 193.088 176.756
99.3138 98.5778 11.0357
36.3804 64.6421 105.065
120.678 218.911 86.5952
122.437 89.956 175.271
104.904 186.89 181.058
87.8021 93.8129 14.8308
86.6198 214.203 152.746
91.0636 147.054 2.12359
83.3804 156.568 194.743
75.0295 219.645 140.485
101.981 106.436 195.89
91.4291 227.27 114.138
139.006 150.847 32.0328
72.5763 195.992 170.965
138.815 203.546 134.451
136.526 67.0822 78.5063
130.596 205.393 75.5795
112.854 135.282 193.539
95.7981 189.192 181.435
57.8652 108.282 23.1985
46.1394 66.1632 81.9338
117.829 221.148 102.486
139.126 187.124 56.4044
32.0147 68.0753 114.847
89.3213 229.399 109.051
139.093 205.385 120.837
46.0261 85.4252 52.4618
93.2515 115.56 199.393
120.738 209.696 64.8629
95.4695 204.885 163.431
88.8667 131.67 201.338
118.12 156.592 190.41
139.271 201.678 90.3356
67.1512 155.403 192.556
100.822 216.086 146.684
101.089 202.314 168.666
132.239 112.948 174.792
129.528 198.421 164.453
139.323 195.822 76.3296
87.2682 215.31 54.9332
56.3917 132.983 15.7445
134.721 67.8676 102.694
38.0793 61.8392 118.666
36.2231 131.29 189.25
124.892 56.4469 90.165
122.121 216.389 137.339
85.4371 222.426 136.787
88.853 212.501 157.761
137.278 89.0276 34.7614
107.006 205.513 53.7405
134.943 178.838 176.36
89.6346 196.658 175.524
69.566 170.951 186.559
122.105 211.699 142.459
129.829 61.9867 86.1992
119.31 138.209 187.733
132.812 200.107 65.1189
139.296 195.448 140.858
73.9286 171.286 190.306
120.658 191.447 35.0674
129.416 133.892 13.8702
133.164 173.224 178.98
109.456 215.15 63.2995
132.203 192.174 169.873
139.007 143.731 21.9626
114.331 185.481 180.867
112.359 51.0813 121.216
125.733 58.8733 127.402
121.448 182.065 27.4351
83.5463 125.762 101.945
126.312 203.826 149.242
45.5601 95.1636 202.902
46.0884 78.0283 59.7468
115.244 205.815 156.296
86.4977 124.664 8.14303
138.822 75.59 132.109
103.438 224.509 80.8407
139.09 75.941 88.5729
138.679 183.13 160.942
49.0351 55.1291 116.092
62.7273 75.3383 43.5515
62.1141 81.588 200.82
79.6395 215.021 148.531
138.072 72.0085 83.9692
122.689 162.988 186.006
137.156 135.806 181.186
138.796 174.391 172.236
41.2414 76.3798 71.4606
138.127 77.8663 140.453
122.454 194.223 171.506
139.03 190.926 161.911
