ply
format ascii 1.0
comment Created by Open3D
element vertex 515
property double x
property double y
property double z
end_header
16.0045 114.667 63.8225
19.8842 90.534 123.947
10.7815 79.0766 114.664
8.972 89.5909 91.3717
39.7631 84.2112 127.299
13.7693 158.712 113.368
37.9845 62.8409 139.766
34.0155 133.843 50.9676
28.4624 170.734 96.9444
17.7547 90.4052 76.4484
25.0963 98.2556 92.0141
14.5608 74.7571 80.5616
12.3148 123.972 106.111
6.14971 106.985 97.2279
19.9723 150.572 74.2129
15.6851 79.517 87.009
33.0108 118.681 50.2062
23.3802 101.342 133.239
13.6194 81.257 123.016
21.4281 74.3318 88.0591
35.8852 100.023 124.049
9.48026 134.943 93.6685
20.2073 103.975 94.4288
40.9489 103.993 92.3636
9.95649 104.727 108.093
18.0252 87.6738 84.8189
29.2649 88.2374 83.6499
15.3391 105.529 61.9183
11.9483 90.8185 78.3953
32.1576 86.8749 134.703
17.4572 83.4401 78.4919
33.9294 107.47 143.021
13.4963 140.503 115.831
11.2914 109.006 131.936
34.5748 77.7488 131.476
32.0665 93.415 88.9072
7.83986 98.6615 122.068
41.0427 89.5473 144.842
13.5364 73.7496 90.5237
12.7535 123.191 116.845
8.97828 128.837 100.8
38.396 168.694 118.34
34.2283 92.2747 150.076
9.29508 125.564 90.0662
10.7802 87.8165 124.568
7.99628 118.31 98.6761
17.2166 117.718 71.1195
41.1917 114.829 153.642
54.5232 163.951 76.4923
36.0785 59.348 77.4276
8.47845 148.505 105.538
17.8647 151.641 121.326
29.8913 146.542 57.7985
44.1819 156.924 140.13
28.8375 149.532 141.917
21.3731 101.212 139.926
7.6447 118.354 120.231
39.0976 83.7114 153.862
17.4833 148.173 132.051
35.7245 127.466 56.7871
15.2275 147.924 90.7117
19.744 83.264 135.637
11.2142 81.4428 92.9706
19.6025 95.0665 135.707
10.2102 93.4454 116.532
58.7093 80.3969 152.192
51.3312 71.7769 153.562
23.7282 72.3729 77.3327
7.42292 103.427 88.8778
25.3839 97.8354 99.983
34.1702 70.549 78.5083
25.1924 143.441 126.617
9.58112 79.8577 81.9113
35.7001 179.192 97.4967
33.7101 115.841 153.67
34.9555 85.4604 108.229
29.052 178.117 102.024
17.7519 151.542 109.319
32.5615 65.2293 139.879
33.5875 82.1824 142.665
21.4141 127.809 61.6661
20.4174 117.11 141.968
38.2293 78.3846 147.678
9.38892 107.196 116.326
18.6156 67.5802 86.6031
30.7559 173.39 115.225
19.6158 106.611 72.6186
25.4934 101.192 107.293
22.1325 70.7907 82.614
10.82 143.997 106.275
25.9968 112.959 76.8537
24.0317 143.004 134.743
20.6844 81.0306 110.947
12.8478 138.607 130.489
34.1151 73.1662 140.547
17.231 147.493 100.315
22.7381 124.704 56.7939
33.5076 151.61 72.0707
24.1649 157.113 118.36
51.0906 100.872 96.8622
19.8699 82.2272 128.721
9.27419 97.4141 112.197
42.3518 107.228 46.2645
8.36388 135.679 119.786
25.9295 106.618 141.678
26.1094 159.275 95.6668
28.3016 176.236 93.7174
50.4196 110.652 158.108
11.2239 110.592 89.7594
35.5885 143.08 52.2727
32.976 94.584 133.44
5.95026 143.657 70.3846
17.7467 119.434 132.751
41.3209 97.6063 152.483
26.7554 67.499 79.9012
44.4157 72.4463 143.585
8.00962 134.981 105.958
30.8114 91.813 142.006
29.1752 156.534 67.2531
14.7397 150.094 77.1896
41.4505 75.3837 154.938
44.9148 99.4662 98.1962
25.3755 71.1866 145.687
19.935 156.659 101.69
29.0782 132.501 144.535
9.18634 118.892 78.3055
33.65 156.808 139.757
16.7424 98.0979 104.659
31.5357 109.143 148.387
21.2574 100.82 85.2688
12.8436 128.476 134.166
40.6909 149.967 146.316
42.412 68.7792 124.373
38.2066 178.359 90.5241
43.4283 144.739 152.071
25.5399 165.748 108.441
26.6804 78.8592 140.645
17.5904 140.037 68.2427
33.0567 74.284 149.584
33.5845 81.7989 79.1799
8.09105 105.537 71.807
16.0797 164.03 108.025
32.4399 152.485 133.771
59.5684 119.589 156.018
19.4435 97.2792 78.695
7.78005 143.124 97.1181
31.8746 152.298 63.952
11.712 150.035 98.167
11.238 105.163 126.958
7.05689 127.736 108.322
10.456 122.68 126.483
42.0931 108.56 152.974
35.2797 99.4116 100.692
28.1425 131.426 61.1975
37.1911 141.039 145.246
14.586 99.3558 88.3147
23.4195 162.16 77.5648
36.2128 106.775 104.479
19.6931 104.216 58.0696
9.10458 156.061 104.284
59.1586 78.808 63.8592
14.2004 140.31 94.9846
46.8328 112.846 151.977
10.8307 89.4472 109.704
26.8508 169.431 104.823
14.0294 117.932 82.8475
21.6303 71.0719 126.051
16.0029 65.8912 103.706
18.6138 90.48 108.588
26.4525 96.7374 115.997
10.0634 95.6417 81.9741
37.5329 95.0173 61.395
11.64 80.3135 105.374
24.9082 133.541 55.1951
57.3655 55.4761 107.472
39.2752 157.542 145.192
8.47453 93.4509 106.956
45.6086 66.6297 143.445
47.0939 86.868 149.299
40.8819 127.076 47.4282
31.1193 75.3425 74.1243
6.87858 111.08 105.139
23.5787 161.815 98.7716
54.8691 160.067 62.8439
47.4857 102.674 108.173
44.3408 149.798 56.7531
15.3617 153.482 88.2245
35.8742 159.271 130.131
23.0044 136.352 62.0636
10.8957 135.644 80.0493
10.5128 111.928 70.4583
24.7046 154.538 126.304
29.3393 84.1213 127.056
41.7483 60.8673 124.26
12.6433 96.8057 130.931
30.8066 110.358 83.4932
20.6981 169.346 101.77
35.1517 104.579 63.7102
13.5741 127.713 82.3768
40.5885 101.887 56.9236
30.9945 98.9652 111.129
37.7876 91.5879 134.58
39.9017 134.58 146.445
53.984 173.251 81.7302
26.4433 89.8231 121.276
30.6655 137.857 140.998
28.8458 170.494 85.6948
53.6405 59.0194 90.7784
46.4987 162.591 63.5196
34.1757 87.9848 146.232
35.3363 125.579 152.996
42.4721 104.91 104.134
46.2801 83.8439 56.0624
16.4675 132.134 132.834
39.5935 118.662 48.0532
40.8148 91.4508 77.5698
44.9745 163.289 136.081
43.9533 166.395 69.6895
34.5916 100.173 89.9572
23.3777 123.074 142.094
35.4033 54.4114 112.14
36.093 107.304 52.8001
34.7898 100.786 144.38
47.1478 105.441 84.5239
37.3125 175.086 84.3291
56.0567 110.39 156.445
51.684 64.5903 78.9026
27.8486 62.4528 78.7603
46.6236 94.0708 62.3398
46.932 92.4674 146.464
37.3661 168.123 75.9793
12.4127 102.533 66.0153
36.2798 103.589 109.152
14.1239 106.984 138.126
33.909 107.791 95.3548
19.3952 149.412 125.696
12.8449 140.98 123.479
45.6017 115.806 48.822
26.874 65.7692 120.055
13.3175 116.928 130.739
39.9672 160.666 66.0611
25.7491 111.159 51.723
15.0279 158.038 100.207
18.9014 84.64 71.7569
6.12582 3.40879 222.916
42.2201 104.548 76.2999
28.5949 108.861 93.3656
17.9572 111.024 79.1215
7.98263 108.412 126.554
48.5596 109.172 91.8993
57.9834 140.77 56.9504
25.461 138.269 140.667
8.38564 83.9442 106.582
8.20243 111.945 76.9759
10.0346 130.223 125.368
38.0281 165.943 134.558
19.8093 96.0844 93.064
45.1988 121.312 156.768
46.4525 78.489 123.938
30.5267 163.143 128.976
22.6076 169.385 93.8569
38.9217 109.378 97.5447
20.9829 97.0201 101.315
15.1203 123 74.1366
51.5373 81.2401 156.559
51.3229 151.561 144.386
45.3575 81.5622 157.036
7.54912 89.3297 101.345
31.5887 170.158 130.324
17.5632 111.344 140.72
5.98552 97.9812 98.7079
35.0175 112.782 51.8354
20.8457 155.06 93.7317
14.8568 101.548 80.1683
46.0842 60.3624 76.3681
41.1404 152.732 67.5598
34.9789 111.857 60.2105
23.4298 145.812 72.5742
19.3922 127.655 70.6767
25.7398 72.818 71.8952
16.1378 87.0063 130.303
25.077 155.336 74.4254
51.624 174.852 91.013
16.2672 86.303 100.792
49.0345 70.0854 118.08
30.4319 117.034 147.168
29.6058 124.253 148.682
52.9261 152.638 60.5051
17.6844 160.771 82.2177
5.78477 118.638 110.819
42.9567 168.832 78.0034
51.296 101.104 149.068
16.8497 161.327 120.799
42.9168 78.1408 73.7655
23.972 143.137 64.8591
46.7246 157.065 57.2682
23.3226 163.835 86.4879
9.99228 115.379 87.1516
53.3115 69.6039 67.8769
55.2877 74.3286 131.037
31.7204 125.882 69.842
11.5024 151.095 115.386
9.44888 112.984 96.8955
27.5432 60.2152 110.038
26.8574 92.6415 93.9832
25.7269 76.9564 128.675
19.9496 90.3779 90.7596
44.9117 72.2207 61.5219
12.5837 115.077 105.005
35.0486 150.015 144.046
17.0119 86.809 61.2218
24.1377 57.3908 112.245
44.6996 56.7516 113.637
16.0213 81.1392 106.987
32.8271 102.382 94.9006
13.1945 137.769 109.047
22.0049 107.688 143.388
52.6897 87.833 145.941
28.5665 94.4057 63.1466
26.942 84.1046 133.773
4.59499 99.7238 108.848
11.1671 109.195 102.945
26.5222 104.695 98.5269
30.7291 97.6854 82.5207
48.467 55.4543 116.981
39.0467 163.057 72.7042
14.0944 71.3178 117.245
25.8128 71.0871 63.742
22.6826 62.477 84.8168
49.6306 132.138 150.718
32.5878 102.106 82.5835
54.7472 187.267 114.261
10.8582 101.202 100.752
18.9967 124.659 137.801
55.2688 70.0167 142.735
13.9785 101.628 96.4828
17.0454 125.335 93.3172
25.8536 82.2453 77.9229
48.8524 172.983 127.828
19.8436 159.853 87.809
24.7407 162.346 131.28
40.7029 62.7642 130.943
24.1092 90.3444 83.8482
42.5529 116.433 60.8801
18.1041 138.413 137.812
34.107 168.738 90.0826
35.3061 175.709 121.051
44.6513 92.1753 124.041
16.6978 71.6879 124.282
32.9304 117.112 73.7691
26.9032 151.154 132.512
35.6965 83.969 52.263
13.6376 90.648 102.528
22.3551 149.445 68.0661
48.8349 94.7571 113.331
25.1591 60.8357 122.127
54.7799 80.147 146.397
31.7944 94.2866 121.389
40.885 94.4875 119.261
37.8745 153.622 58.3532
30.2645 162.672 81.4826
21.892 66.1877 122.07
73.9147 145.589 144.941
32.97 58.3191 122.319
38.0628 67.3564 73.9036
43.7677 126.306 151.414
37.0605 58.1398 86.509
47.2336 182.675 93.2859
17.5474 141.558 87.6813
51.8921 78.7972 124.532
41.0706 67.0286 68.5341
19.9182 76.1537 120.37
58.5247 156.033 142.797
50.2664 92.9002 75.6022
22.7798 109.818 85.0664
11.9459 74.2785 98.2263
57.7657 69.0903 76.7164
11.4408 104.098 77.0467
40.3813 131.043 51.4828
48.3615 124.793 44.5159
15.7059 94.5693 96.423
31.6701 76.6138 56.5899
67.2608 167.108 127.333
46.8756 85.9966 67.294
52.7745 127.985 47.0738
29.6271 126.793 57.1627
55.7061 103.836 90.2151
52.0239 165.471 135.701
41.1457 55.4748 102.386
49.0392 76.8506 53.7062
50.6105 63.5942 72.5917
56.1715 57.7973 114.978
19.1258 156.475 75.5853
22.6351 130.999 141.964
10.5994 105.09 84.1473
48.5741 170.777 74.9861
27.973 71.4214 136.804
14.4189 143.772 79.7892
34.3497 62.5132 119.788
46.2532 140.296 48.017
52.2152 138.583 146.706
24.9051 89.3303 58.5875
55.1166 70.148 121.543
52.3267 100.646 66.9136
44.48 62.7516 68.7846
5.65199 87.6212 105.369
38.1907 117.031 55.9032
50.1973 56.968 101.441
57.7709 110.504 148.457
50.2949 92.6561 152.434
34.0122 90.1526 76.3502
54.6789 65.0313 70.2682
29.2379 54.5643 102.218
16.7027 135.602 72.5033
16.5549 78.3591 75.252
48.1318 157.707 147.838
30.237 168.078 120.573
28.1142 93.2901 51.4668
54.436 56.231 121.675
34.1417 177.745 112.762
30.7348 58.0536 85.8826
31.7198 161.648 74.5848
24.035 154.046 81.8761
34.608 105.685 45.9572
54.6402 163.035 142.508
36.4496 169.022 84.1054
38.7004 191.329 63.459
36.0185 119.941 86.9549
41.4164 104.001 83.5284
21.5873 60.1529 103.392
60.2338 174.461 82.683
20.5845 62.0829 93.6349
12.149 153.936 119.647
35.1103 111.91 88.0569
46.5647 122.196 49.0168
44.8799 176.754 89.2706
10.4529 110.878 121.674
42.1443 51.2627 93.9435
46.4453 158.565 100.726
31.915 143.536 90.1339
16.332 101.539 133.901
11.8309 129.854 119.995
30.2338 65.4064 71.885
37.6998 55.0242 121.866
35.0295 130.987 149.382
22.7545 130.367 92.4637
39.6819 73.5926 72.0872
53.5838 148.565 51.6367
56.628 61.6468 98.2743
32.6069 171.566 79.0701
58.8937 166.295 132.808
51.7807 121.078 154.886
40.6364 56.6728 91.9451
12.1719 139.001 86.2281
48.9391 102.141 90.5315
37.8393 120.001 125.489
38.901 118.029 74.9778
24.4476 75.8656 68.1087
8.28329 203.274 4.92526
49.3886 164.543 121.853
35.2769 180.101 105.932
53.0499 59.2612 108.393
57.3514 131.132 153.064
50.9913 67.6621 125.506
42.6054 98.9979 113.884
47.5612 121.788 54.8952
72.7594 64.1438 81.1672
49.8429 74.143 68.0631
60.733 59.7439 120.833
59.4081 131.15 48.2104
36.6261 174.564 107.373
42.0101 163.051 93.8191
28.9071 117.737 114.081
60.0589 63.8723 75.1277
55.8123 55.8183 97.7804
42.09 105.318 132.22
47.6353 52.7208 106.037
21.687 165.765 116.305
35.99 161.912 122.209
53.0535 112.733 147.694
54.9498 76.7517 55.4089
57.4613 139.471 153.372
46.4205 114.977 95.274
12.7263 112.943 109.781
55.9018 71.7794 57.4561
17.9544 130.739 93.2732
52.1825 133.828 50.5658
34.2492 141.354 107.022
44.7747 96.6605 82.7973
68.5054 65.5049 113.744
42.5453 57.1144 74.5887
46.0157 77.8369 61.7936
50.5666 62.5762 119.632
66.1728 73.2567 68.1281
46.1644 56.005 85.4724
67.3633 178.183 82.878
36.55 51.887 102.021
53.9574 58.7174 82.2383
25.6392 103.421 111.462
21.8152 75.3875 135.045
52.9226 123.545 54.201
55.7244 65.4074 113.591
32.3214 133.197 56.8181
33.8563 56.2967 94.3124
46.4966 105.638 150.822
53.1953 143.089 50.6776
39.4925 66.5722 62.8781
10.1608 96.5189 94.2234
26.1931 61.3398 87.5918
64.5467 121.036 155.294
56.8521 93.0901 145.219
64.3399 142.079 47.9364
53.186 52.1715 94.7044
22.4036 123.729 91.8497
57.6159 165.109 66.7339
