ply
format ascii 1.0
comment Created by Open3D
element vertex 1649
property double x
property double y
property double z
end_header
49.6165 118.57 118.178
19.9719 46.1343 222.593
21.6294 69.6077 328.027
20.6152 102.268 230.981
21.551 80.0932 261.853
20.6368 231.043 108.911
52.736 126.728 104.8
24.3305 81.3075 83.0115
27.7375 189.188 178.287
18.4953 252.652 260.562
30.4644 144.132 236.329
19.5296 229.188 119.955
22.9025 366.341 175.132
30.48 349.753 194.786
63.1928 256.284 232.979
15.7387 103.776 39.1382
30.6305 98.652 209.88
24.429 170.938 247.832
45.1301 19.4315 225.913
15.642 125.166 90.1948
29.755 159.781 154.556
29.131 59.2057 330.799
52.5618 96.0741 134.542
39.204 211.162 120.63
18.2661 220.412 110.553
42.0638 349.754 312.038
41.1886 355.316 182.265
41.5848 147.16 85.5395
27.7159 268.909 277.846
39.0199 164.858 259.689
52.8308 329.732 316.953
15.7014 93.4969 62.3705
59.897 110.474 270.744
20.7214 92.5099 229.174
46.3198 294.894 252.379
31.3946 90.0029 196.177
32.043 155.099 163.795
55.6676 128.527 213.943
54.5219 157.147 94.5602
15.4499 135.335 50.2764
15.8048 102.506 54.0361
54.1355 155.943 111.274
32.7017 135.049 199.538
53.0446 330.522 329.866
38.1935 161.789 241.437
27.1195 106.899 111.689
14.9314 127.742 58.6181
40.3523 115.822 77.6166
59.0865 31.8731 359.196
30.3626 14.8577 146.693
65.3919 105.254 178.925
18.0122 165.519 240.721
36.0073 190.371 283.536
53.5684 111.464 93.7604
53.5014 163.127 105.04
75.8445 93.0146 122.311
22.8453 173.261 241.775
16.3248 174.91 54.9327
56.8099 134.626 201.372
51.6576 239.686 332.647
51.1198 222.311 307.224
42.3255 157.366 73.6658
19.3793 245.195 275.835
36.7072 5.36247 156.499
28.1306 133.113 247.667
17.6657 117.724 106.272
15.3957 97.0115 75.3092
50.8804 139.571 205.589
54.2901 70.3386 73.2236
28.062 275.953 272.677
19.3206 307.283 279.239
15.6772 106.361 71.2963
19.5915 248.101 293.919
67.2399 89.4818 42.0512
31.0083 328.957 329.106
40.8456 56.9409 248.576
27.7506 312.107 248.139
28.9168 196.236 110.883
32.457 29.4884 273.985
18.4743 179.305 259.014
15.069 140.38 247.03
26.9849 260.899 282.36
46.3838 62.473 266.156
43.6073 111.86 120.552
50.6792 109.132 175.243
43.9613 113.423 58.6953
62.729 82.8244 48.0976
24.4461 108.154 222.905
15.8595 281.659 256.851
28.4682 107.555 214.843
45.3362 327.7 238.722
23.0565 87.8649 237.191
19.1749 37.0385 212.793
15.8362 158.566 50.3819
43.4973 122.415 62.9436
37.3154 154.028 276.478
28.273 188.871 153.681
45.2474 241.779 280.275
15.3803 28.1488 232.305
29.878 303.102 241.975
18.459 137.957 100.298
33.096 282.447 286.993
39.8364 211.189 148.204
22.3478 196.245 112.626
47.3041 175.193 212.527
41.4001 60.0691 292.301
18.8743 235.101 277.558
22.452 138.296 272.478
53.961 289.348 238.79
17.512 103.559 96.0449
53.773 152.011 101.808
39.9227 349.821 190.404
33.1845 237.816 112.579
34.3877 167.965 362.669
42.9651 142.813 364.204
20.1595 161.033 253.257
29.1393 27.6214 221.658
34.9021 64.6099 362.049
20.8942 176.783 351.791
15.824 141.745 76.1341
21.0314 208.349 112.048
56.7325 112.406 103.402
21.4704 110.094 205.318
16.7731 168.721 309.884
37.2239 74.585 310.498
19.1202 241.01 264.497
57.602 112.524 223.852
26.5191 93.1246 215.634
26.3085 196.335 151.087
18.2121 274.723 264.587
18.9847 211.834 137.173
26.1196 58.6388 230.898
16.9348 265.369 269.4
36.5793 104.268 146.229
77.1148 84.5963 203.554
27.0387 121.97 291.924
17.5576 150.24 272.899
38.481 180.254 150.569
30.916 168.172 349.776
37.6965 334.354 336.745
15.2656 129.275 252.534
41.9803 37.6175 284.572
21.2814 223.281 94.3914
72.3809 227.13 287.519
18.0488 126.809 114.771
42.3999 50.555 267.134
26.301 199.031 142.165
17.2448 125.068 101.808
16.7149 282.352 273.285
45.5513 156.98 81.9249
36.2235 114.109 193.697
28.3806 260.716 269.648
38.893 221.773 125.41
43.2293 110.959 141.936
38.3703 49.0906 253.324
39.6898 160.66 65.6151
58.7794 103.81 100.955
14.7807 114.407 80.4897
45.2692 286.256 328.939
16.629 263.98 287.633
26.9141 326.7 226.665
20.9634 108.081 239.917
60.5311 79.0874 71.7118
16.0398 173.465 78.1146
39.2917 128.764 270.073
34.3953 120.895 226.385
14.8898 124.772 79.061
32.5281 189.72 147.021
16.1334 167.302 43.8085
19.4898 263.601 262.073
22.2214 202.587 135.836
35.6529 266.806 254.333
23.4424 168.501 258.619
39.4508 225.626 307.307
46.759 296.313 302.639
33.1103 21.9335 233.886
18.862 96.967 247.545
16.5321 274.606 307.218
30.1956 49.5614 262.538
16.7014 119.077 252.696
39.9975 151.965 362.472
20.8829 159.236 321.723
18.3317 10.0177 145.922
29.3739 197.119 187.343
56.3085 83.8096 94.3166
26.6394 182.876 170.276
20.0762 85.2824 242.63
40.9294 304.856 263.927
46.4765 349.041 325.128
27.5133 32.3943 255.069
20.7398 116.998 259.117
20.8714 98.1912 299.879
24.7742 3.35128 159.799
20.0806 358.978 192.262
33.9767 323.182 267.593
17.5496 355.888 292.897
69.1328 224.097 300.45
30.4345 176.073 353.636
53.2384 172.825 88.0909
35.2104 87.3114 106.711
15.7326 135.476 92.4619
14.672 146.275 66.5489
48.8017 65.3837 285.87
14.7008 116.48 62.0412
41.222 175.926 249.182
24.3204 334.961 255.519
45.4222 341.348 246.511
42.7569 232.401 336.259
32.1991 35.6746 268.114
41.2155 226.516 97.8424
35.0054 239.004 103.808
35.6459 322.508 324.942
31.1823 264.084 262.152
24.0769 92.0044 96.4982
18.314 134.973 26.126
32.0176 143.392 249.191
22.4589 342.57 330.595
22.0878 122.7 222.18
19.0599 52.8343 200.137
48.7561 49.8136 267.402
27.4125 163.89 164.853
29.7658 306.333 309.526
38.2404 356.078 200.093
39.8513 331.328 295.88
62.9964 176.34 125.655
33.5405 73.8135 69.0918
36.0468 173.132 317.716
37.2122 155.175 262.068
37.8955 93.1315 273.072
15.3005 166.265 59.6068
21.5661 256.978 250.411
45.5167 317.262 270.92
24.8685 93.2433 322.846
30.7383 355.082 178.315
40.3257 274.195 306.14
18.0056 175.398 320.643
19.5951 167.103 325.11
40.6683 41.5017 360.32
17.5884 3.11486 320.874
17.4049 107.489 194.083
20.6723 162.219 158.267
42.6624 366.376 189.991
34.716 150.947 246.345
15.2867 162.173 74.5447
42.1499 260.814 309.93
52.144 180.429 115.567
25.0213 106.185 258.836
36.0017 281.36 297.128
14.9828 131.854 71.4007
15.9516 78.0157 297.111
14.9642 118.542 47.5257
57.2672 262.989 322.74
48.6399 36.0006 231.973
62.6658 238.537 294.287
19.8333 218.547 141.642
16.8016 158.186 36.5337
55.4764 31.5459 267.339
28.9546 24.5944 252.258
16.3936 149.978 95.608
55.0851 211.42 155.145
77.9756 79.7992 212.837
20.6161 341.711 318.086
46.9302 142.112 212.575
42.3448 49.8757 355.82
17.7203 119.31 242.938
53.0533 135.441 183.4
52.2333 8.43604 123.127
19.7138 222.032 158.965
30.9514 109.122 192.987
20.3876 364.746 185.968
18.244 353.004 305.728
36.4973 146.07 272.487
19.2098 172.05 361.776
31.4549 74.1115 208.469
16.8078 142.006 86.3836
35.6546 201.202 273.274
30.3234 73.9387 269.566
42.1513 248.998 294.949
67.0866 235.771 302.719
30.1647 270.284 291.009
78.7675 97.7621 198.425
32.2519 233.861 122.155
72.0305 113.984 17.6324
38.1201 73.5644 239.545
39.839 363.369 198.287
37.9202 345.629 284.861
40.2625 270.131 311.957
35.7398 175.687 59.5444
28.8196 272.674 263.584
35.108 10.7828 125.33
29.809 199.937 133.883
29.1856 209.142 283.489
75.2761 103.536 126.651
28.246 185.188 161.307
34.5258 139.977 69.0044
36.9082 158.251 247.483
35.078 291.679 285.318
46.8528 76.7093 52.6283
19.31 248.709 306.091
38.6368 20.6915 28.8474
38.5282 232.833 117.059
58.1124 206.032 160.102
52.8969 261.807 242.678
25.923 129.72 208.46
30.2408 197.848 123.863
36.3782 130.653 47.9761
27.1098 43.0934 267.666
34.0663 201.576 283.284
34.0693 223.124 144.209
14.3503 9.20816 37.6724
18.0108 88.5969 73.5364
42.5241 197.329 82.5046
33.6114 74.3856 193.55
15.7453 160.276 64.0768
18.4241 262.89 308.044
26.4393 80.6332 236.597
39.6328 349.642 323.269
43.0817 101.762 134.411
37.2441 208.893 136.321
30.8408 113.18 209.331
36.9461 195.952 186.773
26.9422 349.721 314.591
15.3708 112.171 96.5845
63.7609 170.179 171.75
14.8717 146.298 41.1927
26.2712 87.0895 259.435
36.2018 192.368 273.543
52.996 242.649 288.534
23.2821 106.154 286.63
22.659 130.977 224.614
60.9455 102.428 309.799
57.4347 105.734 250.995
68.7547 235.515 287.086
40.0482 301.951 273.763
20.8668 213.285 117.211
42.6906 150.446 74.9593
53.7716 164.87 91.6134
19.1834 363.723 197.651
62.3645 88.1049 292.066
16.3534 134.944 240.403
38.9944 58.8735 357.003
34.0577 134.049 70.7002
24.3993 99.1407 220.804
67.3828 184.132 177.102
37.8973 41.6695 292.015
44.5522 207.336 152.386
36.953 114.175 127.764
20.8383 331.492 239.356
18.6941 154.09 22.4825
53.7204 182.564 124.817
33.0555 252.999 264.112
25.7778 33.2691 268.372
44.2935 178.853 34.8723
18.1072 148.553 227.669
50.6372 240.55 257.595
17.5466 63.5825 199.995
65.8691 241.48 239.735
37.5453 23.8849 227.142
30.6862 101.305 31.1036
56.126 175.283 179.122
36.6261 124.052 60.7362
21.9804 333.359 332.444
46.1226 167.467 61.761
48.617 159.071 89.2836
22.1132 36.2361 224.35
30.6638 77.8828 324.016
21.4767 62.4233 209.117
16.0245 152.491 87.6643
29.5162 122.149 202.882
27.4019 173.933 235.886
31.2168 81.2335 338.446
39.4493 68.3705 69.5272
16.7362 156.763 266.452
49.9688 77.9787 266.791
51.1053 126.126 309.366
39.3823 20.1479 234.743
20.36 123.082 233.611
41.3521 68.2109 303.254
41.1651 80.4604 266.404
30.0578 86.4072 311.764
23.0643 352.538 191.314
37.225 51.4591 363.135
40.1186 220.224 118.577
56.4166 280.689 234.361
66.6914 233.565 247.575
42.8215 83.4472 298.697
27.5505 322.803 235.905
16.6363 145.352 30.3697
44.5587 20.3735 249.763
37.396 152.914 229.463
48.8809 210.814 162.16
30.9933 291.976 265.6
36.7751 92.4205 287.52
31.1598 75.4963 79.9315
29.5906 122.834 243.03
24.6552 18.9608 232.942
24.6163 11.0681 154.802
37.7108 132.504 78.7487
15.0481 148.771 53.1231
40.905 54.8812 187.268
36.0681 352.297 314.557
57.3451 74.8064 191.479
18.5049 222.866 126.127
59.0343 63.7873 265.991
54.1161 35.8675 284.62
21.0733 111.095 294.309
23.6019 85.3043 311.865
50.7927 163.269 200.454
53.9454 49.3757 250.391
41.9038 324.049 248.202
15.5947 125.109 39.2566
30.3944 117.009 313.116
41.0901 231.892 106.736
45.8416 219.481 103.729
30.7924 354.791 289.424
38.7896 299.929 281.529
46.4657 314.768 251.49
50.4519 142.535 103.993
21.2217 203.932 150.183
28.7998 89.8341 265.027
48.3028 86.4027 276.476
30.3605 66.8807 209.247
64.5872 233.068 314.837
21.0449 79.5858 230.196
50.3006 254.397 226.29
39.0534 248.401 284.2
41.5779 213.747 177.007
33.7383 162.319 318.132
44.5931 187.841 92.9348
41.1962 98.1544 282.681
33.3333 203.71 81.0099
18.3316 166.833 349.517
34.3447 175.178 166.419
28.8607 158.85 217.48
31.8093 178.936 244.981
36.182 78.0865 189.175
26.5009 113.862 275.317
16.4055 154.111 257.919
21.7731 157.512 166.852
26.9842 156.265 281.366
54.3713 119.136 99.3646
24.9553 169.006 268.831
23.7295 198.875 128.274
16.8035 292.313 288.124
27.1234 96.0931 285.922
41.81 114.982 192.736
56.5117 251.148 246.992
46.2446 71.8295 293.931
21.8796 94.4952 280.55
33.702 177.033 228.374
30.0223 138.553 252.767
67.6999 64.7393 239.866
15.0498 88.9477 283.568
33.2797 257.874 295.733
53.2472 49.4394 280.334
35.8628 262.829 303.537
23.6187 166.785 234.864
20.3499 217.838 167.899
43.5866 56.7434 260.605
31.6116 253.603 272.423
14.6871 151.73 248.696
30.8401 170.36 270.616
20.8541 155.855 228.806
58.7774 106.465 278.404
57.2864 88.6944 121.499
28.0006 21.8505 226.609
26.4843 161.72 307.798
23.372 153.948 276.118
54.4574 207.743 95.4707
17.3283 230.107 101.928
28.5278 133.165 283.156
48.0172 210.577 169.894
38.082 252.084 258.051
15.3893 214.84 102.968
17.9246 330.714 316.385
31.85 144.512 207.457
37.7376 141.816 278.845
34.2218 26.8868 18.6648
37.8785 9.60138 148.374
28.0212 212.335 85.9092
40.3128 362.112 177.432
19.6963 296.084 309.074
22.1115 45.7044 20.7202
39.2487 35.7153 271.107
52.6288 43.1224 298.851
59.0738 237.578 257.103
58.714 235.026 265.664
47.6552 127.737 279.491
19.0038 128.525 238.641
30.1777 139.673 259.53
50.462 95.7552 287.078
40.8982 122.324 261.13
25.4579 51.5983 225.219
49.2556 163.661 207.794
43.4655 228.145 313.355
61.7295 58.1522 299.86
30.1709 287.186 275.447
19.1544 78.0568 275.865
43.8453 82.5062 48.7131
31.0405 76.6759 311.473
63.9092 194.055 135.852
27.2906 115.152 222.483
36.8805 4.95027 116.051
40.4264 113.564 231.876
29.7103 285.284 235.899
34 136.865 268.009
65.9971 87.4571 65.3914
43.3516 221.384 110.028
42.9141 110.169 247.481
50.7017 78.5783 201.76
44.8049 90.8445 282.803
33.0558 74.5766 218.63
45.7204 63.9654 278.646
73.7345 90.0729 130.851
40.5307 152.589 58.2356
21.9091 347.517 288.293
40.9152 64.8137 226.255
45.983 175.193 145.389
54.8866 23.1071 246.279
28.7889 91.7775 279.283
19.389 326.996 309.337
35.6225 61.0659 301.942
43.599 78.6969 201.702
27.5064 163.277 225.601
25.384 355.538 201.186
31.4787 64.3426 321.9
15.1148 120.724 261.818
15.763 140.419 261.495
44.452 284.567 307.464
25.0035 323.507 247.869
22.7556 171.999 305.657
29.07 222.253 294.175
39.9738 172.135 174.729
53.3576 318.691 317.627
54.4304 37.4003 238.08
17.9834 86.5424 57.9336
49.5912 307.181 299.556
48.927 263.857 317.928
57.7934 238.494 274.276
23.7428 86.1379 218.5
34.3687 251.67 279.656
46.0355 84.1434 312.338
39.64 160.761 231.505
56.6384 77.4503 266.638
40.9447 184.842 103.614
45.8936 123.871 271.272
59.4099 118.191 14.2505
26.8007 53.7559 237.447
48.2117 39.403 275.111
38.7817 50.0008 192.17
57.7906 227.363 315.235
20.2195 104.768 249.182
33.9876 184.406 151.919
38.2263 245.362 271.637
33.0431 87.4503 40.4955
27.6912 74.294 60.4888
35.205 115.28 242.821
36.5811 94.5127 138.119
35.3231 197.554 83.7926
37.7343 90.8932 198.98
34.023 127.299 25.7388
42.1929 27.877 222.121
17.3222 335.016 326.026
25.4713 35.5851 210.255
52.1336 110.373 256.869
34.6086 181.311 237.075
31.5508 106.555 116.205
43.3498 78.8587 304.916
21.993 91.254 255.517
54.2688 137.205 210.289
32.1209 73.7467 365.023
16.0095 199.793 166.714
28.9397 92.4083 187.426
21.8937 46.1135 231.8
28.0096 106.298 292.47
30.8509 130.359 259.915
39.7784 256.656 251.188
24.9951 161.291 359.6
42.5155 181.964 232.819
56.7252 125.18 205.235
17.5714 83.8778 303.857
66.6455 217.14 267.507
25.538 207.532 98.6273
49.5195 133.671 105.479
52.559 100.163 71.1213
49.8835 43.0091 289.198
48.9515 77.6269 281.567
51.9119 99.3079 122.251
45.4873 66.0024 259.265
58.7567 111.936 119.51
24.3373 119.436 231.704
49.4477 70.3416 193.975
15.7878 121.649 33.278
17.2458 159.591 235.404
54.4959 43.9637 201.329
56.9072 195.146 116.332
52.0674 104.031 53.5194
19.8974 291.533 252.757
40.5739 203.808 124.757
45.5428 219.846 96.9182
20.3783 45.3049 238.422
32.532 56.4002 233.895
32.6291 225.935 76.6896
53.0465 45.2514 211.833
41.4765 131.366 220.223
38.3338 66.3514 206.756
18.015 338.581 248.612
45.245 239.127 269.172
46.7127 4.13893 115.176
60.8983 59.7172 255.339
61.815 104.767 138.168
41.161 103.308 117.277
35.2467 81.0181 47.8392
47.7648 236.894 343.687
57.9575 178.531 118.866
31.2651 126.155 231.866
64.277 82.796 199.703
27.8843 48.9807 245.903
35.5324 121.447 119.619
15.894 11.1098 13.5997
31.9263 167.472 306.62
44.0508 153.762 217.251
31.7527 97.212 273.057
28.2837 133.542 234.125
21.9531 111.679 110.295
23.1686 78.2993 67.6318
25.4258 154.32 363.411
43.921 131.499 185.723
28.2511 104.405 270.953
57.598 102.295 49.4247
17.8155 283.521 313.462
25.055 309.52 262.314
53.4143 61.1999 270.455
24.9284 335.91 305.864
48.8079 168.298 46.0249
14.974 149.442 235.006
61.3584 94.8972 56.1387
28.3632 227.094 150.403
41.4746 86.8723 320.097
58.8122 42.9003 361.955
36.6859 138.395 192.425
58.4392 104.754 179.234
43.9693 109.33 236.561
28.1551 59.1461 218.715
20.5667 156.376 312.702
34.4333 79.9755 264.256
14.4315 78.7641 278.352
35.9825 192.084 126.313
36.4714 51.4954 265.581
34.5324 55.4667 297.807
45.0589 182.994 144.221
43.2931 127.427 91.9033
33.4528 67.5651 244.796
38.7208 189.661 140.503
30.4855 130.412 118.953
53.6003 167.49 19.5414
42.9002 66.2496 246.655
29.3884 259.564 237.697
46.8946 178.337 223.858
78.207 183.423 124.397
52.2928 119.809 280.756
48.8424 111.341 224.324
45.9985 331.241 300.277
39.3896 72.4934 267.993
35.0492 274.126 252.7
46.023 209.123 72.8807
51.4469 150.96 117.914
41.51 243.915 263.263
43.0253 75.4107 262.003
35.9854 264.712 233.836
34.3165 144.294 263.581
49.7614 322.666 306.641
34.3689 193.954 136.395
40.8586 156.575 115.544
28.3655 203.39 117.616
43.2287 193.145 187.78
58.1444 268.423 232.796
55.1984 73.8338 55.8439
44.5915 349.748 299.766
33.8358 212.719 87.115
14.9652 23.4871 21.1286
22.2127 3.3858 309.556
24.3851 205.827 86.5424
17.6868 120.981 25.7815
18.898 4.25452 182.56
17.7057 94.3616 48.1657
38.5964 113.865 185.188
18.1948 57.4092 283.813
32.2121 126.793 195.207
33.791 341.059 337.907
73.1765 88.4885 113.302
25.0584 44.401 203.256
32.0925 217.791 79.7222
39.3255 84.3523 332.303
43.0563 145.131 218.683
72.8083 102.735 119.119
34.2723 35.2169 227.834
29.5608 34.0289 17.8802
45.8927 120.3 30.2013
57.0792 36.5995 231.512
65.0763 118.8 221.183
55.9262 92.322 320.529
38.3682 254.447 235.83
28.4636 63.7765 274.887
28.6316 106.32 141.886
41.0271 107.633 286.086
17.4576 95.2647 238.161
47.6662 55.8077 253.817
42.4199 120.689 214.37
58.1489 100.022 235.235
44.596 133.607 288.203
40.8412 120.679 49.2987
55.191 103.929 229.835
38.6598 115.125 248.704
19.9284 56.2879 297.344
38.4356 354.235 304.278
54.3408 61.1752 363.509
73.7006 101.13 279.356
32.9535 151.988 235.254
59.1627 66.7795 296.492
27.0488 34.3204 218.963
48.649 318.335 324.901
63.3335 105.505 294.253
23.6849 48.2993 271.699
66.4264 70.3671 211.12
46.4037 51.4534 309.229
30.3464 104.469 329.135
25.1537 244.136 249.687
20.9197 81.9113 252.804
20.7902 209.596 145.022
60.7236 48.0688 310.411
36.5137 367.366 149.165
38.0713 70.0774 181.504
61.0722 176.339 109.398
25.9863 339.032 294.26
22.0743 303.52 260.556
45.4785 303.952 252.419
18.6301 68.9232 306.126
19.0417 330.543 248.936
27.7509 254.574 243.929
24.8388 230.882 129.37
41.0529 189.599 130.16
48.9541 204.314 102.567
22.1248 197.443 176.532
30.1063 3.7334 314.266
67.0507 253.62 305.153
31.2678 113.388 134.041
38.0471 293.313 233.642
20.4527 30.3094 10.8039
23.213 177.558 59.744
67.688 181.337 102.075
44.682 202.255 187.253
33.0644 321.54 280.223
62.4359 217.797 74.6887
36.1129 190.174 106.718
29.6778 191.512 288.974
27.3856 151.804 114.838
30.9806 82.9722 214.659
75.5502 174.3 112.538
52.0522 119.636 272.709
50.5152 300.427 233.428
23.1857 58.8087 259.123
22.739 234.409 95.3164
17.3381 162.751 97.8149
65.8182 93.7801 194.324
47.3263 112.998 184.539
17.9327 99.6339 319.852
34.4435 240.432 248.637
54.1683 338.157 322.129
53.713 79.8198 50.5244
49.0069 4.01591 131.559
20.4932 202.354 97.039
45.7805 144.579 23.3168
28.8218 317.025 260.278
34.2429 169.032 277.873
31.8915 275.157 235.473
53.2878 39.5819 278.755
51.8692 340.67 329.473
27.71 175.225 34.54
26.9468 41.6678 292.672
35.1469 83.2451 192.88
25.7335 202.718 180.894
23.0665 67.5817 269.938
33.4559 194.899 116.398
49.8141 44.4573 307.339
29.1647 366.239 150.422
22.0654 72.8185 263.945
50.0226 102.976 296.652
56.2345 98.6547 59.6122
33.2617 47.1696 269.84
21.7672 50.0024 265.448
45.0875 141.892 95.2547
91.0807 66.1104 299.628
47.3666 68.4239 354.797
28.6836 123.636 280.535
20.4889 219.871 148.724
24.6336 314.215 288.503
25.0826 77.7495 244.594
21.2232 44.7885 245.928
42.2909 117.665 255.103
37.6593 167.397 271.249
35.1826 103.494 289.381
18.8629 93.1006 35.7766
16.4789 104.827 303.651
35.5145 345.347 254.718
20.1595 211.543 173.968
56.4439 81.8975 198.409
16.3366 115.268 312.549
44.3754 174.762 240.7
48.7997 218.316 285.424
52.5556 128.274 117.187
32.6443 146.57 16.5555
19.0743 72.2456 292.225
41.3216 99.5105 202.456
66.1692 135.956 20.951
20.3326 189.468 284.266
44.7165 136.193 37.8523
53.1425 253.098 315.389
19.5699 218.902 120.568
37.8907 167.353 105.574
37.6483 131.77 258.575
27.1456 74.9977 198.98
54.1057 23.5332 359.723
30.8917 237.244 95.3591
55.2976 48.4984 265.804
35.7079 72.3758 59.0123
59.4845 92.3108 79.5885
63.6374 98.311 296.786
36.7569 147.567 253.913
37.4181 100.427 331.538
62.8666 234.336 283.409
50.5629 32.8769 210.317
44.1792 157.871 37.3731
55.4641 179.838 133.655
56.1725 44.9575 242.346
56.5722 64.8096 281.38
34.6987 23.0444 241.685
33.6021 154.77 209.533
50.0911 152.032 203.832
59.3338 248.415 308.749
48.7977 167.432 78.443
64.6119 96.5146 236.906
47.6138 51.8285 280.084
30.1378 180.345 316.153
43.8102 66.4841 182.476
70.7803 102.676 135.047
23.7609 10.348 134.681
68.2244 194.875 123.046
59.5138 216.814 303.778
21.7387 274.535 290.224
71.1181 246.228 298.281
31.5152 233.325 85.9378
48.3291 196.433 133.748
36.2774 154.407 253.782
67.4319 201.982 105.643
47.2675 111.159 47.1422
21.8305 191.942 157.598
47.862 113.6 192.242
46.0931 130.048 209.235
57.4149 101.345 173.068
31.5698 43.6157 257.939
64.0689 85.6148 113.826
19.5514 205.145 171.968
42.2033 137.485 220.253
21.3022 99.5018 206.897
59.3886 94.916 71.5539
32.5754 33.4847 285.674
23.6239 152.867 158.718
54.4994 169.82 99.6186
22.8633 326.129 324.989
35.8708 84.3037 209.207
33.4028 330.874 302.746
33.96 83.6817 202.066
24.3661 98.5502 257.765
43.9536 340.004 252.378
18.1909 215.04 154.531
63.0328 88.7786 72.1171
57.1112 84.4702 174.765
55.1203 96.8636 242.656
20.9738 31.7871 244.126
72.2593 172.537 120.231
76.8297 59.3501 218.705
53.7309 105.63 285.622
54.8103 235.86 280.422
37.6108 75.3414 365.04
46.0731 93.9737 110.778
31.0162 170.545 23.6345
47.1728 94.7391 293.628
54.5701 179.169 54.9093
16.6508 167.507 92.1214
38.711 285.136 302.741
42.6431 298.608 291.347
16.5799 99.5625 292.543
36.3308 19.1608 251.667
44.5488 119.416 86.847
62.3927 74.7267 202.036
44.5784 323.447 283.537
40.3785 85.4105 280.421
61.9307 169.647 153.305
28.2942 345.636 284.249
21.4518 310.618 112.444
49.3273 70.5265 306.358
66.6552 97.5507 261.828
76.9223 84.3873 234.5
44.9681 320.654 260.883
22.5953 100.953 194.505
35.7695 161.225 164.33
16.13 262.144 301.075
19.3858 342.927 301.53
38.7216 118.528 234.647
55.7923 167.641 170.45
25.8914 137.616 13.6402
51.4581 24.6873 255.352
43.1493 36.775 222.893
57.5132 148.737 194.887
28.6321 174.37 257.48
34.0534 85.5053 278.202
43.8296 102.368 38.468
23.3357 130.654 270.103
35.165 53.5626 239.819
36.8915 147.445 288.067
24.8953 316.67 315.229
30.9513 173.611 67.7171
27.4115 68.5838 365.25
37.1302 262.201 321.899
54.5158 271.905 321.281
30.9261 133.253 291.052
54.6072 172.561 144.785
48.0147 59.4085 353.088
24.6643 238.174 110.89
44.913 57.3115 206.575
19.2363 199.578 275.157
69.0276 65.1725 254.286
18.129 106.996 30.4181
37.2084 124.873 68.1804
23.6162 81.026 49.4164
45.2696 183.249 107.756
24.307 140.16 225.925
41.1288 154.868 223.376
39.4471 55.6001 285.204
39.2275 172.486 160.018
34.0724 178.596 176.006
50.6818 221.341 86.977
64.1322 125.458 205.648
52.1587 196.992 142.045
26.0599 242.277 312.903
32.5302 364.966 171.9
63.4491 198.846 166.497
46.7621 340.253 303.708
26.0788 114.529 286.533
46.7817 202.513 142.424
22.3298 298.748 249.578
47.0989 344.464 313.832
41.2049 107.251 228.594
19.9423 143.183 362.134
52.6429 218.526 295.63
70.899 188.084 170.55
22.7919 265.874 248.573
37.8271 299.534 319.858
16.0125 272.681 287.785
24.5513 76.7693 312.325
24.2498 76.3046 280.481
35.469 60.5339 219.587
42.6244 219.338 71.636
25.4009 113.931 319.914
31.7001 315.243 317.019
18.0409 216.798 130.797
26.9998 53.5207 299.105
41.7513 128.381 121.45
35.2015 91.6568 183.087
58.1584 196.565 146.483
47.8262 184.839 128.501
64.8702 176.716 114.111
35.6789 125.116 286.85
46.8543 207.865 181.982
27.9507 176.473 325.762
21.9753 94.7593 104.267
55.0023 337.096 314.554
66.4064 56.0233 253.567
67.5725 109.415 122.905
33.1075 32.6955 207.503
42.81 233.698 91.3296
29.3502 366.408 202.949
51.6076 72.2357 361.58
50.6299 67.7203 249.262
41.5872 61.84 204.624
43.8077 135.628 90.7636
28.1028 98.1394 193.721
31.3558 162.837 15.1121
60.921 194.027 125.682
59.5554 58.8958 246.781
35.8583 177.999 259.563
40.1075 345.216 335.543
40.7058 150.465 282.776
24.9083 324.781 306.62
75.4076 186.269 134.111
36.8278 107.41 116.31
73.8027 182.693 142.621
47.1502 183.168 76.7849
44.9956 85.1341 270.925
50.2913 226.98 262.261
35.8717 3.55146 142.027
68.136 45.5844 277.266
35.9574 155.594 15.3936
52.9797 177 75.8846
69.3534 225.239 257.172
37.8543 286.001 229.355
38.8332 337.631 234.054
20.4066 120.229 18.2114
22.2354 89.1961 87.0263
17.2995 39.821 230.36
34.6022 136.027 223.161
38.826 270.784 326.827
37.788 173.737 214.391
23.4557 68.1296 252.804
25.6978 45.1969 194.913
56.0064 220.64 83.9213
32.1649 50.4727 255.938
19.2617 214.702 90.5719
36.1898 189.642 99.9137
61.3992 216.784 83.9424
70.5419 181.764 160.358
50.1672 282.038 314.276
41.5331 313.49 314.136
33.9791 98.3543 109.33
30.0393 71.7808 235.958
23.6228 177.013 43.5314
17.814 128.074 260.108
15.5956 61.4324 290.944
70.5163 56.3946 194.176
38.7514 118.903 310.237
29.1638 75.3915 240.546
44.5675 29.4079 267.455
62.4678 98.3362 48.0919
66.5555 125.589 212.675
40.0868 209.176 107.64
61.586 91.4509 178.769
35.3354 215.705 142.291
24.3077 3.43316 341.465
30.7825 176.897 307.569
25.0502 229.119 140.082
20.9581 285.894 244.783
51.3866 90.5188 172.289
30.0766 174.124 84.7581
38.1876 126.882 75.0444
56.654 115.73 273.648
17.9195 171.575 30.7071
65.6392 69.4519 270.89
31.576 348.743 332.779
38.4224 145.48 61.3031
50.1187 105.305 116.497
48.7895 64.1083 213.221
24.6751 105.749 23.228
34.301 57.8716 226.872
66.4008 73.446 248.367
46.1443 165.266 220.917
19.1707 220 100.346
45.8324 177.469 25.8991
41.81 27.1755 359.886
19.4466 200.914 156.249
41.9029 42.3134 199.376
26.3299 267.885 240.404
43.3164 66.7258 74.8967
32.8432 106.054 206.101
73.6815 91.6339 229.709
72.894 173.843 136.852
55.8144 75.3968 305.767
21.8627 75.3543 235.122
48.4693 72.4753 61.3706
52.9537 70.2482 271.791
69.8888 71.1423 236.626
32.9172 70.4112 250.076
39.5237 330.671 257.073
47.1582 43.3233 256.222
56.7122 139.142 19.9273
41.9516 64.4056 219.632
29.9368 231.098 262.132
61.4023 112.664 307.8
41.3769 316.217 323.691
42.9341 123.018 287.066
50.2356 113.777 292.566
35.2492 357.003 294.391
28.3443 98.0663 294.671
24.4984 198.913 92.1947
54.512 276.255 330.495
44.2354 73.4121 256.425
23.6933 71.2979 207.037
43.8741 178.768 57.0265
52.7624 138.489 112.46
54.4538 49.1972 312.283
26.1191 36.6429 25.9615
42.0402 185.862 116.302
41.8905 211.112 156.509
40.654 19.8312 243.912
41.7322 329.229 333.514
25.8013 178.963 364.022
40.6965 129.86 192.687
66.4051 97.0854 308.323
45.826 180.93 89.1453
42.9305 253.601 230.528
30.0801 195.205 99.1457
39.2937 163.482 206.078
56.5714 88.4896 140.238
22.8041 84.9299 225.186
42.6063 266.965 227.518
50.0342 229.033 79.9788
35.8121 222.68 154.615
35.5893 86.0291 267.749
35.6626 173.935 80.9838
35.1172 247.854 241.497
39.304 137.774 292.045
22.9364 195.358 104.427
26.0016 92.317 301.549
33.3871 137.197 22.0487
53.5537 57.4719 205.43
53.4649 175.557 107.341
24.3442 167.383 104.327
21.7411 25.2922 221.123
44.8905 123.005 41.084
26.1269 26.0972 241.017
33.4377 3.98964 29.2944
59.5208 109.968 132.003
51.1068 55.7309 262.529
41.5901 58.4516 271.14
22.8878 36.4068 285.021
38.5858 70.162 234.181
18.5817 37.3381 30.7331
51.805 334.24 306.915
48.1229 24.8038 361.918
21.1237 192.445 164.443
26.1228 299.863 314.964
45.3339 185.774 136.21
18.8636 151.6 107.342
54.9538 73.8404 212.217
25.5503 227.281 268.028
54.3135 167.082 162.512
54.1503 199.875 108.55
33.5764 141.396 118.839
23.2664 88.7258 296.841
49.4176 89.4929 320.011
33.5385 226.077 129.004
58.4249 151.826 25.5381
57.2644 247.551 299.523
40.2379 95.4634 327.749
67.9051 83.2529 132.825
73.5886 179.637 151.687
42.1723 70.712 361.075
39.0592 58.9125 234.626
40.8101 213.856 162.113
40.0579 85.0282 182.942
35.837 171.882 40.5949
24.34 84.0559 280.934
47.9644 78.299 193.87
38.9992 43.5645 262.236
59.5692 172.547 137.964
29.753 223.989 135.89
38.8483 226.561 132.408
21.713 52.4361 279.913
47.7898 162.463 113.185
28.9611 3.56896 323.823
52.8057 41.9216 253.911
20.4427 306.637 298.385
24.5555 225.914 165.178
35.3805 230.175 139.339
43.3353 156.382 199.962
30.8957 351.616 309.558
26.4773 63.6646 305.927
55.5448 162.134 83.2141
57.3627 63.8074 212.413
52.0079 49.6923 206.209
56.4403 30.5431 240.036
23.3265 309.532 270.769
50.3155 51.7628 289.574
61.482 126.011 220.987
38.5894 216.772 169.261
41.6886 32.7761 277.658
32.5557 37.0596 289.432
35.4999 329.186 229.376
55.5808 84.7255 131.511
55.5135 30.4895 251.022
32.5358 55.5021 365.732
57.9313 85.3847 302.657
22.1958 227.209 150.981
50.8412 121.421 292.11
61.5894 92.8245 110.212
71.3485 43.0583 223.104
48.5033 46.0908 196.229
38.2349 88.7984 304.236
58.1619 96.7701 115.689
53.8173 148.028 20.7806
40.2662 324.068 306.264
34.5281 58.4066 277.935
19.4967 37.9909 240.388
71.0202 100.681 215.899
41.3775 138.295 282.797
30.7305 168.998 101.559
47.4908 185.101 119.751
17.3897 305.116 303.063
58.0397 125.758 21.9508
45.2269 167.804 171.015
18.2364 114.424 298.167
36.0404 214.724 129.832
42.6147 323.717 329.68
59.1351 90.9564 188.586
34.5942 221.223 161.281
65.8048 195.755 116.264
37.2925 3.49448 131.378
55.3207 220.899 270.325
35.152 237.152 313.286
22.4562 179.384 69.0709
46.0539 109.467 34.8589
18.6043 140.971 107.593
24.0545 275.99 250.13
42.767 167.296 233.096
35.5833 105.988 125.056
55.4131 39.8888 248.226
45.9643 69.2754 220.019
33.3646 45.0698 191.164
46.3858 274.485 243.055
27.6726 78.7419 219.71
21.5234 191.735 273.291
19.3404 39.3182 281.242
27.5219 174.81 51.4927
51.5884 108.526 31.9856
41.5672 172.594 103.512
64.598 102.6 16.6742
53.973 218.679 283.345
58.3133 32.6626 213.445
62.3167 95.8321 273.04
53.8602 181.997 185.315
40.5856 202.993 117.446
60.8171 184.837 183.481
48.3864 26.207 261.729
66.8646 97.519 223.417
52.7077 197.164 186.344
45.3592 67.6958 239.119
33.5346 161.882 282.311
58.8855 42.8836 207.869
31.0172 214.998 178.601
81.6213 77.4078 220.717
21.1532 206.929 124.597
20.3981 1.63336 10.5799
63.2897 82.2048 186.947
27.0461 22.1965 245.386
32.1062 135.811 357.39
47.2918 224.679 89.9106
67.9686 117.731 211.377
57.3087 59.6041 309.097
48.595 144.85 119.616
60.1568 191.91 142.119
56.4377 34.0665 246.034
27.0333 92.9599 306.44
52.0758 292.435 311.48
38.8534 233.172 255.748
60.8044 200.091 152.012
26.6621 134.393 277.852
47.761 109.245 81.9798
34.9666 150.808 116.601
41.6033 113.62 217.988
48.2815 104.733 75.6279
36.0024 95.2183 40.3887
73.5567 75.3631 232.455
28.3585 4.77377 134.749
22.7672 68.14 276.633
69.1835 192.034 161.877
54.7276 106.392 43.943
67.0451 178.612 166.367
39.1525 221.458 290.147
54.7723 205.602 173.138
28.445 163.953 327.259
40.4573 147.54 52.7804
44.9888 84.3527 285.775
52.5378 64.9605 242.368
67.6537 40.3995 287.162
52.3663 220.527 71.0652
59.9859 120.337 312.199
56.0942 183.888 94.2369
46.5905 128.725 189.61
66.699 213.228 82.6727
35.7059 22.6104 262.459
35.7763 104.67 199.192
62.078 108.539 211.304
22.809 74.2562 256.513
79.3096 90.2364 224.429
40.0213 76.7162 217.419
45.0341 351.95 293.751
45.3995 177.489 180.529
44.0286 108.964 65.7791
30.3885 203.919 92.837
62.5392 195.912 176
36.7358 217.301 153.399
59.168 143.586 187.685
33.6521 44.8823 197.441
47.4472 107.375 56.7531
63.7155 213.098 284.228
57.8814 121.837 292.092
37.9517 111.35 179.694
59.0548 97.4253 318.17
41.3819 168.375 165.007
64.2123 103.745 110.175
38.3243 206.889 76.6086
57.4842 106.401 20.724
55.8856 100.2 31.956
24.5339 83.5779 247.91
35.2075 202.811 186.175
32.9884 203.758 87.738
47.7355 184.262 62.5678
39.4912 232.534 79.1066
29.9956 224.318 281.261
41.9601 224.464 269.433
51.5571 152.699 191.798
27.8601 1.88885 17.129
46.0387 130.707 29.3115
65.9389 93.1026 186.55
59.6309 118.374 204.803
44.9844 184.323 184.838
21.6086 43.3171 252.553
58.7251 37.7003 292.486
38.0902 206.914 187.398
59.8192 176.972 83.7907
48.0538 198.901 114.486
61.5811 207.934 91.337
52.96 32.6586 218.947
63.5266 93.3478 139.874
48.4328 285.776 227.095
43.6831 73.9256 213.123
45.2808 157.362 17.1442
53.6119 204.082 152.652
30.3677 226.343 162.186
73.2415 186.464 154.683
47.6321 51.136 199.73
63.988 53.2507 304.53
45.7433 247.91 254.18
18.1971 203.714 162.72
63.7533 168.723 91.11
16.7742 100.9 85.7866
26.9977 150.634 217.732
25.7524 264.801 318.505
43.5401 69.998 274.955
32.6595 53.5023 223.805
46.2358 260.153 245.173
59.2873 105.001 114.481
54.3351 58.0685 255.416
46.5535 296.039 323.706
65.1543 80.4667 123.712
46.9062 341.921 328.302
57.0104 35.9423 254.799
42.4731 134.007 279.015
61.4582 245.718 317.406
32.3863 74.5825 246.593
42.2337 253.424 323.404
40.5659 175.084 54.8916
29.5535 346.878 320.073
64.0543 96.8827 248.224
56.2588 41.6783 263.558
63.811 80.8678 57.5069
45.7552 171.809 234.759
49.8094 179.494 137.014
36.3164 51.0246 289.84
40.638 115.002 284.45
26.1985 284.822 321.412
44.2808 310.546 239.835
39.0642 315.789 302.278
34.3102 191.697 92.2983
37.7014 199.321 91.7371
60.2253 48.1108 257.868
46.6986 136.765 122.284
24.6082 202.293 102.97
70.6674 174.041 146.09
29.4277 15.569 14.5037
37.7085 108.137 279.177
49.7075 168.284 176.363
58.5547 122.769 304.462
43.5085 242.969 238.673
45.5508 234.665 248.572
21.2609 294.979 243.975
47.5379 58.5604 200.002
59.2656 224.194 255.801
48.3276 106.163 65.8507
36.9827 119.395 32.9729
46.637 58.5827 191.454
25.824 183.717 278.339
70.4445 104.13 272.806
62.6094 163.401 78.4784
54.0374 63.5324 303.257
66.4774 183.101 94.4896
55.1576 139.906 32.333
55.977 202.462 180.292
43.4451 33.7693 208.454
17.9899 66.1497 266.407
36.8135 183.941 183.556
55.391 100.25 83.7589
66.8212 232.015 268.089
52.8918 299.53 320.999
27.8488 290.7 295.304
73.8962 89.1542 196.937
37.7004 91.688 207.966
62.4344 242.046 306.294
72.0178 91.3109 250.299
31.4365 281.507 259.299
72.0049 82.9737 251.764
50.7743 170.342 37.7176
26.8703 130.38 197.657
45.7161 196.524 124.548
53.4839 117.532 28.0258
75.5328 76.8203 242.303
42.968 58.5668 213.703
36.4853 129.919 188.976
52.4728 271.555 224.635
66.8751 170.465 161.364
18.9987 51.2715 334.175
57.1739 192.339 79.1841
81.2082 81.8172 229.026
44.282 62.2416 193.476
36.7262 104.04 37.1703
56.611 122.792 35.8444
40.3843 105.787 174.795
55.5398 72.0757 258.196
47.8395 324.29 331.162
49.6745 66.4667 298.818
59.3438 120.144 298.342
34.3908 17.5866 16.7777
55.4529 114.444 188.989
21.1116 66.6873 191.336
21.1899 57.9819 341.106
52.2128 72.6612 205.837
66.2294 196.48 155.804
17.5232 4.05623 191.689
33.9312 86.2796 321.608
72.297 88.0264 265.023
52.1367 44.8451 191.464
34.2989 239.126 88.6317
50.794 75.4085 187.263
38.948 312.832 245.377
59.2438 247.053 230.082
34.4747 61.4907 247.294
71.1176 65.5688 298.573
29.8534 143.698 288.507
82.355 57.9523 304.032
61.1399 72.2965 256.4
29.7252 316.979 307.446
71.8232 197.605 97.3527
52.2996 69.2701 220.036
28.7505 2.665 33.9803
38.9666 223.076 278.044
46.69 99.3236 173.876
45.9418 191.279 85.0268
62.0415 106.24 222.815
21.5129 204.458 286.001
23.4845 164.639 16.5106
16.4304 365.638 332.352
48.3192 226.295 268.694
45.1203 87.2236 202.723
60.9148 223.192 303.315
51.7714 81.2361 179.314
51.0801 211.553 89.0465
55.9069 131.287 33.7416
61.3823 181.156 92.3156
40.7721 120.974 220.471
22.5047 253.16 314.832
21.3942 150.26 13.1795
54.3942 187.074 84.9698
63.3061 39.4604 228.95
47.8073 121.907 325.689
46.4165 119.972 192.825
25.8694 29.9339 10.7272
37.5831 70.8719 210.848
55.6355 98.6399 305.508
24.3899 53.0089 285.289
35.0548 28.6617 31.7721
45.2111 15.6769 124.779
50.4797 87.8363 45.2603
16.018 357.06 173.245
65.8491 169.571 143.006
72.2705 229.141 295.8
47.6733 143.389 190.971
53.1226 233.641 323.3
41.1253 286.691 252.014
52.1301 168.757 28.2981
39.4056 176.244 156.122
37.1792 68.9236 336.363
48.1183 40.1707 206.223
45.6144 66.3022 200.176
14.5018 47.5285 351.436
62.1745 237.355 323.547
47.2335 252.697 304.058
22.8949 93.7526 310.973
38.9447 147.013 21.7489
45.5043 342.459 335.529
23.3815 367.806 154.476
39.5012 79.0939 275.236
66.349 170.493 131.514
73.5776 50.0514 215.129
45.7168 114.648 285.733
45.4468 77.9081 189.467
26.6466 34.4555 277.947
80.5706 92.186 205.194
52.8146 57.3179 355.248
51.0042 119.21 333.325
43.8139 203.11 110.972
41.39 72.683 60.3991
47.4318 177.243 97.8568
27.2948 9.35982 41.7395
74.2529 52.4104 224.278
86.9702 62.2364 307.017
38.2545 72.7873 226.102
68.1006 46.4818 255.361
86.6441 54.6699 301.181
17.5134 46.0951 353.754
48.1094 174.596 156.904
51.0541 186.474 94.1154
24.9722 232.23 303.279
70.911 73.7608 282.822
67.5139 97.6655 292.237
61.8265 121.878 197.557
63.6904 90.6526 304.965
60.22 86.9155 38.7579
13.9851 1.26805 33.0565
62.11 107.077 187.643
39.693 95.2498 112.804
55.0579 28.6466 232.059
30.4579 120.321 303.744
21.2805 15.4705 4.34487
52.5509 247.945 329.245
64.7667 128.384 30.24
67.9625 60.2771 201.356
44.7633 237.32 318.727
66.232 66.5867 303.284
17.0213 273.942 112.43
37.8214 111.359 198.617
48.6242 72.6566 252.266
58.6918 252.621 324.583
23.6324 151.264 223.339
54.0138 113.497 39.7306
74.6798 94.947 219.733
22.996 4.43496 192.297
55.993 199.905 75.6394
35.6026 78.2529 213.85
18.8997 199.984 286.262
23.5886 115.093 266.247
55.1178 238.22 238.082
69.9432 204.468 87.1327
47.032 93.3123 302.237
67.9754 74.3473 204.79
28.3497 203.827 271.846
43.5979 79.2782 209.128
26.0827 22.5491 39.0035
65.1659 37.6043 262.94
35.8277 7.63526 35.5226
52.3548 50.9075 364.732
61.078 69.2546 217.635
68.6089 190.149 147.209
71.8435 100.059 189.723
56.0114 107.742 189.39
43.0015 143.613 195.682
46.4926 94.4248 39.9152
41.7843 367.752 176.255
24.2969 279.085 284.132
74.3655 109.628 198.268
33.3267 348.398 325.383
64.1065 42.0482 299.403
61.718 229.912 244.177
50.5054 309.38 311.182
46.9742 54.231 243.564
56.8762 52.2922 187.706
27.6685 232.986 90.1909
51.6631 122.973 222.383
45.4473 69.0261 229.495
43.1076 31.4855 214.372
54.0303 159.469 25.4164
46.9643 126.591 296.681
66.9526 188.643 84.5273
38.4126 68.4795 331.405
68.7715 229.281 276.256
68.1618 75.4991 256.624
76.0196 178.335 132.412
58.2806 103.466 90.1511
24.3655 76.3874 223.565
58.4899 39.9044 198.961
22.4851 291.043 260.251
72.8818 195.924 114.947
62.6199 86.3554 84.7227
62.6743 239.699 249.86
62.0963 78.7881 267.688
69.4152 189.347 139.026
20.5275 65.2558 284.309
59.4548 93.3132 65.1622
25.1792 87.9603 103.305
56.683 68.0767 246.842
71.348 86.792 286.262
17.939 47.256 342.04
31.7928 89.7018 210.238
70.0739 192.339 151.62
80.209 89.0611 213.887
59.0605 119.917 185.347
26.9887 19.8421 11.509
29.4421 197.122 94.0352
59.2822 89.3746 196.789
52.7403 58.6401 292.942
65.4951 98.6023 182.623
18.4902 113.443 252.002
29.2509 72.8857 224.203
50.1981 168.308 14.2649
23.4318 282.28 252.838
54.2551 193.126 124.466
35.1396 69.8149 273.6
69.3426 205.492 94.084
46.0573 109.936 286.032
29.1708 233.058 307.356
18.2505 10.0442 3.3162
69.37 193.457 129.901
61.404 247.734 243.305
20.9189 52.2567 28.2592
52.1906 200.485 149.189
26.0932 73.8247 229.402
56.341 108.409 297.835
68.2695 110.246 207.405
28.3093 162.456 108.019
60.3802 39.7593 212.192
77.0003 48.8451 302.902
59.9578 76.9242 61.8804
61.638 36.1012 221.984
63.9696 202.519 75.1522
44.1941 78.0142 365.976
68.7416 53.9473 233.352
63.188 55.254 239.395
21.0868 53.6042 213.811
45.3683 323.912 290.578
63.4905 77.2848 261.141
66.3856 177.363 76.4573
51.7773 64.9979 207.921
59.4183 105.972 285.423
76.8475 48.5303 290.145
34.1769 170.481 218.615
53.0026 117.121 205.011
39.8898 342.002 295.135
23.6624 189.5 95.7047
50.252 112.596 333.257
26.1865 192.036 93.9093
51.0773 149.424 211.593
36.6033 44.3445 366.3
49.8884 182.506 34.8153
63.233 128.157 185.221
21.1203 23.6195 245.097
46.0083 182.676 44.9103
56.0822 114.953 293.163
42.0448 176.246 48.6771
54.0108 89.5056 39.2134
41.0612 174.043 25.184
