ply
format ascii 1.0
comment Created by Open3D
element vertex 119
property double x
property double y
property double z
end_header
45.5869 113.243 91.1927
43.3791 53.2026 52.3925
47.3763 121.459 91.0184
43.8091 50.5212 105.37
45.816 109.037 36.2068
38.4912 64.7505 88.7946
35.4998 109.664 56.4306
46.2441 107.271 56.0127
43.1574 53.9139 96.54
30.1092 114.551 111.925
42.3279 125.958 138.107
36.2812 58.8724 67.977
48.6807 103.101 69.1185
37.4626 93.1509 119.652
43.0417 72.533 103.588
39.0932 110.304 110.31
35.4112 78.901 163.317
47.3359 95.7371 34.9609
35.0368 102.685 74.5347
41.189 126.027 41.9144
38.7664 118.96 53.7179
45.9457 84.6809 34.538
34.4764 17.0195 96.086
46.1211 60.7993 89.4947
38.8209 61.5141 104.006
43.5107 45.1964 47.5072
36.9988 122.716 148.975
50.8253 33.8886 91.7622
47.1821 107.227 84.9488
41.5299 128.263 59.0717
50.6389 52.0452 56.3379
33.5284 128.924 55.3163
44.9785 120.822 150.733
36.9726 128.894 142.478
37.6106 91.4793 108.445
36.7971 131.637 75.4257
39.9755 121.751 71.9598
43.1672 131.701 129.182
48.2443 104.442 113.53
39.2966 22.1172 97.7726
46.444 133.586 72.3501
36.6326 100.594 149.663
36.8265 64.0319 114.619
46.2977 135.487 48.3564
32.7274 74.5633 58.6504
40.8085 58.9604 82.2652
38.9746 131.27 34.0722
39.3257 40.3305 95.5534
33.6993 130.963 131.282
36.6669 148.045 133.508
31.9741 125.771 71.7439
32.1399 102.173 170.741
30.0215 142.212 124.444
30.3342 22.9735 100.951
36.3699 104.257 190.215
38.7155 42.6684 73.8855
36.6564 134.162 48.153
39.708 98.8771 172.602
33.1749 141.267 17.2369
34.623 35.7813 87.711
30.7557 86.5354 141.133
36.2333 54.8047 53.1343
34.4207 40.869 107.958
44.466 37.9135 87.2087
33.9957 103.368 40.2578
33.5913 94.5553 152.955
34.5416 72.5928 68.2699
35.052 73.0236 86.4043
47.649 62.7613 110.974
47.0566 98.1336 45.5443
34.7614 91.8847 73.2052
40.7316 29.1596 98.3057
41.6229 117.479 141.843
44.4112 107.934 99.345
37.9424 149.107 141.379
30.4479 126.612 118.648
30.3557 74.7935 47.3523
35.9063 134.757 121.266
35.0472 111.031 164.531
32.7436 46.408 77.7259
28.4123 105.609 120.124
39.2761 68.1158 65.0081
38.0051 139.381 10.7253
41.5908 105.818 115.569
31.962 44.7344 100.033
35.2388 101.294 120.419
44.7741 32.7642 105.431
35.3642 118.5 65.9918
39.5403 83.7408 170.973
33.4679 137.503 26.3405
45.2484 41.4725 76.2382
36.4004 85.5197 67.6758
40.003 118.414 158.887
30.0452 145.815 24.3477
35.6372 47.0441 50.3523
39.4514 93.4541 184.19
36.7418 87.4257 149.73
42.6941 31.688 111.702
30.9898 137.616 134.702
39.8278 72.6157 49.425
36.1116 74.183 172.784
32.6787 117.62 32.3911
32.0034 107.711 81.7723
51.9399 50.772 47.4211
31.6307 20.7407 107.68
45.2377 119.71 77.261
38.0724 83.1465 42.2375
48.9748 112.277 71.6173
46.818 34.8629 80.9179
44.3794 97.0913 165.194
41.4619 137.864 86.4686
36.8178 76.775 112.455
49.5831 65.1041 100.008
41.0862 140.088 78.434
35.1911 82.2383 39.1059
46.2155 33.5485 97.7833
33.3328 102.94 129.709
49.7303 58.7271 74.2607
50.1015 56.7531 77.8143
