ply
format ascii 1.0
comment Created by Open3D
element vertex 1112
property double x
property double y
property double z
end_header
36.8075 106.998 208.022
18.7159 226.081 252.035
35.2477 175.558 89.833
18.2473 10.3411 307.481
15.5602 155.868 58.6547
17.4712 177.767 198.28
14.3282 154.757 173.638
20.8429 186.132 19.8121
16.2919 184.289 36.6617
24.3799 146.991 105.194
20.9571 165.185 222.148
41.3301 177.988 429.215
19.6609 199.584 231.427
24.3742 208.731 270.673
16.3375 150.268 326.731
16.9343 213.98 210.596
26.5036 138.555 169.779
47.7474 225.726 253.128
45.5718 249.124 110.255
38.6871 142.788 421.607
16.7391 9.28328 42.598
31.3398 163 228.52
16.6647 112.747 200.263
14.8948 256.071 132.282
18.3045 207.962 264.441
19.0533 155.493 318.243
17.928 282.845 33.1873
19.7379 35.4936 414.529
37.8329 130.94 306.859
18.3892 150.951 210.505
40.0827 186.643 193.954
34.536 130.627 197.523
37.3131 201.187 36.0792
35.6619 150.292 201.321
15.1565 109.331 186.507
16.5203 142.14 393.894
39.0205 74.6993 210.229
22.3982 164.758 151.045
46.9431 161.22 415.811
25.8041 244.01 384.7
39.894 41.4465 402.375
40.3755 168.515 124.687
45.3701 141.083 308.962
18.001 95.4957 67.7246
26.9501 200.654 70.745
33.5651 184.006 116.763
15.2956 136.146 190.654
46.4335 232.795 55.6545
20.2139 170.338 312.445
22.6549 161.277 332.258
70.9959 69.073 172.37
36.0757 103.038 188.369
39.8881 191.741 260.922
17.3131 216.749 186.831
23.5071 118.425 221.063
28.8829 162.572 337.079
36.5618 161.667 86.1489
39.1192 136.245 102.427
18.2227 222.616 418.125
16.1141 80.7691 236.434
17.5408 48.9497 416.271
19.4939 151.675 149.685
38.4491 222.662 228.74
31.6436 174.023 222.429
39.1185 107.12 196.797
31.8829 50.9339 249.985
23.0384 231.462 247.057
41.8392 163.374 63.6693
32.3531 231.18 238.001
19.1299 60.2243 205.513
37.5462 233.436 263.414
46.3456 215.847 234.805
27.6355 184.927 178.225
36.6552 39.8025 239.13
46.851 201.466 244.354
22.258 218.868 93.4867
18.9343 64.4253 227.178
15.8544 225.247 397.833
27.1963 224.988 94.2169
42.2231 123.424 329.069
15.6767 165.976 52.1211
29.5356 151.557 181.077
28.7443 90.6167 445.701
26.9398 211.688 195.587
37.7373 112.494 222.686
57.7877 178.452 119.677
19.7976 174.286 398.257
16.8803 166.726 177.235
37.1912 159.631 185.124
24.9523 144.673 424.714
19.9846 131.214 210.598
34.6762 196.657 24.6878
53.0074 162.212 397.056
48.3689 145.193 103.952
23.7358 219.186 228.21
44.4177 153.675 90.5538
17.8469 239.709 422.553
18.3263 241.908 131.489
14.2321 119.627 165.682
23.2853 136.296 219.813
29.9401 149.047 115.989
43.1741 241.043 149.194
23.188 94.696 209.699
20.5401 228.168 57.4635
39.5151 82.5818 200.011
23.3764 51.8872 423.89
16.3924 236.918 413.933
39.9089 84.8827 211.076
19.9317 124.361 204.319
20.8791 247.878 418.607
28.7793 235.845 253.218
44.5242 237.393 129.682
18.3905 245.141 410.115
20.9355 177.955 307.572
35.985 183.417 98.5715
42.4584 114.561 207.813
34.3579 130.708 73.511
34.7273 144.051 168.955
48.5525 176.033 210.022
31.1224 52.8468 425.337
27.1927 170.78 382.058
21.0093 209.807 74.4217
29.7807 244.203 426.266
18.1488 72.0968 236.895
32.8728 121.594 329.008
26.6453 171.962 155.663
62.59 64.3254 179.297
19.9657 140.737 84.4301
20.6391 167.022 393.663
34.5659 192.254 96.7408
18.2945 163.614 79.357
17.7732 203.992 51.5007
18.7853 167.845 410.53
19.7981 246.545 149.745
46.0696 240.814 60.3247
22.0438 189.698 247.237
29.4178 132.201 230.841
44.7501 197.253 102.579
52.4124 73.6778 161.336
40.3381 155.506 68.1181
39.1648 177.975 387.984
25.0888 176.923 22.235
15.9715 259.558 150.26
39.5085 90.633 227.497
39.9783 141.402 207.047
31.6992 83.1007 194.581
50.3807 242.65 68.7727
32.2817 147.587 141.374
46.0459 221.211 415.85
35.4258 173.011 72.8547
40.4244 155.148 435.075
21.1115 55.4331 243.683
38.0472 41.516 203.793
45.4083 175.927 407.624
23.303 134.663 82.24
39.5243 152.513 146.24
41.9831 211.708 411.359
34.1917 50.7067 444.377
15.193 144.167 162.978
20.7372 192.732 237.973
29.9271 233.832 263.572
32.806 172.734 21.6884
50.4432 208.705 239.863
48.0775 132.205 322.586
20.113 215.127 84.56
24.1186 150.217 96.0232
37.254 122.645 383.687
18.9301 158.54 432.73
22.517 132.791 226.84
44.7709 154.206 342.214
23.3859 221.245 269.944
29.2256 133.073 93.7492
44.286 204.712 231.839
26.6831 35.1564 223.865
16.6676 200.441 215.273
17.7876 89.5474 226.531
25.3196 233.38 127.704
38.7539 73.7509 219.708
23.5408 202.625 203.815
16.7938 144.894 381.367
40.9044 180.497 169.839
42.4805 222.435 67.4521
41.8149 124.807 339.441
41.7184 248.625 422.962
68.4091 68.3063 157.61
28.1174 175.241 81.1844
20.0659 285.57 47.9328
14.2181 145.846 189.02
18.0074 138.856 345.326
33.9587 116.961 166.572
18.4068 88.42 285.441
29.2991 74.2778 252.433
29.2363 192.899 45.392
35.2813 202.978 57.1501
29.4045 188.786 249.32
14.2997 164.667 62.1946
15.0142 208.039 64.2987
24.4011 89.0926 245.243
50.8082 150.205 227.957
37.5512 106.929 171.738
22.73 143.179 225.264
37.5229 221.948 275.314
17.1707 149.412 310.443
50.2219 214.026 121.361
43.8007 144.86 343.348
16.6941 132.936 151.006
32.8796 189.362 259.071
41.9694 241.535 53.6417
29.0236 200.125 268.983
32.7348 201.244 286.439
30.2214 196.281 347.277
18.5043 131.347 331.173
18.6478 142.783 148.346
21.4552 118.128 211.558
15.5167 137.057 211.823
28.4957 160.692 101.442
28.8666 204.585 345.215
34.0209 45.1554 427.116
16.197 169.095 96.3065
41.5304 47.2681 235.735
22.8821 229.72 260.63
20.9445 159.015 143.221
28.9845 232.544 88.3068
31.2297 172.984 415.589
35.7775 225.867 101.901
15.1497 265.751 134.922
41.3897 49.5626 201.383
39.3799 67.8202 203.88
47.8327 167.171 206.702
17.2405 143.852 217.84
21.3282 230.042 425.899
17.2813 204.624 70.9982
15.3902 135.531 169.597
37.7602 31.5701 410.258
39.016 177.923 408.29
43.0636 169.538 104.668
17.5815 207.678 100.545
31.1389 217.112 29.0451
16.1286 127.734 158.87
24.9716 82.615 197.416
21.4026 211.566 93.6486
48.4814 150.872 327.903
21.2189 140.998 372.373
42.2447 141.428 107.816
16.587 124.059 323.247
31.6659 177.768 393.442
35.7822 183.523 215.018
18.3978 136.595 410.679
16.1631 205.564 42.1983
37.2361 63.8259 221.641
19.5587 133.409 378.121
26.5341 132.962 71.6201
23.1531 196.212 302.025
26.736 121.213 152.872
26.0669 190.239 257.409
22.4223 122.065 377.944
19.1386 145.887 415.257
28.8431 128.658 166.44
29.9404 183.831 202.614
18.6526 157.676 157.89
21.9982 144.053 77.412
72.4494 73.2497 161.868
29.5627 147.025 189.54
43.9138 214.875 226.286
16.8174 201.714 257.563
39.167 251.949 149.77
23.4978 73.1544 197.439
24.7649 157.701 226.121
27.6831 99.7339 229.139
21.598 139.934 420.239
34.3897 239.59 71.7262
27.0684 280.669 140.171
21.1832 126.012 308.382
28.1513 161.776 312.129
35.7123 88.1675 439.718
47.6999 162.192 108.766
37.1563 238.506 256.426
43.5817 65.4501 443.442
37.6395 55.2915 220.632
21.59 127.356 391.257
32.511 34.5821 220.696
21.8037 164.581 421.682
18.3087 142.327 404.83
23.0451 137.533 92.1069
19.8607 223.766 235.532
27.0923 141.767 99.8491
14.577 157.108 193.99
28.4492 178.724 90.6516
21.8787 96.7593 222.78
31.268 136.829 302.755
16.7183 163.213 398.523
48.8349 218.216 260.635
28.8796 152.764 230.446
36.689 153.715 117.886
34.504 152.575 169.907
17.0719 218.471 43.4591
38.9389 72.0985 228.564
42.551 219.224 401.811
22.4076 214.053 217.469
15.3592 138.361 313.79
14.1503 145.194 170.362
15.3665 126.737 202.141
39.4229 245.327 402.601
43.8003 152.751 427.097
15.7773 213.612 241.248
38.2691 176.536 102.928
43.5777 190.492 126.794
19.2414 174.982 35.9831
17.7962 40.1764 213.048
16.5064 290.276 326.359
36.9292 36.1049 227.687
17.4558 222.526 241.565
17.908 171.951 168.918
14.5954 135.797 200.96
43.6876 152.13 314.142
30.0159 249.006 279.781
40.6923 161.515 150.201
20.9163 152.129 35.1754
17.6358 192.606 281.287
38.6058 163.973 56.0305
37.6203 131.958 387.146
40.0084 199.853 265.359
35.7364 186.79 244.667
40.6777 166.941 171.3
39.1514 166.053 38.8793
19.5353 188.189 364.321
48.9046 148.088 318.436
26.5613 193.508 74.8579
17.4507 87.4922 242.158
34.1257 236.467 246.368
23.9956 172.269 414.391
15.1581 138.817 327.078
40.7068 179.157 396.634
31.1987 228.977 39.3591
23.4936 67.6396 249.81
43.6977 54.516 240.406
44.2338 210.593 123.386
50.9305 141.729 325.556
29.7586 155.95 306.957
14.6491 160.909 184.334
37.6763 218.976 53.7233
37.8193 52.183 397.112
41.9848 229.657 45.0114
46.2885 131.136 399.871
29.9719 196.681 53.4072
22.8626 180.101 218.674
15.5319 185.928 50.489
32.8191 133.556 152.09
15.5073 197.37 75.1136
33.8256 204.698 117.545
16.7338 210.916 58.29
24.5933 154.97 346.036
25.6532 151.921 139.22
42.6826 119.335 185.675
38.7847 221.83 393.814
15.2362 189.266 58.1242
22.435 61.9351 193.561
15.8758 121.002 150.939
37.5161 157.002 75.5734
28.5024 140.294 350.781
28.6902 133.976 407.718
20.9809 169.384 26.752
42.4113 73.725 436.334
24.9267 220.382 36.8381
39.3373 214.995 90.574
28.9519 198.583 91.6333
15.2855 79.2457 218.045
35.0639 171.556 227.903
31.2048 127.588 80.3196
39.3736 236.111 48.8134
42.3928 41.3288 218.422
28.8934 183.115 214.479
26.658 39.4406 208.564
43.8133 125.285 224.098
14.6985 168.794 74.9936
16.6942 175.005 60.0225
35.5149 145.944 361.069
44.5276 242.054 81.1776
19.1444 206.794 82.8532
39.6306 209.744 64.4548
44.2206 168.612 74.448
17.3571 245.507 393.557
41.7914 49.5664 212.798
34.8598 213.945 80.2634
34.0688 169.321 50.4814
24.6902 196.819 209.715
44.5466 67.5168 168.34
30.2154 62.3796 190.549
36.6962 90.7212 207.751
34.1065 127.194 231.794
25.3058 78.6093 430.611
21.1744 172.677 218.301
20.7566 107.644 207.063
54.4598 82.9586 154.197
39.5753 244.315 430.278
31.4691 64.7436 421.515
36.1853 136.709 363.761
34.4375 123.361 313.828
30.2317 43.7916 244.528
43.0046 56.337 415.121
36.4757 92.8413 237.8
25.6557 228.88 236.432
42.2113 133.842 209.013
19.7066 205.784 244.613
22.0516 39.5044 220.51
35.8429 204.63 272.21
15.4942 75.7149 211.666
44.2557 137.661 346.486
14.9647 215.095 250.569
40.5735 87.7234 236.182
54.3092 159.611 120.785
36.0628 229.54 270.978
42.5084 188.077 106.199
23.0007 107.552 236.371
47.5785 237.057 114.269
17.5383 196.522 59.7046
35.0466 96.531 216.485
36.5787 59.9578 212.143
16.816 272.468 201.588
42.3688 125.673 208.164
20.5659 167.639 61.7553
47.3775 172.371 427.525
39.9908 38.3555 415.269
31.2756 181.841 58.7019
31.8456 135.82 101.016
73.3683 85.7194 155.041
65.8363 56.8609 170.79
55.4603 54.6033 169.8
40.8821 83.1935 223.691
19.8792 163.602 88.3595
26.1176 85.3299 437.099
20.5898 154.635 82.3458
46.9735 202.027 267.822
33.8774 97.4939 207.319
14.7789 179.685 95.1452
33.8572 180.282 431.165
16.3755 113.987 171.217
17.9757 90.308 214.226
24.5928 224.884 70.9501
26.9217 228.524 269.046
39.2859 128.803 81.2186
14.4261 137.062 179.386
38.3735 167.599 29.4978
29.4448 140.107 186.24
30.5384 175.956 423.023
26.2397 177.546 166.119
18.7863 69.7575 206.906
27.9705 182.53 72.2354
57.7449 218.806 115.112
28.3028 186.621 89.2666
31.0514 28.1402 402.731
68.5681 61.1712 163.16
33.271 250.129 394.552
22.4638 237.999 430.008
28.7254 167.133 112.226
14.4811 146.39 204.091
29.5232 102.687 175.579
30.1598 26.4569 210.7
17.5043 198.128 247.488
18.2691 102.593 188.01
32.5693 215.067 110.993
61.0359 206.206 117.519
33.7061 142.043 414.674
36.4352 190.934 236.852
29.4236 203.669 79.526
40.9351 65.2226 455.347
36.6764 231.932 90.7379
20.1582 193.092 107.95
45.9076 151.519 418.259
65.1341 76.1271 180.181
34.7963 182.81 203.942
14.9173 205.724 248.507
35.7844 180.254 401.266
25.6717 177.725 402.435
40.3896 63.3504 229.424
33.9369 125.608 169.577
39.904 151.197 60.5348
16.591 250.637 123.986
27.2277 222.805 428.114
40.7973 171.311 440.437
32.6305 90.9001 246.425
46.8476 227.76 264.697
41.283 205.779 399.865
23.3861 207.278 232.249
15.5024 174.2 67.0559
37.1798 136.054 375.783
27.1029 117.614 386.961
43.4123 210.643 272.833
39.4352 86.4303 245.46
17.7526 167.745 294.698
28.4512 93.7966 201.945
16.8164 56.7792 234.347
40.4376 179.124 122.029
32.6816 133.92 65.8337
30.4804 176.678 52.4613
17.671 156.787 414.491
36.849 167.307 84.5055
33.2444 235.855 59.0198
24.3995 60.8475 431.098
42.5652 51.763 407.637
41.12 225.051 267.151
27.7357 188.873 239.749
37.2373 144.246 53.1768
41.4408 105.699 180.385
29.2731 238.516 71.4573
38.3654 139.155 60.9828
44.2201 234.41 255.373
46.0345 78.8271 168.282
18.2624 220.334 70.6395
31.272 179.05 406.577
48.7801 212.338 256.187
28.3554 192.506 84.4792
23.5919 162.25 290.071
16.0996 201.076 99.1949
53.6536 235.279 92.49
54.7647 84.6056 165.898
23.2061 166.68 104.18
47.0697 130.688 222.974
43.9853 159.312 228.264
16.5271 183.011 64.9464
16.5116 73.3599 442.504
21.4839 161.439 212.01
24.8408 181.385 191.638
28.3805 71.5911 465.681
72.7236 77.9957 149.568
18.6482 147.263 346.223
27.0266 232.779 79.4378
48.4026 203.688 258.264
44.3447 182.246 189.166
32.9862 55.9178 435.285
52.8752 156.301 400.469
17.5005 158.3 383.891
32.2644 138.385 107.928
37.485 176.672 436.867
23.7106 94.4384 234.702
40.7421 139.571 408.356
17.6327 217.794 265.104
37.1826 132.497 204.859
36.2382 138.314 169.686
19.0025 204.335 91.0204
23.5951 138.96 143.001
32.7188 124.826 341.13
17.0808 171.434 192.281
46.7179 197.343 250.41
45.6391 224.587 238.939
21.8598 178.024 209.922
39.722 131.517 233.652
24.0202 134.299 415.116
25.8641 138.592 58.7412
44.3953 136.601 91.4701
40.566 177.722 27.8632
42.2324 149.199 369.008
17.9042 182.37 28.16
24.8224 184.618 206.721
31.8618 231.526 49.0722
38.5798 202.297 100.054
43.1266 215.723 46.0961
38.9548 232.762 391.994
17.1202 152.475 423.043
45.1406 232.195 105.198
41.6557 192.73 248.08
32.1023 213.555 423.868
22.4757 82.2902 448.691
21.1413 143.211 45.2022
50.5149 145.686 402.742
32.8406 205.634 85.8799
31.572 229.402 98.8044
51.821 235.829 75.7696
29.6 236.581 152.59
31.9514 130.336 183.062
45.7112 154.818 408.888
47.7051 230.844 69.9382
45.0358 173.815 176.39
27.8751 29.7747 409.354
47.6491 175.195 201.757
15.185 116.203 178.38
24.165 194.996 20.3246
22.3117 186.836 294.312
21.0091 127.241 342.445
22.6123 196.832 260.117
17.3577 62.3253 407.875
22.8429 146.575 303.183
16.3168 167.133 198.265
17.358 162.937 97.6884
43.6583 121.075 215.698
29.403 31.6438 427.365
20.6209 86.571 203.646
21.0866 169.702 184.607
18.9156 79.8303 206.968
36.8537 192.534 35.13
17.4041 139.865 157.188
22.7798 225.244 87.7355
14.7746 159.779 203.663
16.1967 119.747 192.64
33.7735 96.9575 232.406
49.5593 136.943 330.976
25.2709 122.247 341.129
23.0921 151.894 433.881
18.5262 134.786 391.656
41.8154 155.46 204.298
19.359 211.545 30.6299
17.2089 182.35 73.9253
28.2797 39.6474 232.495
22.6154 276.187 144.563
39.204 219.777 78.2727
20.1756 152.827 398.563
15.7081 129.587 317.997
15.5025 161.125 391.288
29.9876 136.878 162.405
37.0015 180.9 423.426
40.9108 274.003 151.75
55.1285 74.8756 183.373
28.9877 204.207 21.4264
39.17 163.067 195.458
43.334 140.471 97.6613
34.1054 130.372 87.9175
39.781 215.307 70.3165
29.2143 218.949 102.352
51.8973 62.8524 160.644
50.6644 64.505 176.977
44.2954 81.5676 239.176
17.175 66.8271 219.201
19.707 156.023 377.118
26.3437 163.171 323.22
40.6146 134.575 67.7034
21.3046 216.603 63.4943
21.1716 152.583 89.9485
34.9736 140.841 240.533
48.6842 151.001 113.657
43.5995 173.633 186.054
36.6142 135.395 348.882
33.1287 182.929 192.96
30.4653 147.65 301.116
42.6995 149.63 116.779
30.9556 227.7 132.169
44.0499 223.928 56.6269
37.623 75.0312 252.724
37.9361 159.031 44.9857
24.0965 151.662 222.103
38.4343 71.4524 192.736
60.1558 192.779 119.886
43.7968 236.39 140.234
38.6259 186.799 204.709
17.8453 192.386 99.6484
49.2862 242.798 121.362
34.9724 151.951 51.3781
30.0474 177.399 385.613
15.6279 192.355 66.6081
40.858 52.022 227.511
27.3712 231.317 72.3547
22.8449 90.849 196.808
39.7286 146.549 159.881
42.1622 63.7394 247.539
21.7933 198.674 27.1497
45.3527 75.069 243.776
54.0661 86.0739 190.167
34.6333 31.6464 398.047
14.4 123.685 187.052
37.6288 230.179 39.566
27.4719 186.508 61.8912
26.0454 105.657 208.446
23.1785 118.496 148.307
15.9715 196.272 373.103
20.385 168.84 203.744
16.1 201.142 82.212
29.299 85.9617 452.944
40.707 57.6187 195.219
39.6056 152.119 233.876
15.136 175.175 49.0657
39.5486 133.542 90.0424
34.3203 214.284 34.682
21.4539 171.501 100.187
20.2652 220.076 410.303
24.4357 59.4017 420.803
20.9685 262.404 345.984
27.8972 149.63 32.9042
43.8621 228.993 405.218
25.6764 239.553 115.012
17.4468 79.8607 228.756
18.4916 164.706 163.028
23.3512 202.048 220.764
44.9161 137.621 233.048
18.7308 203.541 31.1956
31.9593 82.4884 250.617
17.3483 218.56 257.567
49.9504 216.686 246.858
23.3503 258.866 161.63
41.9451 226.831 234.536
28.1173 235.316 61.893
32.5784 157.121 236.446
15.055 180.644 81.7352
39.1271 53.4281 424.879
44.7877 184.711 206.472
21.0969 248.251 345.273
25.4716 67.46 414.395
25.9656 129.709 144.723
22.1424 78.3338 246.475
45.3267 176.184 220.738
57.7978 89.5038 160.881
19.5138 175.928 321.147
33.8364 161.383 30.2597
31.2005 183.533 47.8541
32.4431 207.459 410.672
21.1596 159.508 30.446
40.7609 125.212 193.581
39.6316 225.317 110.859
27.7894 60.9884 250.867
17.9861 228.89 417.424
56.5605 227.224 106.789
16.1774 59.0706 459.199
39.3265 187.006 292.346
35.812 153.852 330.006
21.0143 159.547 409.184
29.2498 182.396 81.6988
26.9656 46.6025 198.234
24.0093 180.873 201.104
29.1476 127.892 154.836
23.3044 109.506 158.209
46.6801 169.002 414.814
14.7677 176.204 103.795
49.204 139.242 227.902
22.1365 218.588 77.4831
26.2426 58.7635 463.928
20.6402 211.478 235.83
29.9094 239.156 81.6665
32.339 154.614 346.265
32.3874 98.1895 222.918
34.8112 62.4328 254.011
43.1218 259.814 401.079
35.0862 120.169 232.614
24.0024 34.4146 395.53
46.8226 165.206 400.658
40.7234 59.3964 447.798
33.7231 200.444 229.725
47.4128 134.701 315.33
21.3796 144.392 67.728
50.2871 222.352 116.758
40.1185 26.8328 419.282
44.1776 169.189 379.584
41.8786 181.222 218.31
40.946 147.996 48.1348
43.9027 73.9423 235.771
19.6376 212.885 403.805
33.2271 39.4802 422.488
36.8474 218.877 108.519
31.5759 249.714 426.638
44.8811 160.582 327.144
23.8356 97.7383 183.447
28.7525 169.827 105.969
17.996 195.672 38.7061
43.6614 127.513 321.926
32.7517 131.552 190.8
28.9901 173.86 298.693
43.4929 143.52 81.8407
19.1331 252.597 290.668
33.7931 161.075 317.17
36.4356 194.85 118.657
36.0587 163.401 325.105
34.9101 171.442 411.36
39.1226 231.858 246.153
38.2862 125.53 320.764
44.2074 247.827 124.726
46.7837 197.035 258.145
31.1871 145.433 40.3778
28.0427 111.776 158.01
26.9013 145.547 232.811
44.304 209.727 96.4755
44.4628 135.487 77.7234
66.5988 87.8301 193.258
27.9227 189.15 69.9671
34.8742 187.466 41.2306
33.8786 166.433 444.092
30.2105 135.692 178.721
55.9333 214.573 124.196
32.5808 166.743 42.7262
31.343 226.027 230.141
58.8233 195.98 112.02
23.9009 164.034 404.923
52.8362 183.501 126.917
26.9281 144.871 364.4
32.6872 135.653 49.4979
44.284 166.059 199.07
20.6723 216.108 53.5123
30.8654 221.66 277.138
15.7699 160.449 44.0559
43.027 145.932 235.853
43.2431 147.146 214.789
38.2475 216.442 31.7213
24.7716 174.513 111.277
37.4723 37.248 212.223
26.1771 71.7843 426.363
19.7313 208.721 348.617
28.0673 180.583 114.283
22.9527 270.698 157.462
31.3789 144.592 421.133
34.7407 175.182 36.5148
36.063 168.264 95.0698
15.6346 163.345 168.345
33.2561 53.0481 456.96
28.5732 227.33 378.119
46.6269 131.61 215.644
49.2132 160.313 209.666
29.3398 157.293 114.604
55.3177 194.242 126.887
55.7995 169.046 117.7
19.4282 152.535 73.7666
17.7819 134.724 337.781
28.6503 108.232 214.496
45.5985 199.698 125.153
27.4698 166.679 441.668
48.5341 153.055 212.567
20.0175 157.501 65.4023
68.0969 79.5021 187.177
31.6158 174.495 67.1373
21.4567 158.843 94.5178
17.3396 83.3575 453.269
15.1035 73.9099 59.2517
41.7025 109.182 187.203
22.1157 216.586 420.249
17.9281 168.497 44.8623
33.5351 112.889 218.376
46.1859 168.675 227.14
33.6947 170.225 60.3872
31.8952 184.407 19.4175
47.2744 140.081 215.877
46.1194 166.887 433.93
46.935 162.449 377.668
35.7746 203.709 46.0673
27.7726 100.454 191.158
22.1257 166.224 40.882
50.8924 167.802 123.993
44.451 228.556 246.89
31.1192 209.572 26.366
24.9596 264.146 114.526
47.5426 167.135 370.444
16.7832 106.71 170.067
44.2321 234.395 94.6466
34.6862 145.213 433.234
44.846 154.823 102.433
34.2041 18.9656 429.618
45.987 74.2598 177.592
40.1414 114.209 191.866
16.1808 107.993 237.011
34.8502 205.435 92.3306
21.374 255.311 116.665
23.4177 230.81 65.6913
25.3632 158.757 109.98
32.4813 148.056 108.859
38.1432 123.392 198.114
43.9055 66.3082 236.628
18.5834 111.096 154.891
33.1051 236.993 432.874
32.7784 154.637 440.481
36.4844 146.558 77.613
38.3214 123.543 179.173
15.3479 126.859 175.86
40.4044 158.278 321.659
31.5015 126.932 366.116
32.4467 193.275 307.313
26.0681 138.016 49.2531
35.6086 144.391 148.632
32.6569 206.279 69.073
36.6352 137.931 154.913
23.597 155.744 424.709
24.2734 225.779 78.8567
16.5961 49.3365 224.703
65.9295 84.9476 172.595
38.6728 164.733 411.741
22.7148 215.218 35.305
30.4249 226.47 32.7705
19.3523 52.4063 445.557
45.2696 156.106 334.14
38.8225 208.394 291.577
43.6624 204.504 289.459
38.0081 156.726 310.434
47.4786 132.867 336.476
30.748 42.3949 392.263
35.3526 179.122 223.603
22.2113 156.549 103.85
36.4691 155.788 156.291
41.7227 43.6512 227.912
45.6583 257.685 104.874
20.9849 104.63 166.594
26.4709 193.972 59.5654
58.1427 71.3987 151.874
23.2796 128.47 219.177
35.6261 153.959 176.021
23.986 163.085 438.252
44.5866 102.57 172.08
44.8822 225.309 77.9127
21.2559 165.29 302.867
28.7012 208.263 108.537
20.9646 177.084 172.77
48.1443 219.931 94.1121
19.995 244.504 279.28
34.7823 98.8421 175.685
37.9563 161.414 335.02
58.2299 86.6672 182.425
67.0488 71.7888 148.972
31.5033 176.677 122.917
32.9278 138.646 196.173
40.1586 241.134 107
38.3821 162.655 229.06
25.7439 230.864 53.6123
32.2118 204.843 390.468
33.2069 176.595 61.1989
37.5921 175.148 159.733
20.7638 175.929 105.718
38.2092 213.557 40.6208
39.3077 213.031 114.536
24.9308 294.664 268.463
18.6233 263.934 207.667
32.9845 276.223 122.994
18.6989 138.093 305.486
52.2099 198.45 105.472
27.6475 215.779 273.111
47.9725 149.971 377.492
22.436 283.547 324.414
29.6897 202.794 357.297
34.1351 69.7388 413.753
15.7938 155.28 216.076
45.9446 146.963 384.07
14.7965 170.291 87.1391
44.7083 247.116 405.656
46.4916 226.671 424.241
25.4737 156.549 369.99
40.4994 125.679 403.482
38.3623 86.9173 450.43
37.4941 227.991 144.864
37.1507 75.1741 460.347
48.7052 226.971 87.1843
27.8305 241.018 431.552
23.3856 182.824 104.371
30.0395 113.408 163.569
62.3198 88.6278 149.789
15.9846 163 210.197
19.1619 159.99 50.798
39.8692 162.814 96.3101
40.1044 52.7154 246.753
31.1645 169.608 85.3467
37.1509 252.762 137.61
45.5029 176.481 194.68
38.5844 267.655 131.073
22.9746 204.941 109.036
29.5396 121.442 322.061
52.0822 237.577 84.8691
40.9198 227.13 423.288
29.4671 236.515 48.1537
24.9508 184.25 316.06
19.7603 227.899 384.654
39.7852 151.091 85.7377
68.8213 92.016 161.817
55.2388 84.6936 176.681
24.6047 271.899 129.811
36.2843 77.2503 429.813
20.5696 194.045 373.927
14.785 57.5135 438.726
34.2488 233.245 111.467
39.6834 114.6 199.881
38.7141 196.672 231.842
31.4391 198.009 112.187
32.4048 143.487 197.728
43.2086 196.504 236.827
48.428 179.526 131.628
16.7217 52.1358 213.283
22.6345 259.669 279.962
30.5606 176.711 74.4398
36.9102 250.77 130.799
31.1305 178.865 158.226
40.2675 213.143 57.8636
72.7283 80.4354 167.789
32.9159 152.272 29.7204
21.0725 173.223 176.996
41.3441 79.5982 446.07
14.9862 169.367 217.688
45.5802 172.501 398.871
31.3403 183.004 170.716
28.2887 21.6 415.743
29.6187 140.38 235.753
32.6941 176.563 149.647
35.565 252.664 424.396
49.3753 170.234 219.887
30.0487 102.616 166.167
35.544 224.005 389.72
31.7253 221.002 107.235
35.1197 183.219 25.6166
42.0371 118.558 195.645
58.3742 213.656 110.372
44.2495 148.5 95.0365
14.5004 194.791 87.1183
39.2061 173.93 152.973
37.2444 215.435 224.223
27.075 111.561 221.934
53.5207 205.69 124.625
40.3635 144.744 66.5006
48.4692 163.005 217.409
42.5124 218.43 116.266
15.7831 185.976 103.052
51.6733 218.01 100.663
29.3126 168.66 119.677
40.0393 233.491 432.389
14.929 155.407 50.7698
52.4025 181.661 112.339
15.8595 101.418 59.1083
26.4735 225.886 43.6193
35.4415 252.925 410.707
20.9795 168.554 386.276
20.8759 45.7579 228.803
33.1814 152.163 190.886
37.8294 163.43 175.803
40.3653 279.838 143.864
58.1779 210.779 105.783
41.3937 156.033 48.4676
20.5415 99.6435 56.6836
41.282 59.0943 235.151
22.9175 120.012 328.342
45.0044 149.153 409.668
34.4339 106.671 182.376
39.1477 153.622 80.9728
28.8422 167.497 24.9489
35.1467 176.674 44.8293
57.8102 221.566 104.139
37.6331 150.008 304.897
27.8303 173.929 436.451
25.0418 209.832 356.637
35.2252 125.961 348.231
34.5698 168.944 336.409
29.8113 63.9338 396.222
47.262 199.779 225.967
23.4704 185.651 109.839
20.8815 103.71 198.896
38.4622 180.013 38.3725
39.6759 243.367 63.9836
18.4816 198.499 345.258
21.0668 142.402 55.2368
61.9155 53.8675 159.477
38.2592 239.416 159.003
27.8534 161.352 23.4427
40.7116 153.9 160.709
44.2038 160.722 203.012
24.8193 123.928 368.984
23.8902 62.4976 396.318
17.0145 253.412 356.525
16.4466 1.23685 48.1536
41.7378 72.5359 248.228
35.9368 259.444 166.131
15.8347 261.533 346.502
23.1878 196.84 111.353
48.0769 216.351 272.721
24.009 151.719 409.077
19.9126 25.106 217.534
18.291 185.334 324.237
16.3883 45.5039 402.995
22.8261 267.781 210.758
49.5613 157.9 406.289
19.0937 13.5358 124.761
21.883 221.645 50.909
29.997 124.076 399.715
45.4371 215.325 267.212
31.8946 167.635 374.705
37.2959 65.2041 403.946
23.5475 217.251 380.579
17.2757 144.81 435.842
38.7708 252.217 416.093
39.1432 118.487 345.038
19.916 150.938 336.427
18.5937 77.6012 387.76
36.0039 78.7463 469.858
22.4613 174.481 291.959
36.4479 36.9059 435.346
28.9773 127.602 354.221
21.9774 153.384 67.4537
43.2076 143.244 415.001
15.6931 26.1396 214.651
24.7748 173.058 421.839
19.5554 236.709 400.82
45.8792 177.173 110.832
35.4959 282.882 138.962
37.3123 162.281 368.856
19.5273 202.656 356.868
15.2925 120.647 96.336
45.0651 230.429 413.118
45.9345 164.754 425.072
17.9778 178.231 44.1238
43.6285 133.133 84.0966
17.4098 106.749 399.743
27.0335 227.846 62.9466
36.6371 268.329 113.018
34.3885 174.209 133.291
60.995 222.287 107.65
14.5345 207.524 86.6578
34.7652 117.959 343.993
27.2368 183.891 292.097
32.1807 208.883 226.657
45.5339 238.886 410.988
41.6541 173.143 164.487
40.0205 148.57 39.8627
34.9498 159.195 230.933
38.0828 277.432 122.647
18.3343 152.378 48.1486
40.1537 93.501 171.733
42.1083 209.677 42.7859
16.3341 188.288 307.269
16.9871 84.5407 440.29
44.6676 178.007 137.891
28.3575 248.927 404.998
41.4851 267.016 115.229
22.7993 194.251 354.386
17.2793 190.147 202.862
44.5221 161.645 430.867
18.3712 151.43 408.707
29.8091 214.855 226.42
