ply
format ascii 1.0
comment Created by Open3D
element vertex 1091
property double x
property double y
property double z
end_header
44.6846 230.353 91.7171
28.8308 102.934 251.975
29.1839 139.114 261.365
29.7871 152.745 238.651
70.162 194.775 261.951
34.5156 88.3889 237.72
45.817 127.962 100.134
34.0048 155.054 222.745
29.5952 212.687 84.0447
48.6559 152.857 199.599
71.4193 221.546 211.722
29.4783 198.876 60.3371
60.763 162.001 204.886
28.9918 170.867 92.9655
43.5622 263.522 213.796
40.632 163.393 218.732
35.7769 165.962 242.846
52.5336 175.899 233.005
29.7568 221.141 79.43
58.2162 245.565 151.085
58.2366 133.603 217.77
51.8278 273.99 273.865
31.3935 239.957 49.2452
43.1626 277.06 228.634
29.9422 249.186 97.0875
35.9462 228.184 151.199
33.8473 250.435 290.826
27.218 217.77 254.953
27.6469 121.196 243.324
31.5356 199.479 233.261
28.0096 208.01 237.329
28.9343 137.51 253.137
47.3486 117.98 248.523
27.6125 112.26 246.436
49.1547 241.222 86.94
29.6195 180.177 78.5491
51.9133 238.51 299.099
31.049 170.115 131.913
30.4197 99.5963 221.765
37.6897 142.389 278.603
28.9027 179.223 129.658
45.0082 80.5696 228.137
67.0647 119.518 104.718
35.3383 145.432 207.924
82.4738 240.062 135.481
37.6677 203.774 31.9403
27.7553 171.271 83.8716
35.4664 221.938 281.453
90.8192 195.557 239.864
32.8662 144.079 269.685
29.0889 98.1471 236.641
30.6321 186.558 57.0479
40.5083 203.232 259.245
47.3849 183.117 22.7207
30.7678 310.104 210.354
31.8481 257.131 101.859
45.1305 79.1692 251.965
27.7436 227.46 267.794
54.1412 153.658 102.523
42.2872 89.2767 270.952
53.0576 242.648 74.7419
36.9592 133.633 204.259
56.0581 315.959 227.966
35.8274 258.599 62.3323
57.7373 209.033 280.561
37.12 135.656 104.166
65.4667 128.251 53.1455
50.6111 93.9649 277.888
61.3043 258.79 132.318
51.458 282.238 266.568
73.2032 260.076 77.2561
40.1729 81.2083 240.41
28.7352 226.395 254.757
32.4045 192.448 143.579
55.0312 103.415 255.378
29.6288 234.751 70.602
33.9602 103.81 210.495
75.4633 154.805 210.126
49.1786 256.293 131.46
37.1498 263.546 102.971
70.7825 242.215 284.592
40.2941 177.853 89.63
29.3905 254.459 83.9842
50.6491 121.285 77.7425
29.9308 93.4548 247.271
33.781 213.39 156.311
77.0685 240.766 123.318
46.328 232.171 78.5333
46.1505 300.465 224.534
30.1641 206.676 69.5463
34.3011 138.718 89.1912
56.9602 316.234 252.741
71.1325 119.074 65.27
57.9288 322.279 245.46
29.4963 114.074 269.684
30.8218 232.004 81.819
28.0897 286.541 238.875
52.6512 142.859 86.9104
43.1043 252.17 233.107
38.1461 150.405 51.6792
28.9117 233.328 260.513
78.9408 156.942 221.968
29.8716 245.983 275.679
29.0352 113.431 224.103
45.0876 141.176 118.352
72.1061 269.146 293.151
74.4043 233.71 201.374
30.2527 172.783 122.504
40.369 125.758 199.809
57.6353 125.021 206.803
43.9931 128.208 65.0263
45.137 192.787 22.9058
53.7097 268.478 77.5877
47.1638 162.471 275.998
59.7728 244.193 274.889
64.1845 293.383 279.901
69.2898 176.245 134.837
29.6769 252.313 196.069
56.4353 130.168 265.934
44.6408 170.942 229.468
46.1129 254.78 220.795
27.5302 260.984 201.116
26.6144 247.134 259.096
80.6805 250.724 133.249
43.9905 261.082 298.698
30.6746 170.279 111.383
41.6562 175.059 145.433
76.419 140.003 50.5181
30.8603 214.762 117.49
42.8241 135.735 58.0907
36.294 197.91 240.785
30.3634 192.409 110.218
70.284 141.394 228.595
67.6916 168.961 51.9398
26.5569 260.727 222.413
63.2168 93.4702 272.523
29.5449 284.829 263.424
29.1702 283.773 194.276
43.5442 198.474 250.746
30.3732 201.687 117.046
53.3979 128.406 106.51
39.8027 154.282 271.75
26.7557 271.787 235.817
30.3697 229.372 230.352
42.0038 247.617 41.4616
60.4219 86.9083 262.769
28.922 245.361 202.491
40.9487 220.575 91.2784
56.301 141.696 191.343
29.8268 213.016 214.174
27.5858 270.083 208.145
29.421 247.216 72.223
56.8847 158.394 145.278
75.8352 149.964 41.0064
29.2825 222.346 93.4685
86.2355 177.411 157.25
57.5488 238.784 168.407
56.1064 115.354 198.177
52.7992 118.821 264.268
28.0748 186.472 118.569
60.2543 157.641 28.2041
47.2255 227.929 105.406
39.561 156.69 208.43
48.6346 198.822 256.333
31.6523 114.424 214.387
29.4344 222.938 275.504
32.0517 257.09 71.4526
29.1163 129.389 267.202
36.2112 119.563 280.91
60.9251 177.904 239.817
29.8073 191.781 98.2349
54.6956 268.813 95.5167
61.8504 291.075 192.732
28.695 268.444 280.507
29.8929 234.047 98.5378
47.2293 224.633 25.1517
66.1566 219.301 119.85
29.8824 289.006 186.466
79.1066 164.344 253.976
31.4314 209.875 140.02
60.8608 179.405 131.522
61.032 315.458 264.867
55.8018 137.368 123.656
62.0162 271.295 75.185
70.8103 236.314 276.312
29.0054 318.506 218.805
51.7843 171.778 222.04
48.9129 142.015 195.922
32.1656 218.255 42.8701
44.8924 288.358 234.552
65.9373 175.834 230.732
64.6722 223.976 163.061
27.9679 228.654 244.274
67.0479 104.83 277.829
70.4601 177.139 241.804
56.1778 108.988 261.845
87.008 159.469 150.486
28.2286 228.63 213.863
37.9891 128.998 88.2584
32.6722 92.1525 259.1
29.3479 230.516 52.1024
28.3807 246.511 189.379
31.7491 159.59 55.4412
61.1561 151.068 195.151
39.8048 221.065 27.0597
72.3632 244.279 146.665
45.5962 132.815 195.32
52.2424 128.53 244.397
29.9329 255.96 283.446
54.0198 159.839 111.286
34.0054 232.482 40.6124
42.8354 176.188 98.2867
32.4445 213.417 268.983
27.1295 110.321 258.913
44.5457 308.33 185.907
46.5585 265.437 83.4737
41.4229 169.258 31.1635
43.4763 261.881 238.038
70.5226 147.261 200.988
29.7484 305.473 254.316
47.5959 262.053 120.59
27.3765 278.857 226.501
46.0906 243.718 235.589
52.5931 263.688 63.943
32.0369 244.468 107.944
31.3189 122.352 274.243
29.676 227.559 62.1823
28.9601 289.21 251.874
52.1438 274.77 195.233
52.1432 102.598 225.647
55.289 78.1375 246.047
48.8527 126.192 253.368
51.0292 248.311 41.9869
54.8752 289.163 267.115
49.738 171.507 27.3934
57.0339 183.324 19.8157
29.1877 173.66 102.201
41.0541 142.529 200.203
34.8191 150.211 251.795
61.5714 323.014 259.524
64.6691 134.648 271.701
32.5606 160.866 235.98
76.8519 170.729 226.814
64.5717 135.192 204.909
48.8149 130.597 239.269
30.9207 132.101 211.477
58.1972 244.799 302.139
30.611 201.844 105.801
54.676 108.887 207.9
29.5726 219.412 51.2052
47.8604 300.009 213.865
42.2293 209.444 24.6548
32.9488 261.97 82.7766
42.1234 133.593 283.843
56.7869 170.392 266.961
28.3386 248.894 242.255
65.4648 230.965 212.517
28.2372 216.834 239.903
69.6893 142.049 237.906
29.7367 299.741 267.529
29.2918 223.53 197.746
36.2401 100.238 273.531
39.8579 244.986 292.867
67.2889 312.62 194.855
30.3291 163.498 64.4358
58.8451 250.807 143.298
41.2193 59.7671 284.805
61.3812 123.521 106.528
51.1581 145.545 127.55
28.1004 209.456 253.141
70.967 166.056 213.472
66.0565 166.981 271.954
27.1829 108.286 231.561
43.7959 123.137 285.934
29.7982 102.209 268.096
59.3973 243.906 36.1816
29.9778 289.639 274.206
30.3813 207.654 128.236
29.6631 183.703 90.1832
27.7106 220.945 208.239
73.4927 252.019 140.76
52.4213 232.518 55.5832
74.3617 136.456 60.7921
61.1501 165.072 156.126
32.5209 178.283 141.769
66.2742 172.38 222.096
30.8434 163.257 72.5014
52.1045 181.402 160.959
40.0365 164.16 255.482
46.2072 166.336 95.6335
77.0936 159.037 262.226
52.0966 231.926 159.032
65.262 140.068 195.38
43.9449 152.32 38.9419
27.6082 250.448 222.714
58.1773 307.802 181.799
33.1699 244.773 122.948
76.211 196.361 271.879
28.3789 315.392 235.342
51.6934 296.794 261.401
64.8883 253.366 139.946
43.2789 267.223 222.4
34.1383 172.314 41.8465
29.1439 243.895 63.3353
65.7278 254.004 80.6716
32.3773 268.168 173.275
26.7798 305.021 227.567
73.629 157.414 33.0912
31.7621 225.192 125.776
40.1182 191.408 105.23
50.0763 168.767 150.999
28.5514 293.928 236.372
72.0629 149.146 284.292
63.9424 238.878 155.863
30.8082 124.718 218.231
29.2055 242.06 265.857
61.0216 328.006 234.699
54.7362 227.848 112.123
33.4581 151.413 61.9457
40.8964 162.117 36.921
36.6426 45.8488 337.532
69.1615 140.224 287.911
41.8358 103.072 199.761
65.8761 221.611 292.381
60.9225 232.285 297.668
31.7665 175.816 50.7055
74.0677 122.495 85.1008
77.1072 153.668 252.627
69.996 175.726 162.808
27.2298 123.812 257.124
63.9354 136.735 226.756
78.219 193.966 164.018
47.5469 115.4 286.266
31.1462 161.905 123.11
38.0622 180.984 29.5083
49.0374 153.032 134.195
30.1548 277.014 187.383
47.4567 193.704 60.5724
74.8845 153.742 274.796
47.647 243.033 225.24
70.5134 299.205 187.854
32.6232 119.691 205.004
29.7351 241.172 180.398
48.8791 282.906 298.687
34.6642 180.04 38.7021
51.6815 133.495 251.316
49.8694 150.449 283.725
50.6317 235.895 101.163
82.6952 188.786 141.424
60.2353 297.283 295.038
32.421 279.411 179.786
30.8894 144.853 227.092
38.1237 211.016 273.691
80.6027 231.884 287.211
54.8825 194.868 245.912
45.3924 221.173 78.2622
36.5243 311.806 272.492
29.5062 164.533 98.8515
27.3787 222.663 234.784
52.6288 253.554 139.012
47.8242 208.964 275.52
27.3718 278.189 215.913
72.3277 190.336 245.302
43.3797 212.543 84.9381
52.9641 101.813 200.401
73.0181 208.777 38.8434
30.0261 217.643 65.1396
74.6061 265.062 65.9779
44.2956 203.261 80.4203
34.8167 215.436 193.174
72.737 211.279 230.726
57.1197 241.197 61.1622
56.0963 262.752 165.838
68.2948 306.024 182.057
29.4955 235.799 247.983
55.8235 138.653 240.666
32.178 159.928 248.496
58.6222 222.655 292.172
28.0005 62.4436 291.639
61.8437 267.913 116.271
44.3475 292.741 222.667
43.7338 250.145 241.834
44.4925 35.7357 320.622
30.2312 305.241 218.523
53.2907 166.969 212.55
56.0254 217.648 181.724
29.5692 178.709 114.199
27.9612 279.927 243.889
27.7692 240.916 254.773
27.6855 303.502 240.255
64.0374 170.632 130.39
53.0376 91.0991 214.985
78.0412 168.569 162.177
27.1252 137.486 244.154
49.463 307.899 229.936
38.7663 165.763 232.062
45.8039 231.898 292.776
38.8116 307.464 339.435
52.8506 100.601 70.1327
72.4524 143.196 274.131
32.68 142.197 218.263
61.6112 176.146 253.545
55.6301 233.997 240.401
44.3212 100.761 281.993
43.5222 273.747 210.55
30.2038 308.523 198.268
80.2156 158.912 243.658
32.7713 251.164 51.0396
54.3978 245.183 97.3669
49.9025 314.274 336.564
52.6007 326.032 205.23
37.0198 147.988 119.39
28.0622 236.53 216.196
75.2623 169.224 43.2874
59.6455 249.2 75.7676
32.865 229.057 140.388
30.4251 243.825 82.4718
48.7316 108.04 233.486
40.1506 225.442 159.638
45.896 114.569 228.126
75.6348 255.244 303.259
29.9599 163.032 107.246
29.8022 203.479 88.1162
32.0164 144.344 241.008
33.7132 203.914 249.671
58.2693 234.705 156.906
46.7116 154.087 85.5169
37.0765 141.996 110.818
51.698 308.12 219.719
46.7182 284.189 251.112
58.3122 147.889 138.608
26.6731 257.612 245.062
49.3483 190.964 121.346
40.476 12.2312 321.875
76.9289 172.575 247.38
43.7499 166.903 85.5719
39.5299 182.827 79.5092
58.8057 264.767 59.1906
48.8372 221.03 289.847
74.0918 226.829 33.7989
38.3736 263.844 89.8924
26.69 235.764 198.566
45.2124 202.859 205.003
41.6753 286.788 223.428
32.1137 135.032 275.228
30.7227 239.873 280.003
69.5299 190.316 223.171
56.6656 263.039 123.702
39.5156 114.451 75.9693
31.3475 170.758 59.1384
55.6622 284.98 298.538
29.4446 163.172 79.9689
35.2745 223.157 36.8246
61.1253 89.3855 251.362
58.5127 271.161 86.662
34.6152 154.557 261.094
62.7573 137.58 131.51
70.0606 200.538 274.947
56.2689 282.477 192.913
38.9298 114.177 199.812
46.5775 332.436 242.442
41.2865 193.582 303.432
29.5668 191.114 127.768
64.1581 252.185 284.724
54.5731 213.017 164.758
70.3886 173.399 256.678
68.6876 136.758 45.6078
82.1841 205.705 155.8
38.5881 329.252 227.467
74.2521 166.948 264.674
53.5683 106.462 240.069
29.8495 128.958 235.376
53.9478 229.491 294.487
55.9469 267.803 194.137
55.1558 187.454 164.689
31.243 218.087 107.117
78.6174 260.334 124.451
87.4415 219.55 284.35
28.4776 144.49 250.842
29.9191 80.4726 310.333
42.5865 204.855 268.571
50.2419 252.899 209.276
43.9745 291.477 212.501
60.6748 274.965 284.284
60.5339 132.331 294.741
82.8225 141.594 128.442
34.7192 239.87 137.019
70.6022 133.43 279.503
54.3563 136.062 291.852
60.2241 59.2258 306.412
29.177 297.805 219.512
80.6333 171.944 141.361
42.5776 322.926 207.053
54.7584 91.2428 224.163
29.7898 174.519 67.024
85.3868 205.748 237.215
65.1559 286.443 284.536
53.2202 122.602 221.114
77.2174 268.387 82.4478
52.3942 83.2179 267.06
66.6902 303.02 194.713
42.4301 256.089 247.113
48.0832 117.189 237.647
40.8299 274.203 296.499
29.1619 239.92 231.844
48.5447 134.62 288.211
64.4697 140.333 213.877
85.1083 177.536 146.025
69.0624 150.387 58.4509
26.5468 236.251 207.063
48.1481 276.965 203.67
29.2013 247.648 211.438
30.4217 135.56 228.428
32.6628 312.948 265.475
49.2409 177.89 56.2733
80.8397 211.825 248.424
47.9217 163.859 103.299
53.0998 266.091 303.829
59.3605 295.822 272.719
65.1763 252.783 307.241
62.2322 105.656 269.014
80.5543 239.99 293.933
71.6905 190.4 136.258
27.682 256.001 233.828
46.8098 270.682 258.819
38.8341 157.433 45.2329
29.8754 205.031 97.182
33.8279 186.962 44.9198
55.6561 249.035 166.411
54.2879 251.573 201.929
88.7115 230.569 144.184
44.8552 163.299 264.93
55.734 150.053 32.693
74.0385 212.938 31.388
67.6733 244.179 305.426
55.3348 259.964 196.477
49.6785 252.594 300.784
58.6283 227.653 220.33
50.5582 77.3605 237.147
61.3083 116.024 271.49
51.3874 172.28 254.869
36.4513 134.297 74.7163
57.6356 122.756 215.131
76.5752 153.012 135.241
53.8537 105.091 288.212
66.4804 113.821 278.613
52.7703 108.547 217.29
61.1119 142.457 36.6988
70.4926 143.678 40.3834
32.4766 324.007 232.103
42.5538 212.236 107.303
61.927 126.673 273.891
81.7619 238.1 146.812
85.7989 152.813 141.52
30.4661 275.621 198.165
57.4601 334.447 230.809
48.5063 273.517 265.779
36.5269 161.657 133.758
52.4017 310.509 238.835
30.0763 159.475 91.8513
40.0127 194.826 229.557
52.3375 121.471 256.414
60.7494 120.329 62.7638
44.6704 291.584 294.036
36.7495 191.66 35.5587
40.3563 204.598 90.5365
89.4281 191.894 252.363
52.0906 211.838 57.4017
46.1245 247.107 168.519
85.3164 166.318 157.675
81.7114 211.912 210.095
65.1325 240.423 52.7247
52.2752 207.237 19.1306
35.1552 187.843 151.678
46.6742 325.401 338.242
43.9387 265.534 106.171
42.9011 214.341 282.369
70.0549 280.7 289.435
52.7634 202.582 263.173
29.2062 280.978 206.104
43.05 141.565 51.1849
28.6497 287.763 222.833
29.7744 242.723 90.3611
52.3689 223.527 163.712
85.1513 143.265 139.563
66.2604 151.01 33.2269
65.7578 177.793 20.7579
36.1961 139.953 64.4432
68.128 209.326 282.872
83.9685 196.672 156.577
49.2287 92.6061 69.6112
58.4012 354.74 338.914
48.9123 266.15 204.166
39.0347 235.691 173.315
55.4723 245.492 211.026
31.0342 189.599 135.755
56.5735 82.5678 230.179
66.1842 134.991 71.3349
62.9261 276.869 303.935
42.0075 31.6129 336.031
33.7625 264.86 292.552
66.2375 187.324 20.4852
27.8265 59.1815 301.819
58.1903 332.128 248.833
27.1367 218.204 228.763
75.0296 146.169 242.222
49.137 302.094 248.817
57.0293 80.1354 255.175
65.1043 254.084 166.099
28.7837 213.856 224.195
54.5208 128.507 191.026
30.2097 315.937 316.019
61.6701 254.893 197.472
50.1706 194.127 237.908
32.9856 207.273 260.125
89.3429 219.266 192.309
73.5087 129.692 52.0475
45.8615 257.507 262.291
73.2659 254.352 190.099
67.9128 266.918 122.702
49.0029 236.062 172.887
63.2559 137.781 238.136
75.8758 174.244 35.2535
60.9611 128.044 196.782
45.6076 299.531 234.26
59.4184 147.284 289.747
64.1765 192.315 169.132
42.0372 282.446 215.035
78.8447 265.264 167.836
43.3266 262.925 248.266
58.8833 219.489 115.882
38.8896 325.914 213.76
39.6795 201.86 103.969
56.9146 241.853 107.208
49.3781 308.572 248.573
72.2505 259.085 133.573
72.6506 213.25 214.886
88.5192 189.778 226.917
75.9424 149.76 50.8385
29.7772 267.083 192.747
59.5529 253.461 92.1408
60.6515 134.606 44.1894
42.7066 262.421 230.723
64.3683 213.236 168.724
36.9774 292.795 177.753
56.3862 114.766 290.245
72.2833 275.301 301.233
67.4938 203.777 187.454
87.3889 204.906 210.129
67.0143 234.332 29.7248
70.8934 139.601 260.755
60.4124 208.27 189.124
77.3262 143.818 145.608
29.3685 225.468 221.826
59.2091 215.836 165.197
43.7663 86.4968 83.3282
35.3202 165.874 48.761
44.3472 231.621 157.56
62.364 326.524 219.29
56.9303 229.249 26.7774
48.5997 122.232 229.633
63.1675 200.56 265.916
40.1259 263.192 168.716
49.4846 350.327 337.173
61.7572 231.041 46.3215
57.7156 308.323 210.074
27.41 269.19 226.185
29.145 153.571 89.1312
79.1647 207.697 216.649
76.6403 150.67 263.531
74.4189 165.704 30.0118
68.0052 224.31 24.7634
61.1712 274.585 185.973
36.4298 86.1709 252.196
29.6345 251.919 178.479
62.932 270.81 166.082
66.812 248.109 198.495
29.2897 153.411 82.2555
28.128 109.739 238.167
59.8018 192.351 233.712
28.6424 298.129 199.275
48.9776 66.1954 242.252
63.1302 261.015 284.865
68.5106 130.914 124.805
67.2796 274.281 88.9751
75.5274 209.409 223.3
54.711 121.025 96.4936
31.7865 199.05 153.201
71.5196 259.612 89.8066
63.573 213.907 284.678
46.222 330.591 219.729
39.541 92.7704 68.1735
77.259 266.518 105.779
54.7622 332.464 215.886
87.2286 221.312 181.904
55.3169 224.424 47.3278
54.4968 324.294 340.321
59.9851 252.503 41.954
26.8688 136.772 238.046
57.1738 127.732 50.8291
53.8622 123.343 291.549
29.1095 189.613 67.7969
70.6969 274.957 101.918
75.5321 259.369 295.981
87.5079 216.238 200.174
31.0293 299.98 185.629
53.8592 256.539 52.4528
32.3035 145.377 71.9447
45.8949 308.873 286.198
69.2303 231.957 300.836
57.5563 282.977 276.608
31.5639 152.422 119.086
51.7224 266.194 109.063
31.7294 94.0986 87.155
85.0758 230.755 185.209
49.3134 242.12 253.53
65.4211 301.589 286.664
64.4215 147.961 146.159
57.5029 238.966 29.6065
66.8715 263.596 187.505
75.6768 158.467 157.227
66.0254 281.998 185.205
46.3987 304.715 242.027
49.5915 169.679 111.378
80.4902 219.729 260.868
75.7222 249.204 293.946
75.3659 165.623 139.432
46.3656 267.907 251.233
30.5619 157.029 102.267
62.881 220.47 19.5872
44.8807 259.629 65.8117
53.5158 299.724 176.611
58.3269 138.604 230.694
45.0076 174.676 108.05
79.8923 217.725 206.538
74.597 267.986 119.985
70.6108 213.714 239.246
62.109 208.394 20.1158
30.2163 124.855 227.127
62.4383 261.573 306.97
47.6172 243.507 147.657
46.5745 224.21 175.655
56.9445 200.077 19.1255
48.4672 154.799 94.5946
29.7992 237.393 223.832
28.9724 238.123 240.761
69.1955 185.272 165.482
59.0393 229.275 172.089
48.3235 214.751 181.929
41.3818 150.531 127.67
81.6605 223.381 278.124
45.7294 236.419 30.9639
48.1683 110.853 63.9051
76.3199 235.799 192.046
70.7232 208.904 23.1116
46.7273 288.999 172.897
28.8047 265.489 271.653
51.7304 295.527 296.441
87.614 212.589 184.514
78.9924 249.868 120.092
30.6018 181.852 66.214
31.1088 210.031 45.9086
31.6631 230.805 114.251
73.3742 245.877 47.6739
85.4715 193.268 260.024
32.3937 7.75957 308.704
29.9308 274.605 271.66
45.0912 240.488 297.61
74.8396 186.626 227.502
52.2393 238.444 213.28
63.3557 115.78 80.2381
47.8001 211.311 113.552
50.5655 128.168 55.684
67.265 138.265 137.207
72.3073 237.562 43.4516
69.3483 209.064 127.483
70.0346 138.237 102.408
77.6104 267.705 97.5842
65.2269 125.849 291.451
64.4298 262.095 52.0427
63.132 311.177 271.645
76.4714 275.725 168.831
29.3258 256.189 262.929
29.5666 262.795 179.959
29.8841 235.494 270.99
29.7665 97.7691 68.9196
75.1961 127.439 103.598
85.0021 226.508 174.668
60.8554 272.276 107.49
90.5807 209.978 268.854
28.0795 217.518 267.673
54.3141 175.73 245.939
60.0633 244.863 206.04
64.5869 222.242 176.144
31.1214 317.776 204.16
43.0556 300.006 178.737
57.6101 315.676 217.569
39.8286 298.542 287.041
56.1633 95.9712 232.881
51.3896 107.941 247.307
59.721 172.377 53.1883
53.606 300.214 204.003
55.426 197.331 207.999
46.2605 324.136 267.819
39.1198 323.189 258.941
80.0011 131.252 131.052
47.7158 98.5221 93.8355
30.5047 196.824 48.5501
67.195 211.496 184.093
69.6813 258.093 101.972
30.9949 276.732 281.9
30.1929 154.008 71.158
69.0683 152.03 151.03
83.7071 144.185 146.494
36.9742 201.493 212.107
36.9275 258.643 119.437
77.8083 167.354 239.951
35.0096 197.353 221.252
76.6095 230.371 277.52
62.148 272.141 97.1671
29.8938 209.9 103.596
49.9447 161.016 64.9901
65.5442 310.069 276.734
61.1112 199.824 196.162
53.4173 176.141 122.147
31.8279 197.728 41.814
36.6137 311.629 188.202
77.8322 247.252 193.421
52.7804 202.836 197.697
37.4068 165.472 90.4564
73.411 184.252 24.4967
31.3707 222.574 102.331
68.1492 138.572 219.635
85.6968 169.833 148.996
54.0238 133.527 228.886
68.8146 123.366 283.775
41.3548 253.839 51.8931
38.8979 93.5794 211.091
53.6734 323.951 273.723
64.5358 251.095 103.881
53.4245 256.463 279.068
28.9326 31.9323 332.561
80.1707 187.579 217.084
53.8465 121.029 63.4399
42.7567 242.292 35.6352
27.4767 254.533 214.867
72.2646 195.204 30.7574
52.0755 142.337 41.4677
64.9839 246.362 63.5756
53.9453 287.049 168.771
29.1216 256.129 276.111
56.9901 295.342 198.881
74.7368 226.539 158.853
59.6572 317.575 277.388
69.3667 222.967 41.4386
64.7589 136.971 96.088
33.0917 230.404 283.499
47.3047 113.208 194.924
81.0978 252.286 168.916
72.3326 295.725 175.729
81.275 224.281 203.495
69.7668 246.572 37.2628
62.6955 140.67 254.054
36.5437 250.619 127.992
32.8116 212.152 145.826
30.474 262.842 186.606
44.1441 317.975 197.498
80.9592 252.905 181.941
71.2157 236.056 116.988
47.4611 161.186 73.3683
58.8759 140.726 93.6727
60.7354 97.8135 262.11
64.2927 315.24 207.856
53.8297 314.244 284.278
55.9045 322.566 194.874
66.2583 238.196 167.507
47.6885 206.712 193.477
50.4382 214.729 281.801
34.9665 257.179 171.242
41.8591 246.645 145.667
53.5937 305.144 290.884
56.9405 101.816 79.9427
85.7821 219.533 272.154
80.7079 194.397 266.353
71.7907 233.586 169.414
69.2644 188.069 236.869
72.7255 249.554 56.379
66.4795 199.719 130.954
57.8365 304.422 265.568
38.8488 232.179 288.135
73.7477 220.679 255.116
47.1381 36.6141 330.381
53.012 157.97 281.454
53.0843 314.33 188.024
48.5761 84.1186 217.426
78.3706 178.139 160.347
84.4068 202.64 274.824
52.2586 128.295 225.247
60.7571 132.465 258.041
37.4598 26.8219 306.32
71.213 159.746 131.413
25.3429 23.9059 313.035
36.3754 277.756 172.877
68.0246 256.186 44.3473
68.3385 245.339 113.887
29.954 160.875 114.432
32.7785 209.297 205.131
34.8255 325.333 245.085
44.3704 216.67 158.581
46.6485 266.838 96.3132
35.1158 285.869 288.573
89.8052 200.703 266.353
31.1676 184.303 300.293
39.1853 354.177 334.839
69.2469 264.496 163.496
66.3089 268.169 64.0856
70.3878 243.471 182.905
72.9529 256.166 69.5288
77.4061 224.458 296.267
38.302 227.377 181.112
34.367 38.8639 307.889
75.9188 205.148 280.475
56.4568 326.851 265.671
70.2907 146.024 209.773
62.6031 169.058 25.9917
35.5348 244.766 171.924
41.447 211.933 188.342
59.5363 98.011 283.33
52.6702 115.254 214.096
42.3701 167.49 140.474
78.1175 184.052 234.395
68.0363 162.212 279.287
66.4754 165.022 124.413
85.9785 200.415 219.212
44.863 273.944 241.664
76.524 257.785 113.843
67.2478 144.932 63.0462
80.6215 160.153 140.464
82.6859 226.095 132.187
91.2122 202.815 257.002
43.5021 200.361 218.062
70.6074 225.6 262.528
62.441 145.21 102.222
76.9563 240.844 304.694
57.9602 230.23 257.2
58.9477 280.615 165.804
51.5228 276.031 165.922
89.6307 208.989 201.564
55.7346 110.942 73.2896
29.4274 195.416 308.125
57.0378 99.1133 241.315
38.2345 24.1799 329.083
37.4853 89.3459 222.939
84.7861 220.191 149.556
53.3611 227.715 174.856
64.2887 195.227 19.456
62.0426 153.753 61.5521
75.3672 243.927 165.818
53.647 241.503 264.61
56.3701 98.5888 249.235
80.8615 224.025 196.34
39.632 151.604 201.087
46.9214 93.227 204.066
51.8902 217.377 21.7744
78.7489 188.442 254.623
58.8366 136.307 87.1546
86.8454 212.602 258.11
60.1342 161.429 58.5038
51.2204 282.633 246.573
38.6316 104.351 60.5466
49.5222 285.127 200.454
52.8352 208.138 118.403
47.9645 259.015 165.781
47.8689 42.8539 296.007
73.0933 190.554 210.05
48.2236 194.694 225.824
61.3005 327.355 205.94
51.6031 200.121 56.5889
71.5267 266.481 182.213
89.2845 206.251 250.537
85.4443 207.696 146.34
76.6845 126.358 59.8353
53.0162 303.953 338.792
71.3169 229.852 206.386
68.5811 236.764 204.657
46.2714 167.824 242.957
48.2814 177.043 119.755
76.0499 179.337 30.1178
58.4699 179.576 165.478
48.1145 329.373 260.66
78.6234 161.015 231.829
89.1603 195.265 218.544
37.129 201.689 156.811
36.8555 60.519 318.647
46.208 60.0624 316.986
63.0241 209.003 42.2131
48.9104 357.062 330.616
72.3249 273.486 80.7536
70.9438 289.916 184.37
71.4359 273.591 70.7293
74.1029 150.529 230.667
75.2008 245.774 198.732
73.239 276.939 178.953
85.3308 203.551 229.687
70.7267 246.245 203.812
46.5154 45.887 327.965
30.3462 147.189 80.6811
51.3354 228.707 233.966
79.2215 260.94 177.815
71.0834 252.658 63.7743
65.3979 110.556 287.519
62.6394 237.121 267.001
40.9572 78.4249 317.406
74.6804 224.297 173.22
38.0189 35.9489 301.42
51.5767 250.004 272.445
35.2709 77.7371 315.005
76.8256 212.789 289.14
30.8146 84.3389 302.2
43.2307 277.72 168.652
47.1977 248.653 265.041
73.3183 208.256 162.868
65.9276 195.854 202.953
85.624 191.832 209.798
76.5247 208.847 181.953
82.5491 228.525 152.035
37.7076 71.5601 317.822
70.6782 202.028 43.2271
73.0532 284.817 167.894
38.5868 78.2581 300.305
85.3484 243.243 180.112
57.6706 217.711 286.302
54.1918 46.5706 306.106
84.0812 202.713 189.443
39.5637 320.898 340.909
85.966 229.049 191.589
72.4187 260.725 52.5852
82.1742 239.733 173.808
44.4955 108.134 86.5886
74.6465 199.247 192.349
62.4194 297.782 172.791
75.7221 182.156 138.883
28.2004 195.47 317.034
42.5868 74.4387 326.912
35.6985 183.175 315.239
65.5486 231.322 115.346
36.0214 262.574 220.215
73.1831 143.957 267.008
75.4777 214.524 157.722
54.9367 159.351 276.617
67.82 286.853 296.193
83.2797 195.65 199.025
78.4369 121.046 105.85
30.3656 191.136 74.5598
35.5672 86.9725 303.82
55.4055 307.541 261.719
57.067 88.6013 243.167
31.6898 199.255 81.4785
31.0736 272.819 254.748
78.4368 153.419 235.38
47.9834 293.902 246.307
39.5752 122.978 260.663
65.2352 149.725 249.479
36.1686 205.696 225.907
39.2111 197.817 89.7892
44.2592 45.8344 286.278
66.2883 130.589 83.8306
52.7685 60.4758 320.545
65.6156 304.597 341.11
55.9803 222.5 236.38
57.1415 187.845 129.563
30.9052 229.421 190.633
64.0709 131.461 91.2523
81.0017 185.439 242.795
61.6515 159.369 122.668
79.2948 132.037 115.224
62.4448 161.901 116.321
37.9055 229.454 283.555
32.2033 205.966 223.535
56.2618 202.375 143.004
39.636 124.16 266.249
37.7752 97.522 74.4891
63.1375 323.822 341.417
76.4861 149.507 121.15
66.2521 158.691 202.376
40.5416 106.201 83.287
36.2708 146.412 97.9271
87.2558 193.064 149.34
77.0471 147.963 268.331
30.6736 278.277 256.5
63.0892 287.887 294.771
