ply
format ascii 1.0
comment Created by Open3D
element vertex 838
property double x
property double y
property double z
end_header
32.7807 125.017 225.523
44.9175 154.476 202.127
29.1788 92.519 186.813
37.2627 53.5668 236.785
42.7285 228.822 60.8477
49.1178 27.6233 220.41
52.9294 95.0399 128.395
48.6127 66.2936 264.682
42.3554 93.5826 265.912
29.805 224.157 75.1404
48.3989 30.9377 174.88
40.9109 34.4163 221.396
67.3972 39.2826 252.559
28.4598 96.3756 240.799
59.8623 132.942 240.646
67.5662 16.4708 210.747
67.3869 159.267 191.805
29.2541 231.333 48.6859
51.7379 141.983 154.463
76.5149 38.2387 244.765
32.3844 241.84 43.904
33.0941 133.689 223.967
47.002 68.9415 134.945
48.0059 40.0531 162.971
35.6421 130.241 176.413
61.372 100.631 126.774
54.0995 137.087 143.709
54.7863 161.707 192.119
32.9679 193.879 88.156
53.2199 171.792 77.3494
32.8255 42.8098 199.945
28.1771 81.6347 210.109
28.9538 60.4361 199.829
59.202 97.5706 198.696
36.6772 36.2551 192.814
30.6742 231.804 87.5948
50.9037 35.3311 239.067
30.2902 212.898 80.3149
45.2049 220.739 75.6371
68.9752 28.2906 154.236
33.7039 108.837 178.894
32.1301 251.636 61.547
42.2038 116.973 142.98
29.9035 88.0813 249.075
62.6677 158.168 179.944
62.5608 82.7649 223.682
35.0251 43.1115 186.16
28.7257 93.5953 199.023
93.5344 28.8752 164.289
34.1159 50.0748 179.189
80.4848 42.1308 234.532
49.2628 172.213 67.6612
30.2262 116.82 228.643
65.6125 127.081 136.127
60.9937 141.993 150.554
32.1309 222.797 40.7854
65.2686 26.7315 237.628
64.5846 137.856 143.501
30.8493 91.5981 162.233
67.393 73.7267 227.094
54.8558 160.4 182.189
72.9213 134.739 141.478
45.5907 28.814 184.75
30.0649 107.717 246.155
74.5169 58.5957 226.45
46.6613 146.005 161.319
32.6 207.724 102.292
72.0117 172.667 94.3268
69.9608 253.31 36.0443
38.8262 143.147 187.76
41.7612 150.076 178.997
30.2194 242.815 58.0484
28.496 88.4621 176.358
49.1117 153.104 170.327
30.5148 113.702 203.749
39.2122 148.169 205.784
76.1223 51.175 231.052
39.2119 188.923 96.189
99.2258 41.9466 164.824
28.7951 58.2321 208.261
30.0411 84.7605 193.474
78.4401 24.1356 233.54
69.3949 88.5392 178.887
31.9433 74.7675 180.373
53.8878 150.204 163.096
72.6055 77.4062 249.863
65.0395 146.349 157.329
78.089 47.7891 242.715
45.7475 188.475 105.907
55.0535 244.819 66.199
55.281 176.607 89.0175
57.4054 100.157 208.922
74.2263 16.0639 191.001
47.1181 239.772 75.7712
41.5188 246.411 105.004
28.6624 85.3931 202.877
41.0895 138.148 159.888
63.9576 47.8887 260.347
84.9858 99.8436 172.485
30.0925 113.241 192
39.5823 115.33 150.502
53.2657 23.099 210.607
44.5175 180.333 79.8087
36.8251 138.643 203.124
54.5387 77.1222 132.195
32.9162 45.6247 221.486
38.9986 63.4285 149.691
65.56 98.3658 257.709
84.4153 114.486 134.855
38.3265 124.521 149.399
45.217 81.6688 131.68
39.7692 262.67 54.3549
30.5968 246.906 76.2967
30.315 107.477 160.878
62.5432 21.7261 220.939
53.2304 126.906 142.363
38.5145 39.7945 214.891
29.3229 64.9499 184.851
42.8706 39.4866 230.288
67.2052 238.436 32.7633
30.7343 212.626 90.6863
32.1662 63.2492 165.077
49.468 159.212 208.676
30.7009 64.6063 227.52
37.7476 98.6609 145.854
60.9304 127.378 217.272
58.8317 144.199 238.629
73.5449 122.822 133.482
60.6886 122.771 234.368
52.971 56.5221 261.55
42.9589 152.347 217.94
45.3358 213.261 71.5619
33.9619 119.225 247.527
43.0561 74.5879 261.791
71.4076 140.631 152.005
30.2667 68.2117 204.854
74.6661 139.125 196.052
45.5951 147.314 211.471
29.3954 103.391 200.24
77.1186 100.819 174.406
62.594 147.405 223.329
38.5089 111.992 258.512
69.2247 166.497 77.8816
65.7491 152.62 162.786
34.0158 196.282 59.9158
37.9852 231.116 116.805
38.05 40.3253 207.067
29.516 81.9789 234.663
29.1183 95.3439 216.753
72.3884 114.174 129.064
62.8766 132.181 209.157
75.9723 16.2735 200.92
78.1098 15.4082 211.101
50.2128 86.6882 129.626
30.6599 105.577 151.629
76.6104 17.8738 222.463
33.1935 215.434 109.963
94.805 80.6237 166.943
67.7142 148.874 211.313
41.3305 54.1193 157.361
85.0547 24.7294 226.488
41.3946 217.655 58.0856
28.6763 105.279 238.085
36.0358 128.436 159.48
42.0976 36.7723 185.43
82.1004 79.193 124.417
34.2347 58.8933 172.219
54.0861 186.651 49.092
31.0127 200.882 80.5013
78.8189 22.3274 161.267
90.7983 130.234 152.435
100.566 48.3549 158.177
63.8801 112.606 244.472
64.2766 180.248 99.8834
34.5331 196.299 99.8009
28.7546 236.829 68.8254
44.7438 153.729 191.077
41.655 144.194 169.994
47.5872 194.799 56.9505
59.294 204.949 25.4215
91.8557 81.9977 127.691
66.7043 85.1827 264.012
31.8913 244.255 87.0249
42.7476 51.4468 252.353
73.5492 156.443 180.357
46.9917 237.527 64.8243
30.8777 208.132 52.8868
54.2114 74.9044 270.248
57.2626 32.6029 163.807
29.4147 99.5176 181.714
74.4904 178.783 67.6246
30.4404 111.543 214.306
33.0974 49.5106 207.234
81.2635 53.5861 132.236
42.5171 47.0215 165.736
65.947 78.4392 190.999
37.1803 131.743 236.313
47.0557 255.657 102.999
45.2164 230.709 81.2429
29.0844 74.4798 166.728
102.106 77.6981 152.001
30.1857 97.9699 158.644
32.1557 98.3646 172.575
46.9349 197.306 138.673
49.5216 248.581 111.457
83.4294 42.2607 217.474
27.9867 70.1672 191.952
34.8335 133.2 185.293
69.4822 81.5627 257.973
62.6691 16.6775 200.121
30.537 115.635 238.397
48.3538 235.458 118.13
49.1929 155.081 179.77
60.3431 188.712 61.8476
31.8078 55.7258 230.114
73.9235 119.527 187.597
81.6155 84.1251 172.899
94.6648 35.7254 198.15
49.7499 102.614 268.643
57.2927 96.4931 230.822
66.1807 23.3497 227.245
45.8881 41.1225 243.751
53.9241 160.284 216.503
42.7865 213.021 46.623
79.5198 51.991 199.364
42.1347 65.1603 258.784
55.6342 230.593 124.746
45.8204 30.3227 213.777
63.4864 153.643 213.941
37.9016 187.951 75.389
81.5033 31.9422 234.525
71.4559 18.4778 178.476
64.2907 183.092 50.304
36.2153 47.8528 213.887
83.8195 189.524 92.5569
63.9111 92.1222 121.161
46.6586 255.846 34.1513
40.3828 33.0747 210.679
95.2836 37.0214 156.987
30.4469 82.7407 183.944
34.0088 65.8954 156.243
62.2206 34.0633 247.489
69.8262 19.0484 218.852
34.9117 233.96 34.0438
39.4491 194.891 109.19
58.8471 195.184 80.8563
30.4878 118.42 182.673
42.0888 45.6732 239.412
73.2767 153.83 167.806
28.64 108.495 230.456
53.112 27.0705 231.5
46.7351 136.083 149.817
67.265 87.4925 239.576
69.1173 279.284 65.3882
30.5643 59.8449 220.936
28.1215 126.244 216.14
28.9439 220.069 54.8875
31.7724 100.478 192.194
75.3147 88.2016 123.327
52.7417 41.8631 250.744
55.8532 23.0768 221.403
42.9125 147.566 226.846
28.8048 77.0698 193.467
29.4133 71.5893 237.346
50.8774 21.6529 188.5
73.7147 199.174 118.883
57.7091 66.3448 268.175
32.2258 230.812 102.181
64.2507 111.015 128.73
82.4151 103.637 127.137
74.9813 92.6109 172.693
42.916 143.216 237.783
56.46 46.9811 258.132
90.2471 98.6091 130.241
58.0552 7.47123 5.41193
69.6816 82.1732 243.321
30.3361 107.358 170.161
34.8285 10.2548 74.7616
34.5837 241.743 97.1692
73.6229 152.322 192.307
82.8432 140.488 170.701
39.1767 30.9714 199.228
29.2615 102.503 220.517
29.4711 81.3961 161.615
39.795 137.215 232.821
70.2606 92.3361 121.983
71.6799 23.3078 233.425
34.2633 130.014 167.532
61.6863 231.209 45.8692
84.4874 27.0464 168.23
74.6868 49.1311 128.433
31.5857 120.225 200.746
60.1588 23.397 230.775
60.1439 87.2459 207.229
73.0774 33.232 144.525
62.8938 86.4571 197.608
28.0843 99.5776 230.409
52.1751 57.4474 102.665
63.1771 226.678 33.693
30.5435 94.1293 226.32
29.7662 7.61525 81.4889
59.7965 18.6245 211.829
81.2519 16.9901 186.97
28.0074 112.513 220.904
30.4479 124.718 186.743
30.5191 107.254 208.887
37.5838 137.833 169.902
32.1649 187.442 12.2578
78.6848 151.329 175.541
55.6143 123.078 134.975
68.0819 240.872 42.4808
28.8847 90.8636 210.862
34.2319 123.072 237.781
31.9478 64.0592 240.372
80.4376 36.3703 153.067
71.4275 266.173 47.6688
41.5485 131.783 152.491
94.458 26.5025 195.659
53.0943 244.97 91.8394
32.9527 197.74 137.632
54.2339 112.76 264.745
62.7295 39.125 146.647
74.3327 148.048 157.394
30.6021 44.7006 99.1989
71.1173 211.586 124.413
58.2271 117.341 221.488
85.8558 137.527 180.757
38.0039 46.5526 227.119
39.8926 262.666 64.0122
64.1624 107.392 255.137
63.1416 140.03 231.133
60.5025 207.149 124.353
78.9762 42.2973 136.141
56.8818 84.2727 218.482
63.546 95.5417 187.348
56.5137 50.2583 100.707
35.1267 3.19011 17.3285
71.5424 23.2136 161.399
44.5485 25.4356 194.469
58.4221 86.3675 229.924
30.9583 56.738 182.018
59.5446 151.815 166.468
46.9602 269.151 76.0177
30.8055 203.074 92.4693
47.9104 52.6137 141.61
56.5357 21.6277 176.666
58.98 259.126 33.6088
41.8715 212.287 62.0168
50.4961 185.249 141.763
60.8918 203.588 92.4211
34.5871 58.382 245.612
90.6142 118.239 147.14
53.3771 161.893 202.192
91.0064 39.7238 207.235
41.9121 256.711 93.477
60.739 106.627 264.122
68.9965 85.4029 251.288
68.2194 115.589 192.246
46.9799 267.897 46.71
98.4789 53.7308 142.71
52.9212 63.2902 133.67
91.5718 21.5361 203.456
30.156 201.478 71.0835
69.1143 144.343 204.608
95.8632 71.0273 169.163
55.2935 9.14481 100.047
45.1962 127.202 144.687
48.4469 26.3468 201.768
58.3948 122.409 205.59
80.8539 150.597 163.648
61.006 128.4 229.953
57.5056 20.6505 189.919
32.5292 183.77 3.06021
39.4133 82.3822 256.41
92.8131 31.8375 208.177
60.8862 117.261 256.917
97.0539 27.7847 183.834
52.8746 40.7523 100.065
28.8854 234.294 74.3407
28.9417 113.903 176.538
89.8051 70.0449 130.194
34.7177 2.18973 93.7658
34.3108 111.617 250.988
47.6835 45.4392 154.063
29.5552 14.5461 93.9602
81.1959 34.5711 141.835
32.5636 87.034 223.969
71.4993 30.6591 244.013
31.339 218.261 100.439
28.9472 75.5978 229.871
37.2254 51.3843 169.646
73.7846 84.3962 173.604
59.2419 105.546 204.675
44.1249 185.456 124.541
59.5052 130.712 141.201
94.882 99.405 161.16
60.8013 82.3295 269.886
37.0137 52.5849 104.876
67.022 64.2894 224.017
67.2697 103.987 185.094
57.6534 63.3347 128.603
84.6861 92.3 170.13
44.7933 182.809 91.3074
50.127 272.537 53.7424
64.1994 82.4056 184.72
89.4835 54.5498 133.296
35.9867 255.777 82.7493
32.8578 101.585 166.262
74.3992 72.463 127.824
51.6053 174.691 48.4657
29.5357 85.5643 167.725
61.9416 106.275 194.502
71.141 73.2766 257.452
64.5956 69.2099 124.355
33.426 200.053 118.443
62.7703 88.5172 190.083
30.1524 82.6132 218.702
45.0639 113.604 263.442
83.5379 198.783 114.536
65.1596 260.258 70.9929
63.7621 116.894 199.329
36.4013 66.2269 254.494
37.5767 98.204 259.604
45.7385 81.3488 267.873
82.1921 86.8455 129.641
61.4991 28.8967 153.534
80.6518 52.3574 217.475
92.4657 19.8396 187.484
29.9226 52.1677 218.249
94.4268 92.2097 165.62
78.3852 27.8027 152.544
34.2385 132.42 195.356
54.0206 122.845 260.874
42.2109 181.873 66.2987
40.3678 125.177 255.274
29.7879 99.8774 208.127
73.1626 60.457 197.214
97.633 73.247 161.186
31.5054 49.4491 191.892
51.8141 200.134 75.1631
43.1161 244.603 29.9845
80.367 136.59 189.126
95.7188 106.59 146.516
65.7374 189.271 114.732
63.786 93.6766 236.322
54.6419 40.5691 146.686
54.3229 183.515 103.14
55.3782 151.965 230.47
29.7469 57.0441 191.841
58.4305 233.568 95.7352
38.0134 146.706 37.3916
55.589 209.707 91.2726
72.4783 70.9812 235.964
70.2449 77.7086 236.996
57.6197 222.439 42.1802
44.0869 23.5387 81.3962
90.9151 46.0248 198.312
68.7983 155.204 171.658
83.8816 146.868 178.598
63.6226 168.487 76.3795
47.7075 47.9311 105.147
41.2761 222.349 25.2463
73.1662 170.685 58.922
55.845 19.5755 201.937
60.0602 78.2276 214.324
86.171 78.3027 169.51
72.9182 48.8912 254.895
62.8036 3.47953 16.7311
27.766 76.4957 215.689
45.7841 199.837 49.5285
59.3877 130.268 253.118
60.3118 275.66 54.4739
76.6538 108.232 128.302
50.598 147.487 239.522
46.9941 201.665 66.92
54.885 104.266 221.963
60.122 258.185 110.581
32.8064 190.872 129.282
44.1852 79.4263 140.199
88.8333 57.5983 183.638
68.2208 81.6936 120.893
83.9754 16.1095 199.672
83.9483 49.1521 205.64
77.2906 74.9361 179.848
56.089 251.494 29.4541
29.3694 70.8208 173.33
85.5175 21.4079 218.109
61.8438 159.431 204.414
85.0839 17.4563 209.623
58.7352 104.921 216.315
83.4867 62.3426 184.971
85.4063 44.2112 210.532
57.2038 156.241 223.206
95.7231 89.6581 137.348
46.7773 227.047 120.015
68.5974 73.3177 243.969
94.0541 206.818 110.153
51.723 89.9858 272.102
74.4132 78.8556 122.245
93.599 108.311 162.553
71.1267 178.039 55.1296
30.1618 71.1529 159.964
62.5888 228.556 22.697
65.7583 101.114 249.92
69.4073 69.0693 206.566
96.3039 62.8947 141.045
60.5298 112.716 233.633
73.9683 69.5962 184.014
83.3458 62.4436 126.168
62.2199 119.986 133.057
81.4621 128.594 184.842
68.0603 65.6968 230.982
56.8458 111.967 130.084
94.5366 53.5453 181.573
59.385 119.337 214.981
32.59 131.34 205.621
62.5838 257.736 93.7954
73.7526 146.495 196.465
97.0493 55.9906 168.302
101.503 41.5485 172.856
37.1611 22.3018 93.015
55.3953 189.415 33.8099
66.0326 82.292 232.073
56.0376 52.3447 134.807
68.5316 182.415 61.3169
57.573 88.5754 123.011
82.1371 43.273 147.596
58.2574 168.461 72.7592
30.6117 70.9466 244.732
83.9029 56.266 191.233
90.3462 140.406 164.805
44.2133 241.667 111.135
61.9376 23.7355 169.11
77.8374 61.4423 189.213
87.2213 34.1522 158.77
45.8435 61.8081 97.5223
61.2261 93.39 265.41
50.9156 131.726 256.449
58.2481 31.2741 239.743
31.6171 83.5312 147.387
67.1102 239.901 97.4995
59.9391 92.2757 224.84
92.8789 117.916 155.42
67.7998 75.9814 266.351
62.7455 118.876 240.448
100.85 65.0665 156.144
42.5427 219.291 117.347
88.5214 70.1516 173.055
63.367 135.189 219.174
90.757 24.8105 212.456
31.0006 116.492 168.86
39.4132 42.817 177.234
37.8803 205.389 113.706
34.2761 116.914 161.678
82.2635 64.6049 177.035
94.7839 222.088 107.727
41.7646 135.035 247.343
64.5448 78.5745 199.067
66.6295 259.561 111.139
73.435 61.4039 234.627
68.6399 248.997 48.0972
71.2096 78.6829 182.231
82.7469 143.741 188.253
91.6741 130.965 166.524
60.9327 112.281 208.749
67.6974 76.8148 206.426
90.4225 31.134 218.78
44.8025 231.768 22.4119
89.8347 121.63 169.925
98.1471 103.818 153.661
65.7397 222.753 97.437
66.5165 156.854 202.219
60.7575 100.826 225
32.2208 85.3674 239.768
32.4797 34.2932 93.8573
42.126 9.2426 5.22175
58.881 92.0583 202.985
38.866 140.407 224.64
65.0533 106.775 238.544
82.6874 123.749 136.668
39.7144 62.6552 84.6133
69.2079 151.043 199.921
73.0649 67.3698 252.869
76.338 127.758 189.289
99.4105 49 176.631
69.6042 98.2604 178.712
49.7942 112.869 133.918
71.0413 102.4 126.113
100.872 72.2834 141.773
100.081 91.0125 148.177
66.9376 91.4514 247.4
29.9159 62.2119 214.622
72.0185 19.5979 169.407
50.3264 48.8016 74.6677
52.7288 207.458 36.26
62.4845 125.479 244.078
53.3314 224.477 92.9316
82.492 128.533 143.795
66.5363 68.8846 218.558
36.8968 289.675 229.017
71.9691 74.1633 190.296
28.7909 74.3472 205.269
71.8662 255.854 51.646
95.3784 100.721 138.158
34.1762 74.5449 247.008
30.1452 221.846 91.3234
54.4876 271.578 88.0323
56.4433 192.222 117.025
68.2906 91.3566 255.33
57.8638 103.424 233.395
38.3836 71.4124 143.322
58.4057 255.058 74.5601
63.3428 16.504 189.455
61.9019 115.499 228.434
47.507 198.568 23.0361
44.1468 39.1218 171.143
51.4303 10.9906 10.0249
90.7895 90.0285 129.386
70.684 56.7584 258.576
78.6181 54.1985 208.592
53.7703 237.615 53.5104
73.6144 52.0444 219.74
80.4475 70.1052 128.371
72.468 49.627 152.377
42.3058 262.814 84.1141
75.6304 113.395 183.389
35.2018 63.9754 232.756
53.4608 266.794 99.4408
68.1648 14.9345 194.896
97.1925 80.6956 137.973
37.7517 235.734 108.419
98.3246 85.3322 158.068
45.9583 8.32044 71.0238
101.016 81.0474 144.339
60.8307 117.831 207.357
77.9473 150.824 186.743
35.0906 93.361 148.912
93.2481 47.5675 142.164
81.1699 137.569 149.344
45.6254 267.988 228.538
49.7443 14.1681 72.282
92.3388 126.386 159.379
36.9055 57.8532 159.946
62.4763 244.535 25.9345
49.4146 10.9239 19.8849
63.3189 58.8037 265.429
41.0156 34.8216 84.1434
53.9829 220.976 15.9247
89.0625 53.8672 188.686
88.5826 126.751 174.709
49.2673 277.286 232.817
87.8561 214.677 102.456
30.1484 119.861 213.641
36.6395 2.15129 25.3993
45.6369 4.65743 28.3636
47.3081 105.207 187.23
90.3169 48.6224 190.919
61.7934 115.085 250.933
59.3728 280.02 73.3817
58.0758 8.31066 22.127
81.9056 172.23 83.3291
76.7327 186.629 108.999
65.8495 266.458 39.7451
65.2639 79.7397 218.845
73.6636 219.531 125.264
86.2536 18.5966 179.102
36.8989 6.71252 10.3983
67.8116 123.009 198.786
37.1543 198.169 43.8968
80.0247 240.796 102.213
100.878 55.571 157.854
47.7383 153.32 228.639
83.7673 258.204 107.344
41.2874 13.5605 73.1057
68.8665 72.8677 198.811
38.2126 93.1425 140.996
57.2405 197.708 29.9985
97.2086 41.1074 147.713
42.7614 259.949 42.1754
70.9982 66.3926 199.546
70.4626 62.7603 217.768
52.1153 140.365 248.729
35.4428 78.3964 252.085
33.1782 73.1087 218.832
76.7595 45.8961 221.178
99.0014 32.6471 170.852
75.9834 187.1 84.3032
66.4318 130.742 203.575
64.9765 250.053 57.6307
75.4285 57.7206 215.687
66.385 97.6201 241.967
70.6963 129.662 198.547
66.8678 74.6682 213.64
71.9481 228.403 125.556
70.3582 65.5526 262.787
82.8782 175.199 97.4745
35.3999 118.655 192.536
84.346 26.3713 159.288
93.1665 76.0401 134.495
67.7455 136.676 202.023
42.4954 184.41 54.7336
30.8415 43.4351 77.8445
49.7096 272.107 64.8594
73.8635 109.342 177.791
87.2433 35.5423 222.189
33.7025 256.28 49.6181
49.3531 4.23662 78.8084
94.6549 60.918 134.106
50.749 183.323 30.7687
74.3629 252.316 98.7313
67.6474 169.454 49.1504
68.1958 248.456 120.567
80.1751 140.88 154.104
54.2549 244.138 118.943
59.0566 94.6882 219.803
74.859 65.4098 192.954
39.2351 139.348 212.308
82.7148 215.733 120.892
77.5586 20.9015 172.698
92.3859 221.249 116.923
50.8395 226.166 47.38
79.7849 72.9102 173.702
58.4367 258.293 83.4593
36.019 213.774 34.6952
100.378 33.0735 177.592
97.2921 92.6914 155.104
93.5883 70.144 140.168
84.7735 128.013 179.494
53.1089 251.851 80.2196
76.057 209.437 101.642
41.9458 187.886 46.1254
48.4531 204.724 117.872
85.4089 19.6636 167.98
32.9267 188.716 149.87
75.6239 273.235 103.573
41.1183 1.83616 75.7767
47.6734 198.312 38.4785
58.7995 169.94 52.7761
66.8867 104.047 244.39
73.3988 60.0388 210.296
78.343 168.935 75.4067
64.7258 139.824 213.037
32.84 153.006 45.8507
61.8776 237.592 124.389
64.3271 33.8187 143.001
74.6613 230.824 99.8473
91.1122 59.7368 177.812
56.0029 192.582 20.4987
35.654 15.8515 100.798
43.7122 209.877 24.2488
46.4294 1.87207 91.6098
60.1693 2.49437 28.0038
40.0409 195.328 146.017
78.8608 198.643 98.7332
88.3609 142.369 172.435
90.4911 21.1856 171.278
60.0116 80.9875 204.303
74.7244 237.82 124.485
86.4762 226.732 102.728
81.6665 44.9691 227.898
67.4525 41.1321 141.309
56.5797 265.361 41.6529
28.9822 84.0248 155.418
99.7628 56.1114 150.66
49.8949 62.2611 87.7888
81.3127 121.47 178.314
62.4493 265.398 105.264
84.7331 36.4761 228.223
70.9732 66.5898 241.041
46.9377 19.7315 74.6067
33.2448 133.846 213.448
88.2734 108.675 143.583
59.2289 216.596 35.5156
71.1197 60.3543 204.548
92.9931 118.705 164.377
87.6772 122.757 139.278
70.6588 63.1378 246.815
81.3417 115.098 177.496
59.8805 135.043 227.428
54.6492 39.9623 153.095
71.2337 67.9242 214.152
32.1844 108.837 192.35
67.2477 164.532 68.4695
84.9864 230.609 122.605
54.6008 115.101 141.714
47.6197 14.6596 97.736
66.618 187.548 67.0591
72.4574 128.576 193.594
42.2758 24.1429 92.9988
87.9275 241.347 118.349
52.0139 241.399 23.9299
89.195 113.71 172.72
88.6239 106.652 169.822
81.8646 109.139 175.05
51.2095 58.9546 93.9271
80.1451 182.183 82.9118
77.3834 95.5146 128.037
37.1941 109.266 139.688
85.8618 105.047 136.497
84.9341 138.972 159.884
30.9709 276.746 215.276
55.0334 53.2746 81.0182
64.1327 80.9485 208.397
54.558 269.129 44.2028
70.5172 272.537 65.3713
87.4475 245.411 103.777
57.6313 100.015 266.046
39.3764 271.302 236.457
43.9921 49.8682 80.6745
70.4239 51.4559 244.251
38.794 134.667 50.4774
58.0609 265.966 46.985
49.4358 101.055 136.968
80.0177 250.627 119.038
70.8532 263.24 58.8523
68.9572 52.3726 133.456
40.9804 251.272 43.6022
44.5117 104.217 136.771
57.4153 221.614 124.364
67.6849 188.126 74.3629
55.7898 215.011 30.5642
33.6769 135.668 50.4492
36.4381 100.103 247.628
91.273 236.86 108.992
31.8505 72.6712 224.231
32.9977 141.778 56.3619
85.1342 186.066 108.019
96.6794 43.5251 191.077
32.6315 1.06772 5.97665
69.6351 273.52 104.097
71.5964 260.37 115.566
33.776 35.3145 84.8848
66.6477 61.2078 126.392
37.3928 78.3653 151.834
92.086 38.6259 184.597
52.0819 93.4829 210.489
75.115 262.38 98.4418
54.8379 178.324 32.5184
