ply
format ascii 1.0
comment Created by Open3D
element vertex 497
property double x
property double y
property double z
end_header
38.1034 141.368 161.204
33.506 157.7 170.338
38.9097 251.045 151.613
25.1501 202.654 122.683
33.4786 210.337 151.54
43.3406 182.793 97.2149
26.3109 59.3563 158.809
22.9742 206.887 132.502
66.1408 207.755 151.349
28.6194 169.826 153.403
24.6163 143.328 151.329
71.2772 221.767 127.935
26.8247 209.368 25.7716
31.9257 179.666 108.254
53.8792 252.856 129.181
25.3313 203.657 242.925
49.5785 220.313 92.7439
47.165 256.693 135.638
34.1719 41.4466 124.752
18.7149 75.105 142.683
65.2395 198.905 154.111
40.7593 150.228 137.046
47.5487 219.299 112.89
23.8238 84.6831 144.62
27.7597 48.5379 149.023
50.8276 57.27 168.493
72.3837 41.8178 119.901
72.8889 49.8214 131.247
27.7411 236.276 127.227
65.8644 245.024 144.431
28.6943 137.352 159.982
46.4577 22.8174 150.151
52.6386 218.598 103.533
50.483 236.081 117.861
20.4004 53.1897 132.688
29.8297 245.213 170.319
36.9569 233.543 117.708
25.6735 77.2554 154.382
38.8393 87.426 96.3846
20.83 152.19 163.016
49.8895 31.5474 86.6092
20.1691 61.4786 129.673
43.0885 260.057 161.661
56.231 81.9998 158.251
68.5406 66.2291 151.574
62.957 105.605 123.744
32.9006 188.517 110.677
26.4056 145.275 166.832
28.468 79.2329 95.6437
17.3632 61.1257 112.155
31.1901 250.244 152.386
33.2997 190.937 100.758
59.5265 232.865 159.913
30.143 175.257 143.17
53.9721 24.7492 91.241
43.5675 233.034 139.202
58.0206 13.7112 105.134
16.5575 188.796 122.309
47.8841 209.188 162.659
46.523 255.198 167.558
21.6951 271.754 55.837
31.7925 32.3396 167.434
42.4601 154.03 170.685
65.6496 253.373 144.485
58.827 200.169 96.5537
41.8869 210.87 100.398
62.7745 78.569 106.836
24.0517 210.27 235.201
28.5883 236.829 136.085
59.3973 186.768 160.575
24.4133 164.87 165.217
40.3162 106.133 134.229
32.8898 247.711 133.202
72.1744 28.3341 77.469
74.6694 57.0951 79.6552
46.0874 146.126 165.355
43.1211 202.802 95.0854
24.0694 80.9836 109.491
32.7646 165.45 174.653
66.3387 97.4954 135.516
36.2927 196.193 157.618
27.6495 170.957 133.994
52.7995 172.905 103.118
44.1216 233.594 124.052
17.1228 68.5847 149.077
33.0102 202.822 146.773
43.9692 158.827 133.848
52.8024 191.02 93.237
55.0719 173.43 169.645
34.9137 102.659 127.08
58.2343 37.0002 157.786
56.8185 8.42775 141.566
66.89 197.533 144.567
57.4466 171.442 151.917
66.5462 172.306 118.421
68.7286 85.3194 142.735
41.9811 100.045 114.669
20.7775 213.73 245.306
53.3405 46.2088 85.2222
37.0532 172.081 137.79
38.1335 138.179 147.808
39.5847 183.7 128.77
36.1652 174.991 169.26
27.1855 40.0483 138.714
72.0788 203.448 121.326
25.6118 47.6744 137.337
50.9718 38.0422 142.799
29.0245 21.2629 112.834
47.1871 141.039 154.889
39.6268 88.4173 159.012
26.3638 178.801 155.8
23.1583 20.1191 126.182
65.1773 26.5884 94.8875
69.4519 82.6232 80.5121
55.7455 203.161 70.9574
68.0379 31.6881 121.306
68.8314 243.059 133.454
29.7404 35.3841 103.585
54.7336 191.871 107.332
58.1222 79.7308 115.522
29.8993 189.809 144.728
31.4595 229.263 161.715
17.005 158.552 157.69
53.4671 52.0361 93.7855
29.0881 241.409 148.865
64.0556 206.826 159.945
59.0612 247.745 122.649
33.3571 43.0169 165.84
38.4713 223.262 111.071
34.9303 46.3615 102.059
48.9891 194.996 77.8335
21.5736 61.4148 138.852
72.8674 55.8312 138.267
68.7385 47.2475 75.5179
18.8146 81.9799 98.0201
54.9588 165.331 169.689
58.4653 173.548 106.817
45.2755 195.161 88.7107
54.6851 254.116 144.226
45.565 251.068 127.204
18.8503 192.26 37.4637
50.0476 65.8361 78.0055
45.1355 93.9587 150.616
50.2369 227.015 128.026
19.1117 202.662 19.0792
33.1344 259.917 160.503
29.7984 220.85 251.733
54.9176 229.044 113.708
27.8738 228.001 121.245
55.6295 62.9957 165.494
25.6275 196.824 129.4
36.4396 216.992 127.209
60.8322 98.1408 108.83
44.0815 169.899 124.825
58.3922 71.7194 83.7365
63.1372 181.813 153.834
40.3395 26.1554 134.45
44.215 31.3771 160.145
56.9903 175.284 131.933
58.3272 40.2852 69.4551
70.4341 57.8151 148.802
48.5263 55.4562 78.7785
46.6446 166.442 172.019
40.3982 202.455 161.976
72.7926 190.793 107.502
40.0421 188.794 153.439
37.6643 51.5591 163.878
27.4236 187.647 130.338
38.7943 99.9822 103.096
59.1711 104.719 116.032
49.5162 81.5868 161.134
54.0788 23.1087 162.387
79.9004 44.9836 114.714
33.3974 22.3548 132.217
75.0954 187.461 128.965
60.1401 164.422 114.193
52.7881 30.2669 75.9674
35.5932 202.65 239.547
19.3225 77.5983 123.679
36.0795 40.3706 94.9835
40.9241 183.668 108.135
35.4944 75.5797 158.831
62.762 25.211 82.4421
75.5745 25.3421 89.3087
44.4559 214.848 125.427
21.4781 186.439 141.623
33.647 195.815 19.857
42.5677 244.899 126.756
48.7585 104.879 128.655
64.1785 202.761 81.8254
28.9547 91.3837 112.533
25.0642 196.414 21.4944
53.5142 48.2053 167.439
57.888 200.707 87.5373
27.4982 46.0084 122.832
68.0652 212.969 79.52
62.6172 10.5834 150.589
58.0424 152.918 163.963
26.7067 232.653 154.463
68.634 257.152 138.773
36.3547 203.686 28.574
21.8749 185.874 126.603
40.0463 185.747 141.8
84.8632 176.88 116.99
17.1587 70.5516 128.108
59.4474 67.2172 159.256
46.0822 220.427 158.23
26.5484 40.0521 169.088
41.2931 211.001 164.77
24.2816 222.506 141.339
64.6439 239.752 124.138
56.6222 61.8332 81.3252
57.7504 53.5425 83.3862
37.985 236.408 165.407
70.6766 79.6371 134.412
33.5564 152.445 134.158
21.7094 64.8707 100.241
41.9437 204.125 132.383
34.6816 146.8 171.048
39.5143 33.0122 99.2144
52.6313 17.776 142.511
32.2511 94.5652 142.224
61.5483 207.593 75.2975
45.3162 239.271 165.007
35.3574 236.626 139.417
58.397 31.5019 72.0014
75.2235 89.8812 103.573
31.0879 207.017 141.433
48.6392 198.569 162.878
82.2501 60.3646 129.372
46.2497 223.736 134.419
37.1043 224.102 122.629
31.6026 176.234 99.982
53.0373 48.3826 69.667
70.5068 42.7438 140.591
32.2597 190.672 31.3374
51.3277 154.882 169.902
88.2207 80.8993 107.242
32.5848 75.3232 87.2171
60.8796 163.833 123.589
73.2295 214.446 135.634
61.0817 50.1524 164.385
36.7805 216.123 158.619
40.2717 162.859 175.853
30.4936 26.8134 106.872
45.9162 68.4752 162.252
30.4871 91.7043 132.738
42.6189 23.6135 99.2391
61.558 57.5161 161.162
45.2774 251.929 157.049
49.4152 246.441 119.194
40.7041 191.836 164.249
16.5456 84.6547 128.526
80.7779 51.8671 86.5229
36.9515 250.696 162.294
57.7826 103.619 137.396
68.8883 209.029 88.3003
59.2254 244.338 152.866
74.4875 51.9893 101.896
41.7604 174.2 175.586
43.5344 31.8655 89.9229
39.8292 20.3279 108.213
60.7015 195.455 69.3088
25.2889 217.343 136.593
29.5547 194.269 154.364
64.6622 195.268 130.839
20.5826 72.6511 92.2441
59.4551 172.286 163.322
72.4155 231.451 139.258
35.0896 182.406 140.383
31.427 87.1762 156.833
55.4915 225.179 167.082
67.8388 216.923 162.245
44.4971 183.632 167.034
29.5413 240.692 163.842
57.777 156.963 137.335
57.0619 206.429 163.008
63.7205 87.9916 133.946
46.9073 48.1904 81.3532
41.0169 222.173 139.841
69.0401 194.826 119.334
60.1993 154.95 154.461
66.8406 185.456 125.464
30.0864 180.983 118.252
25.9889 221.975 149.105
57.5144 179.425 99.0223
45.6886 230.495 159.39
62.6975 232.935 117.55
39.7011 23.8942 153.66
61.8 206.822 109.362
60.9116 218.832 163.625
56.3818 74.3436 160.468
51.0607 15.5847 107.832
80.3196 40.5542 79.1573
58.5646 198.906 104.884
54.8768 211.973 77.2305
49.5403 179.351 97.7472
38.8085 186.612 85.1648
19.4933 70.7603 113.593
27.9975 39.5275 129.857
47.6823 40.6305 71.8226
81.0611 34.557 99.3265
44.6765 17.5152 111.954
62.1518 22.9711 149.955
23.6118 178.189 145.985
65.4097 31.1899 140.127
43.4231 15.9865 124.869
39.1179 185.717 28.8765
52.2075 232.258 161.488
49.9333 88.5543 146.605
36.2638 170.514 128.944
87.5236 200.816 113.772
50.118 199.724 90.118
57.7054 193.222 98.4227
17.2178 219.32 255.974
25.6574 164.98 144.808
85.1991 80.6567 119.103
25.7961 25.346 122.1
67.3218 82.6031 95.4795
31.2781 66.8045 90.2538
49.4724 15.3981 119.725
85.4748 45.8933 94.3279
36.2645 173.108 93.8317
65.2656 80.6761 153.758
48.6982 38.1777 165.013
90.632 57.9156 107.396
23.7448 53.9445 146.572
72.663 206.627 142.679
60.2139 86.0518 147.79
51.7229 229.714 136.213
70.3608 94.5543 113.067
44.4259 46.5644 105.023
23.7713 55.2687 108.816
62.6848 189.034 143.531
31.4184 28.1843 143.777
29.039 224.266 266.375
67.1288 60.0985 157.179
40.6845 18.1387 136.051
49.5156 101.651 140.779
65.7085 190.894 111.356
89.9073 78.3888 96.5163
46.3107 4.511 289.483
79.9428 52.8407 121.431
49.5335 181.771 87.2656
46.759 82.19 90.2719
30.5103 194.683 137.116
64.3688 217.208 108.477
39.7919 50.0354 88.4434
38.6299 232.548 131.889
37.4042 165.22 143.072
60.1537 24.8248 131.147
47.3376 226.148 110.31
59.9519 159.648 143.727
63.1955 92.1951 100.295
74.0051 83.2112 109.757
31.9569 147.325 139.305
61.1982 163.288 154.718
36.1895 177.229 120.48
51.06 2.68424 287.206
24.6532 92.2744 137.585
26.4201 232.27 144.39
29.9171 140.478 143.581
70.9925 216.053 120.865
34.8398 203.177 154.039
45.3069 49.7092 167.899
76.4402 90.7968 121.241
59.9969 93.9133 143.646
39.538 140.788 138.432
48.7625 168.275 130.636
58.6123 183.578 106.305
23.9419 202.113 140.96
29.1201 186.609 137.52
64.8071 45.1868 150.901
72.7346 46.4185 147.865
57.6653 232.59 129.407
42.0813 62.2475 83.1126
31.5558 96.5053 105.816
66.2829 232.297 128.307
65.1451 237.022 152.939
27.564 273.673 25.8421
33.5447 98.0143 114.397
25.1192 182.545 121.845
79.6925 30.3854 79.2093
41.5502 34.845 134.366
66.7052 228.625 158.978
28.8894 183.229 18.1684
89.2372 195.883 121.606
64.6848 49.6014 156.042
79.384 32.342 108.84
68.4844 70.0049 101.22
30.2189 54.7996 105.243
69.1876 73.6012 144.906
25.9662 51.5157 126.438
42.2916 96.8698 95.1189
48.7805 247.448 150.584
58.1522 224.416 108.279
76.3121 63.5821 93.3185
53.4924 80.9258 127.203
90.6755 65.21 99.591
52.2995 188.026 101.335
26.782 177.564 128.711
50.8708 95.8623 106.82
34.2971 30.1246 153.088
59.4006 179.618 113.444
73.2282 210.242 113.944
42.0907 180.983 136.504
46.1094 169.866 139.376
52.4589 20.5754 151.414
36.7984 208.931 122.863
59.3363 159.559 166.973
78.1125 84.1624 95.5829
30.6549 56.9872 96.0885
41.3622 99.1442 143.544
39.9375 222.888 159.623
78.9044 178.348 126.065
28.9202 185.637 24.8813
64.7888 184.894 117.38
18.6144 207.82 256.742
60.2559 205.628 116.181
29.4502 214.017 123.991
20.8632 59.93 149.021
37.9756 177.949 153.026
71.2714 201.157 110.753
30.8164 31.3405 121.953
61.7904 184.062 132.177
54.377 216.599 161.118
66.796 35.5918 129.383
78.3802 68.2407 130.484
42.4764 37.3801 148.008
43.7776 189.666 93.9339
33.781 34.2533 137.503
72.8664 69.6235 139.466
50.5299 94.0829 99.5941
68.5475 57.7493 92.6563
16.9944 210.953 30.9097
21.6521 64.7178 154.629
48.7204 218.62 120.462
34.7804 174.62 159.534
67.8927 68.6072 91.0506
40.6325 181.809 88.9436
62.3046 180.833 146.934
33.6787 225.051 139.16
74.8579 211.85 128.923
72.5391 237.145 148.825
48.1131 72.3959 85.2988
55.0596 18.5532 99.4145
61.951 79.8012 93.5746
74.4049 230.203 149.79
74.3949 198.79 137.226
49.76 148.745 145.648
65.3505 14.5702 112.783
55.0418 79.5046 89.6084
64.8854 189.988 153.594
44.733 182.021 144.847
35.2581 162.837 134.67
74.3381 214.344 143.877
42.7948 72.4298 166.426
81.0676 200.554 121.205
92.2137 70.4992 105.962
62.7663 17.0945 118.817
59.359 70.5982 148.006
56.2193 175.955 139.151
65.5811 223.824 112.477
35.723 92.1407 151.184
60.2048 191.81 138.157
50.1067 69.1233 166.098
78.6244 204.844 131.008
84.6743 60.7804 93.2354
33.1724 30.1143 131.873
80.7337 178.484 106.337
54.5225 181.482 140.359
48.5901 21.9426 133.747
48.8625 51.1092 101.671
26.8406 211.64 127.524
24.3851 157.137 152.493
43.6526 172.408 104.035
81.7795 85.9199 114.477
86.8626 73.0226 123.285
53.7681 17.1933 127.805
30.4071 210.68 130.322
25.3897 210.042 139.962
55.1743 87.3521 94.1546
75.6299 238.9 143.17
24.9502 191.728 138.973
81.1124 49.6035 76.8574
17.0903 160.467 66.5692
60.3889 194.117 108.794
28.0969 98.494 116.307
64.3089 200.18 109.102
25.7668 237.221 109.327
54.7294 88.3258 151.747
90.2754 186.443 121.856
66.3099 200.436 104.353
83.2533 37.5553 90.8415
37.9817 28.3641 147.606
28.7644 97.0274 136.558
67.2667 24.5721 108.687
