ply
format ascii 1.0
comment Created by Open3D
element vertex 386
property double x
property double y
property double z
end_header
14.3658 33.8084 79.3252
18.1624 116.283 49.3458
16.4695 19.9456 132.661
42.7262 104.93 79.4889
24.0229 279.989 90.9715
21.0173 24.1345 128.261
15.1089 40.9052 84.0905
15.7503 38.3319 67.0907
23.7346 31.9257 36.6587
17.5199 94.5474 83.3599
20.1963 269.777 98.3249
22.7372 48.5771 29.4002
33.6309 183.943 121.363
35.7627 176.734 115.58
18.7768 225.502 61.191
31.293 47.2496 30.2904
17.5737 38.4865 148.525
17.0649 33.5994 36.2724
16.5317 155.453 94.3543
32.2458 119.396 54.7443
26.9071 126.789 75.2977
15.7237 163.765 95.4869
15.3423 222.294 68.5299
17.1158 277.612 99.952
31.3856 279.919 98.9741
24.1607 120.458 54.165
26.6292 97.7402 78.4249
30.4767 233.714 91.3218
16.9402 53.7156 43.9315
18.0834 221.446 103.567
15.171 247.903 24.7891
14.499 230.824 111.944
17.558 39.0569 40.6818
40.8645 196.435 111.59
17.8294 276.444 92.8656
21.0109 193.284 114.944
30.0267 85.3458 89.7989
29.2197 245.473 27.9643
24.2934 153.423 90.8879
25.114 265.228 108.273
13.548 47.6248 49.4986
15.4371 59.4707 151.621
17.8386 38.7563 27.1838
20.9421 164.048 101.93
17.4715 34.6403 158.479
14.0824 101.273 79.9356
21.5906 32.8238 29.4695
17.5001 214.64 61.4371
24.3288 89.6201 72.4535
28.214 232.282 24.3708
37.5735 156.639 90.1427
23.0886 49.6886 176.697
23.7532 60.4205 151.891
24.8334 95.2767 89.7722
27.3484 258.306 12.8099
46.04 41.1153 68.6895
35.5146 253.426 22.4879
15.4637 116.199 40.1008
19.47 183.442 107.557
26.3078 44.968 171.742
44.3009 101.103 71.6009
41.1927 38.0588 59.4281
14.8404 251.591 16.5012
30.3577 86.0991 80.3788
24.1679 42.7476 150.624
43.0012 131.266 84.0815
15.7611 45.8822 31.7538
18.5656 33.5133 59.6397
16.4961 28.6965 71.9625
15.4997 25.9632 137.879
28.5124 261.115 99.3141
31.7306 171.962 109.324
34.9489 92.4972 93.0463
32.9522 121.992 103.866
30.796 84.9326 119.857
16.9082 74.7464 115.183
13.4517 114.578 89.4888
42.8388 81.1831 117.894
20.6095 238.91 117.627
27.7581 53.9439 150.389
17.7505 84.5721 126.928
14.8969 123.051 45.8753
51.4135 34.7764 74.9776
18.5185 264.781 103.683
28.2671 131.398 85.8324
37.2619 218.103 111.993
19.3274 172.302 113.907
18.8611 229.416 23.1601
33.5866 266.611 103.921
23.406 117.659 37.8125
21.9788 70.026 84.1563
31.6256 183.506 104.292
31.6796 222.988 91.1546
31.3835 100.643 98.3234
29.0071 214.886 66.3455
17.993 41.442 51.5467
28.1388 242.887 90.7308
27.8231 49.8074 81.5348
28.9187 120.382 41.2615
35.9304 87.3484 71.1138
40.6364 96.9778 77.456
24.7581 39.7276 24.4805
17.7635 30.4133 107.664
13.4068 120.76 95.1244
24.4106 31.651 105.95
42.4038 184.322 110.186
25.3937 199.687 101.253
30.9109 259.972 19.9142
31.1896 37.8014 55.3973
17.0537 49.1717 37.4465
23.7319 122.91 45.1269
21.4103 109.624 99.2417
14.6406 107.429 73.065
21.8271 268.271 88.8543
23.94 51.2865 37.0155
21.4371 196.476 106.561
21.9312 35.1372 167.529
16.7202 216.479 74.4945
32.5851 77.2689 123.424
17.9218 273.397 107.528
22.2112 260.049 15.8522
26.4114 245.8 14.5553
30.0092 92.7362 74.6948
29.4603 92.0855 95.2015
28.0346 252.533 9.02024
28.7589 29.9027 53.3092
21.8245 83.3577 114.917
27.3674 49.487 49.5212
17.6989 100.321 68.2419
44.1114 119.15 66.8607
20.3165 46.6206 74.7573
28.8536 34.7947 26.5841
18.9851 144.406 6.898
14.8834 59.0255 166.07
30.9867 277.846 88.6856
32.2079 46.5884 39.0805
43.8697 126.509 77.5184
38.4359 119.357 100.835
24.6912 40.0324 59.8847
35.6667 131.424 82.377
28.1081 52.4856 43.2922
14.2467 44.4947 174.784
35.1904 203.971 109.452
23.2456 125.422 82.6304
26.0408 71.2414 122.654
28.8198 28.4151 110
25.9634 216.172 96.7466
32.9819 116.328 45.3133
27.1841 23.998 133.499
44.6777 114.293 89.4126
35.8448 275.791 99.4194
21.3215 232.777 89.3991
28.2231 160.649 96.2071
20.185 180.371 117.966
21.6262 138.105 10.4866
11.2042 50.4168 182.067
22.0374 227.614 30.1142
39.794 49.8935 68.9201
28.7347 30.8362 132.573
19.6956 113.182 68.3529
13.9156 142.926 2.95691
36.0015 273.634 92.7756
23.0115 221.206 56.4862
26.3696 21.4666 71.5691
18.0698 126.18 87.2539
26.7874 117.489 103.763
33.1959 133.19 86.6743
32.9305 44.48 59.2
17.9551 108.96 86.4023
31.919 274.19 105.516
34.8655 96.0879 60.2902
14.9695 46.8439 167.017
17.6157 96.6269 75.0506
32.9197 255.346 14.671
25.7992 17.4583 132.481
24.9802 43.1224 46.6094
29.5214 51.3765 75.4926
15.8725 51.3752 143.969
18.846 90.7811 76.1908
32.5164 263.729 90.9617
38.1316 188.657 124.692
24.5446 90.5064 65.659
16.2914 28.4584 131.677
47.6754 43.6008 84.1422
24.5773 212.133 71.3012
27.0055 53.1394 164.312
19.4453 27.5604 142.907
28.7927 37.7097 40.4295
29.2673 36.6133 108.037
24.641 20.5478 65.3175
29.8269 249.157 100.187
36.3624 74.9067 114.946
19.1413 71.4508 41.2393
33.2493 245.373 18.4988
32.3383 32.1932 33.3588
22.6353 76.3076 108.968
25.5229 213.423 60.0134
38.3511 183.58 100.787
39.8976 182.379 120.878
26.1128 127.916 93.6719
29.1316 115.371 90.1876
31.4991 212.25 104.788
16.8017 233.143 77.1798
22.4344 47.1019 53.6791
38.3266 117.782 85.9323
28.671 128.204 81.1838
31.8876 228.748 118.823
31.1301 260.851 28.3151
43.3013 110.11 62.8125
16.5219 35.7635 116.731
29.5713 38.865 117.702
18.3275 32.5001 173.291
32.5041 132.64 7.84498
18.0225 122.296 80.2565
37.1036 33.5691 56.5195
30.0437 268.551 85.7914
18.9433 21.362 142.174
39.0636 225.747 114.888
19.4452 130.06 5.24089
25.8058 45.2588 39.5111
19.8299 130.78 91.1963
27.8884 27.5254 142.811
29.4556 236.969 118.759
26.2823 170.804 116.882
43.7225 30.2573 61.2162
18.6682 115.602 77.7855
41.6067 187.177 116.097
38.7046 177.199 107.886
19.4971 157.519 102.497
12.4972 32.9893 174.333
37.8864 117 49.2096
35.8359 52.5105 76.173
38.5668 49.2697 63.7824
27.2817 45.931 159.232
28.7555 28.0386 74.5451
38.4135 104.388 54.7439
42.3454 114.509 59.212
22.4572 44.8756 68.2509
19.797 122.657 74.145
37.9641 107.807 73.6839
31.05 187.547 125.582
14.2236 123.711 151.623
23.1378 224.391 90.6481
19.1085 255.518 86.7274
30.4373 108.28 88.4505
31.7762 23.2101 135.071
36.5202 193.095 119.957
28.6802 127.404 100.992
27.3836 247.536 20.3842
44.3312 115.389 71.3565
30.0035 93.9494 68.4651
27.8092 204.846 108.715
19.8219 255.718 12.2283
26.2963 216.459 109.051
29.2093 225.414 60.7649
22.1258 24.8383 113.988
21.5221 120.921 103.43
16.7342 186.56 98.3257
25.7901 173.795 103.81
34.922 255.64 32.8778
20.5802 209.176 66.1748
38.5794 193.815 102.826
28.5254 107.206 102.914
23.595 196.337 122.04
34.8972 200.744 119.611
30.8613 240.1 105.306
22.6277 246.854 29.9001
32.3523 190.537 118.436
23.0827 183.917 123.027
46.6497 122.627 89.4139
34.6616 111.285 59.0781
26.3161 119.129 69.651
25.1102 69.8593 164.38
29.1667 133.079 93.2168
42.4915 123.966 63.3699
29.0268 77.7369 106.511
37.0247 189.374 108.89
15.9607 191.609 103.367
24.1674 61.1223 163.612
22.5194 250.49 102.131
15.2744 226.37 22.1906
28.3205 42.1697 165.011
25.4476 93.2356 82.5757
34.9327 139.572 11.8443
20.024 44.3059 88.6367
24.3029 217.118 76.2504
49.4919 44.2148 73.7222
21.258 116.753 94.2293
28.4738 182.857 95.1451
20.3176 27.5304 84.6494
25.5031 132.144 8.84514
33.0321 196.937 99.1893
30.1525 109.966 46.2861
46.5306 107.075 95.6441
25.4812 261.778 30.4911
26.4727 28.6839 30.3697
26.5096 241.31 116.621
27.7446 273.484 110.017
20.9891 128.115 44.2518
39.1847 104.135 99.5461
44.301 125.466 85.3522
20.0925 27.2391 57.467
20.8218 222.877 112.793
16.7459 139.748 91.5257
30.8946 18.8851 61.4195
27.2293 44.1254 27.7726
36.5898 238.56 117.558
18.7998 174.953 87.9315
37.3141 21.3368 60.1611
41.5931 129.207 91.0261
23.8014 31.9601 138.425
31.6539 41.124 29.7152
23.6 107.281 63.887
19.3231 43.9191 43.9965
31.6977 102.438 54.698
25.7771 278.327 107.275
42.4872 45.7001 90.2847
27.0049 20.2167 141.479
17.5181 106.684 80.3436
22.9005 151.959 97.412
37.1512 43.499 93.1039
24.0024 35.7426 42.9929
19.1476 243.31 91.8099
40.7536 131.392 73.7784
31.0738 175.64 100.749
27.1381 48.1373 90.2338
26.432 57.1035 170.445
27.1915 264.188 21.7251
23.9374 104.285 92.6225
29.6342 220.227 115.704
31.9905 227.09 98.6843
36.366 129.692 97.0069
40.3096 103.378 60.3125
33.1816 143.992 10.2068
17.6033 137.22 2.72104
20.5739 73.2715 161.519
25.6609 128.248 50.2525
19.5796 151.627 2.31711
26.0071 88.7785 128.605
25.759 44.1138 63.1022
38.0162 52.1021 87.972
20.3693 231.402 118.807
26.7619 248.269 111.754
15.0005 179.459 114.892
16.4605 64.3966 36.776
28.1957 108.107 61.5393
28.0131 232.245 107.834
42.4521 46.4234 73.2018
41.7555 103.787 93.0443
29.0404 232.306 16.0361
34.8043 111.38 84.4754
28.2678 49.2848 67.7141
30.2482 171.875 119.369
36.2259 115.574 94.1091
23.7441 98.9719 98.694
13.1044 138.885 119.159
18.2417 65.6229 40.9582
21.4622 43.0622 115.811
28.9882 114.584 50.2425
14.1432 258.948 74.1492
50.0271 41.6991 78.3305
35.2536 265.703 97.9665
36.9982 135.183 2.02129
15.0067 256.499 21.1074
30.8251 76.8573 134.609
32.9226 110.851 104.753
22.6337 30.8864 120.961
45.892 108.598 89.8301
21.2093 39.6544 177.694
30.4075 93.4225 59.1907
16.7468 213.884 34.6769
25.4104 22.3121 57.0585
14.3744 149.984 1.21095
51.0242 115.256 91.6268
44.3667 124.677 96.7951
19.9839 46.1909 141.042
21.9536 164.929 88.6466
43.3529 50.6694 75.7791
36.3695 109.285 92.7589
26.7777 39.8358 92.4945
15.7588 12.9124 68.7048
27.8323 27.7621 116.83
25.2584 254.496 37.2755
39.504 109.612 68.7245
27.2816 160.078 87.7543
22.869 242.824 23.3197
