ply
format ascii 1.0
comment Created by Open3D
element vertex 231
property double x
property double y
property double z
end_header
17.936 105.046 38.353
35.3207 47.2318 18.3493
14.7643 56.7399 60.0746
17.4265 65.3901 38.0344
43.582 24.9841 56.6097
14.8289 56.8264 49.8653
20.1458 30.5352 52.7106
40.2693 110.579 78.2747
12.286 86.3984 31.7939
14.6886 57.8019 28.8266
32.4459 70.9708 31.227
12.1938 44.5836 49.495
23.1111 71.7083 51.0071
40.6033 69.6763 27.056
12.6211 119.125 36.9777
23.9818 33.6302 62.2874
50.1585 45.6902 21.6977
21.3999 66.9485 60.6304
17.364 65.1858 48.6294
31.9016 136.256 50.6969
12.7054 46.9771 40.1067
16.549 106.514 82.0036
38.3658 113.666 33.5731
14.7277 145.289 3.83875
37.4539 123.901 39.4874
11.6386 52.9888 76.6111
37.7215 65.6983 37.091
21.3033 127.21 3.61049
28.5609 47.4738 20.2647
41.1624 36.8205 24.006
16.9938 148.921 25.1469
40.7656 42.4643 49.3708
34.4322 44.9139 72.774
36.3628 128.311 53.3764
45.7896 47.9486 38.9823
49.7377 98.5652 67.7156
20.862 42.2095 93.4816
38.5792 28.7521 42.787
30.402 139.211 71.6351
57.5547 126.541 44.9647
60.1917 67.6603 44.6025
18.1626 19.5247 71.9017
18.4687 36.6382 27.7858
36.2471 88.7311 105.071
39.9244 80.3103 44.7012
41.7875 89.5286 46.9044
16.4095 33.6093 42.1181
12.2612 43.0016 59.4841
18.034 92.4301 95.4487
19.9284 49.6731 74.9042
25.5729 102.983 87.3556
23.2914 27.1074 43.7654
47.9433 30.0373 71.6428
13.9136 56.4057 38.4258
16.1508 77.8715 40.2302
44.9924 114.999 53.5112
14.2309 26.2328 80.8768
28.6968 25.0507 37.8513
16.9472 109.392 49.0524
27.5721 122.409 41.5469
12.7108 80.294 93.4869
55.8936 30.7467 50.5365
53.0507 101.616 52.3987
54.9817 48.6893 51.0648
40.278 143.168 56.6955
14.524 46.7095 30.8258
30.7592 117.231 50.2154
19.2389 129.334 68.3628
33.9577 62.2336 49.8674
25.7608 108.212 41.6684
43.7027 126.545 80.6726
56.1263 117.382 52.6301
11.5973 83.9987 79.6794
41.8779 57.3951 43.4721
33.0968 104.214 62.6691
48.869 135.181 44.8413
13.2542 145.086 15.0304
26.7734 120.001 77.415
33.3616 134.569 77.8664
41.0885 121.996 31.6707
34.019 43.9717 45.7895
15.6761 120.962 108.291
41.1158 33.6843 72.7097
15.4697 68.2416 74.1954
49.2441 35.3947 27.1334
39.9756 95.1506 66.951
60.6544 70.5327 30.4345
12.7089 46.6628 87.483
46.5743 90.0795 61.3189
35.438 40.4598 20.2658
44.5112 57.851 65.55
24.913 130.663 73.0815
16.3281 53.5998 68.8544
40.0298 48.5749 67.0162
13.8534 123.646 59.1889
61.5518 56.964 38.2189
39.88 84.2657 93.8211
24.213 125.795 47.9846
41.8431 98.1418 89.8478
16.9088 79.9022 55.5152
28.9986 74.9417 64.3348
40.7705 106.927 48.6566
19.0142 85.3329 88.5372
42.1174 93.8836 99.8948
37.8173 78.42 59.9532
30.9104 93.3145 45.6927
54.4238 136.297 50.724
31.6428 114.589 36.1834
60.9011 129.808 51.2327
22.8786 53.7979 20.5395
54.5281 56.7454 54.8061
42.939 78.0075 52.8477
32.4241 105.082 41.8112
43.0966 66.9566 68.0916
58.5994 117.469 62.3087
12.2498 17.7951 85.084
23.5698 131.492 55.185
53.3005 72.8616 39.4419
50.0866 61.3486 55.1902
18.9354 117.34 74.0759
48.4097 24.9187 49.2124
40.9155 142.392 71.5811
23.2358 99.2297 69.3204
26.6352 87.2019 106.64
32.7095 79.9823 94.4475
19.6171 101.529 100.135
61.6867 123.981 56.0729
35.2656 97.4338 106.756
53.5145 33.266 35.1317
28.7026 101.53 75.3665
21.4937 60.3176 70.3096
39.9712 78.1292 36.8644
41.9883 130.154 40.0941
52.7424 28.4225 42.383
17.9013 39.7571 70.4018
48.7572 140.817 61.1698
26.9808 82.5734 100.892
30.5447 125.751 79.1601
59.9899 129.977 60.5247
57.3287 40.6648 53.1586
23.0361 94.6411 52.3857
27.3532 48.1267 39.9327
59.7077 52.9794 45.4389
28.7089 142.088 61.8168
31.0781 40.654 66.0536
24.7887 119.019 33.4105
40.6918 119.32 63.9283
29.7038 64.4808 22.7265
42.7391 66.9944 48.3563
31.243 80.7185 52.673
50.5343 73.186 48.726
37.1001 53.6841 72.8114
50.9132 51.477 63.1981
57.5327 45.1894 33.5241
50.5911 72.9429 26.0834
24.0845 70.4597 39.92
32.3778 59.3141 20.8544
28.3359 62.0296 74.9753
48.8906 100.347 32.7778
28.1412 76.812 40.2481
55.6644 52.3863 24.1288
33.1312 29.0222 60.8753
33.9348 34.7098 65.4194
22.0059 65.6183 27.8381
49.2979 68.0179 59.3635
60.9827 100.474 39.0816
27.4769 96.2803 108.721
48.4902 85.3216 50.5581
25.0231 59.7213 52.4941
30.2783 25.2946 54.5717
15.7662 99.1348 55.042
51.2399 46.5314 58.3075
35.3737 67.1653 73.3681
63.7628 117.788 50.7498
32.5342 42.5298 29.376
29.762 111.563 64.6686
37.8655 82.8218 84.9327
57.5485 71.9177 22.9521
43.6087 27.4765 27.0327
39.6433 30.4375 61.8344
57.0705 124.502 37.4632
48.4217 112.568 31.295
33.5023 102.825 35.7185
27.993 132.769 63.089
33.7499 130.68 69.6973
60.8987 58.7375 29.0678
63.9765 119.662 62.3073
42.6989 134.968 64.0096
30.2972 58.3742 35.8874
50.6024 133.227 68.8095
55.5807 90.1702 46.6934
30.8627 31.2391 23.5335
50.0361 39.2881 70.0451
27.5401 108.913 74.5728
40.4163 106.084 60.9822
51.7831 87.7282 55.7516
21.8716 135.298 64.5411
43.8303 61.1857 26.5289
61.2408 112.364 36.9138
45.9391 51.3575 27.9254
57.9414 40.4131 42.6701
34.5966 93.0304 80.889
55.6691 105.436 32.2893
52.5423 65.6445 22.8537
58.8276 113.381 68.3526
25.1966 44.2419 31.9584
44.8278 135.479 76.106
45.9074 77.6548 30.2493
19.2198 111.302 71.0422
30.5974 127.767 67.8551
48.3919 54.4294 19.1916
60.1769 105.284 60.1535
35.0807 106.094 79.7435
52.85 29.9342 61.2754
51.9041 122.533 33.1907
45.2372 49.3384 49.2914
36.3149 26.1238 29.6767
54.4685 108.639 73.6818
48.454 40.5202 35.8399
44.7216 118.368 46.1116
25.6229 36.4005 26.6194
32.4314 23.4894 48.1412
36.2397 117.562 69.8209
26.1481 47.6419 68.83
13.5353 19.4528 57.2785
64.4724 90.4297 62.176
65.4768 106.035 49.1923
18.0218 108.415 67.978
31.2732 131.513 73.517
52.7987 83.2867 45.409
21.6215 98.902 62.7776
