ply
format ascii 1.0
comment Created by Open3D
element vertex 1147
property double x
property double y
property double z
end_header
47.5509 210.663 317.44
28.7931 102.822 177.482
45.8053 215.678 223.613
29.3101 287.646 265.749
50.5483 247.297 162.047
35.0341 328.177 243.642
47.3513 237.825 266.807
22.2593 151.698 349.125
48.6179 344.933 223.957
24.4341 285.026 231.378
40.5334 224.586 227.183
35.4208 237.046 255.345
47.4764 35.3818 138.448
27.0043 125.068 358.989
55.2543 346.575 199.741
32.8168 331.825 199.134
24.8335 117.572 337.706
24.8142 154.656 316.383
29.3263 285.858 179.557
27.0631 325.205 217.272
57.8037 302.421 193.304
49.0562 279.276 151.015
43.3575 272.111 277.566
41.3213 339.75 234.674
24.2483 286.836 210.535
65.8894 288.963 178.848
31.0328 108.162 343.178
25.5494 239.308 230.976
23.8088 177.565 321.892
46.4197 326.762 171.038
25.1991 146.623 292.529
34.2682 37.0457 185.059
24.6784 164.888 290.915
25.5842 273.357 255.04
48.8509 276.213 207.917
55.6003 187.204 357.08
46.0575 256.536 273.412
39.1215 315.941 260.708
32.6367 334.209 221.961
35.5573 313.816 174.364
54.916 217.564 199.067
66.5004 261.719 180.82
49.3584 18.1344 425.702
37.6863 328.517 183.43
22.4992 164.704 344.768
55.9909 229.179 267.859
66.1402 343.576 203.365
58.2039 304.083 226.484
65.6324 302.259 182.684
72.5917 281.879 170.685
66.7825 344.498 217.162
56.4334 287.996 284.013
24.7154 22.8925 187.38
24.5697 182.663 304.394
58.7567 332.86 255.966
30.6163 36.5203 302.919
23.306 170.72 355.313
27.5297 295.012 236.177
25.1075 119.814 318.32
67.417 148.131 278.391
27.0137 76.7063 129.526
53.718 36.8152 313.645
61.0742 165.26 297.06
26.2614 45.4275 300.812
21.7059 134.388 324.537
51.1258 285.695 236.705
61.5627 138.179 299.373
54.6533 302.496 217.872
24.41 295.572 227.068
43.0584 233.876 190.452
27.1493 299.916 245.343
70.2722 236.365 249.522
45.5 316.097 286.271
61.4182 229.986 178.684
72.3592 320.994 210.478
49.8261 245.718 274.335
52.0484 185.869 339.008
25.8361 120.987 308.661
37.8931 322.389 176.651
25.6213 288.301 245.326
51.9992 305.603 275.402
57.1178 252.306 239.415
27.3778 318.99 224.769
43.5203 334.461 241.928
60.2709 118.944 283.651
62.8111 275.795 287.745
42.165 341.343 123.034
35.1125 261.6 169.359
26.1758 158.694 91.0281
63.499 325.336 168.757
61.4628 338.043 183.666
47.2123 224.101 196.294
35.0133 280.208 272.751
50.3036 285.492 208.269
52.2316 34.2228 277.923
68.9605 253.187 260.842
64.2652 204.757 324.413
39.9674 335.923 191.454
41.5765 245.367 267.494
21.3494 52.2702 285.072
73.8027 218.781 231.356
48.4322 142.756 353.025
46.6959 276.531 218.433
42.2077 145.106 233.223
25.182 305.14 201.158
47.1353 97.0429 331.647
59.8585 310.393 212.841
30.6471 294.62 177.089
53.8941 157.434 298.125
48.7731 302.818 154.534
63.9631 244.873 245.99
59.4341 263.754 287.397
56.1124 169.579 415.998
43.0102 123.955 281.409
23.8994 179.398 337.057
22.2782 69.9064 142.525
71.1713 238.34 270.901
42.1505 281.96 157.659
80.2683 175.914 256.332
25.1751 64.9313 118.044
32.6631 377.232 140.248
52.2181 172.657 357.295
24.7668 278.852 192.676
28.7556 246.987 210.796
32.5505 251.779 182.784
38.6553 339.955 224.658
22.2772 140.28 317.542
61.0222 69.8698 301.858
29.5814 317.562 185.611
72.9558 307.542 248.604
33.6308 238.057 198.184
51.7492 96.9389 321.787
61.4655 107.641 337.8
24.0177 289.391 219.25
74.4211 285.723 264.44
22.3479 166.261 333.892
73.3571 339.143 224.817
24.476 20.2968 421.256
38.5578 19.8533 38.4158
20.4463 10.4363 419.303
24.2558 284.683 255.265
56.0764 330.96 174.698
48.8609 263.14 58.4268
38.9997 305.655 164.536
28.2963 173.327 369.675
62.8092 39.9807 280.515
56.519 305.162 203.202
63.8678 103.464 316.387
63.7495 232.057 272.776
23.6491 68.9739 300.485
26.5762 155.301 286.347
75.8004 318.17 244.109
27.958 329.755 209.011
22.5495 123.143 47.5686
46.1119 98.9313 343.441
54.1394 273.231 282.414
53.2844 165.703 365.246
26.563 115.598 348.934
70.5804 305.117 171.638
57.3648 192.765 350.946
24.7146 147.984 27.7252
39.0767 33.0897 308.035
22.5898 159.475 357.346
40.8711 250.741 171.17
25.2862 168.652 309.785
38.4889 295.305 163.973
48.037 283.63 226.708
59.3714 194.682 329.405
59.8021 169.772 99.5238
69.3778 282.268 285.93
29.92 307.875 180.107
34.4869 289.445 170.411
49.5437 292.84 215.488
40.3232 144.902 275.705
46.8566 219.875 207.962
27.3748 369.602 141.622
71.0741 228.539 266.751
52.0503 160.623 372.738
71.584 192.379 296.821
23.0926 59.7882 134.989
23.1274 105.17 76.6986
59.7496 293.902 150.81
58.0034 202.372 340.502
67.0549 168.69 289.504
50.2963 126.017 232.323
62.6781 60.9129 294.293
38.8356 174.38 429.402
39.6399 289.091 275.002
58.6251 249.427 282.363
80.4179 192.219 250.903
69.9136 167.811 253.934
24.6556 351.874 41.5039
47.5259 281.504 279.372
44.0524 38.8464 184.58
54.7242 131.105 367.812
29.2133 68.8998 268.254
75.6198 192.31 305.569
35.3039 5.6213 404.008
78.8454 297.971 267.046
57.8 239.863 278.227
66.3091 204.37 309.037
43.021 38.9719 122.512
42.3092 310.307 269.768
71.5463 269.697 165.082
50.4409 313.756 269.373
74.1029 329.779 210.641
26.4688 111.273 324.319
43.2129 229.347 260.218
25.9128 256.178 245.516
25.311 11.1685 37.4658
56.7194 187.668 403.023
55.303 259.927 215.051
49.3792 262.407 229.335
38.8913 99.2149 332.055
28.3279 312.103 246.134
26.2801 25.4266 178.891
25.0727 138.74 230.179
63.0634 221.788 188.46
37.3613 172.915 279.112
41.6874 131.639 278.191
26.1067 304.234 191.571
72.6752 290.17 282.606
58.3229 262.877 191.822
44.1916 218.222 236.272
25.0539 296.231 212.302
42.8955 270.498 158.353
28.3136 297.077 184.744
24.0726 128.305 103.064
47.7768 176.381 335.355
63.5264 278.774 181.992
48.0811 342.407 190.075
35.3436 233.768 247.231
47.3659 28.0519 291.806
46.0188 117.293 248.281
23.2693 160.045 325.551
35.1227 336.451 212.541
50.4461 273.451 237.941
25.4647 167.099 319.213
34.0966 275.749 169.386
72.209 293.716 170.776
31.3923 203.217 331.986
27.4529 263.906 215.082
70.184 335.534 195.144
26.4493 263.46 250.975
32.8994 361.558 151.354
72.0401 324.002 179.032
45.0388 151.261 328.781
65.8097 312.15 189.562
50.9753 178.745 348.492
52.9382 269.146 151.113
27.1734 2.47578 413.331
53.344 278.653 192.82
70.931 274.137 262.842
26.4951 238.68 250.536
54.4106 339.115 247.18
49.6745 349.5 210.894
46.1892 323.012 261.799
56.634 133.005 112.206
56.8228 321.516 163.678
29.5618 192.469 358.155
56.7045 285.575 188.471
39.2968 100.105 341.712
66.5931 249.666 200.058
51.7521 125.825 243.083
56.941 121.521 359.735
63.1772 69.1203 285.875
42.8141 79.459 120.936
44.3351 347.869 36.4244
58.1156 46.9081 317.086
23.5758 149.932 325.509
24.6025 187.215 331.056
35.0431 301.741 171.885
30.3457 319.012 241.577
52.6206 145.918 367.307
75.3208 242.95 176.148
31.7614 299.446 266.115
76.4994 222.611 208.931
69.6907 236.14 177.739
49.8997 13.5164 412.623
29.6776 265.345 261.803
47.071 271.999 227.705
25.1203 284.71 187.063
66.1058 285.047 154.378
67.7861 298.114 246.994
66.1742 180.848 316.067
61.9348 274.863 254.14
67.1999 218.419 201.57
76.3667 225.032 221.539
33.4295 267.607 270.017
33.0325 9.04041 196.635
65.8247 316.538 214.663
32.7466 247.942 258.288
62.9297 258.266 197.44
53.7923 233.056 173.908
55.3697 307.426 155.438
22.4772 64.9983 128.676
48.6442 318.334 164.05
36.7757 51.2139 197.41
63.2611 130.374 279.093
27.631 295.712 255.468
46.7943 170.691 349.467
62.1399 148.252 291.621
43.9962 330.427 294.502
74.3126 326.017 258.355
25.5924 306.601 210.302
68.5102 137.205 287.505
66.0752 214.189 253.689
50.2817 167.367 274.872
31.8848 144.725 280.793
45.3788 152.483 356.208
41.2694 291.101 155.12
49.195 142.586 378.734
27.554 11.9778 435.67
64.2621 114.562 301.19
50.741 134.754 336.99
51.0493 103.119 301.942
28.445 72.2916 311.974
35.2712 258.138 269.085
30.216 325.937 190.539
26.1711 265.226 240.257
72.9839 221.804 254.781
52.6796 342.501 234.649
26.204 311.71 217.842
55.5413 298.778 234.53
54.8999 173.517 370.698
58.7818 216.373 251.138
58.0962 347.636 216.585
36.719 252.421 264.036
50.3981 375.806 445.32
53.4328 99.2573 340.983
67.0628 298.182 155.793
59.5202 152.897 359.029
72.0373 260.766 280.569
47.299 284.543 217.682
26.0053 79.4156 303.867
55.0021 106.336 344.21
63.7939 48.0265 297.621
50.6243 23.761 413.513
23.1699 133.409 296.84
44.2832 48.048 266.407
28.0033 26.9455 198.434
29.1806 130.348 370.382
70.1973 311.412 180.784
75.6919 234.081 205.536
68.4799 270.026 155.927
30.3873 30.6608 424.123
55.3834 180.85 364.908
44.8148 38.3369 273.132
67.1164 271.64 174.853
66.7834 268.205 256.928
57.8631 81.9119 301.379
24.8139 168.429 53.6763
61.3764 346.658 228.155
63.0527 213.418 212.431
31.7512 371.286 150.998
51.0522 73.611 123.487
29.587 30.4808 413.94
33.6967 351.763 150.895
75.0005 275.841 280.123
32.3557 102.545 328.492
67.0994 212.325 241.117
71.2798 323.745 222.59
47.6679 161.869 70.2984
60.3592 271.601 150.979
54.9577 134.1 357.525
37.0835 284.171 164.287
38.1879 207.836 324.764
43.9909 188.473 48.7182
52.2206 40.2655 152.565
48.9641 8.56651 429.736
54.0408 291.996 194.441
46.4341 142.871 343.522
64.6616 221.316 263.13
53.1592 338.789 183.901
23.1417 151.282 335.367
60.8079 263.76 252.737
58.754 294.443 241.275
38.144 57.4555 264.766
60.2385 78.7111 282.19
60.9051 255.929 206.112
48.0413 295.48 278.045
37.0521 68.6742 263.667
56.4321 54.6666 152.814
21.9451 186.618 314.724
52.1507 294.071 153.426
41.3478 31.1533 412.252
32.6905 235.619 225.428
71.5412 162.116 278.217
26.6793 159.637 28.7598
61.4903 294.763 187.307
25.4202 317.712 210.299
67.737 252.346 283.436
58.014 134.718 312.546
66.1233 311.99 197.804
64.8369 173.955 307.77
26.2671 194.483 306.885
54.292 314.061 157.354
65.5705 314.491 205.264
40.0941 76.6261 155.117
30.4553 311.518 253.268
78.8717 288.15 272.873
60.4962 250.622 214.387
71.8873 182.069 297.803
24.4979 277.117 244.727
45.1989 160.14 316.395
55.412 97.3239 330.89
44.5283 152.577 312.797
44.9831 205.669 360.962
34.1358 332.996 231.867
41.9259 341.965 215.478
29.4941 258.895 187.153
28.2787 273.933 211.362
51.6385 359.569 150.862
22.0049 126.258 83.3389
49.7437 179.174 320.306
23.4055 149.048 305.796
50.6881 135.335 372.825
63.11 341.936 192.503
42.0568 314.215 166.715
23.6363 167.175 64.0055
45.681 117.655 285.631
67.2314 340.942 247.688
29.2427 248.193 192.893
24.1433 249.147 239.97
30.6717 32.6259 147.199
55.9406 211.936 322.139
48.6121 222.988 250.047
70.3985 198.715 312.238
48.4803 74.1967 143.748
68.8136 312.451 163.644
40.1336 264.292 273.546
72.8723 265.077 269.264
57.0978 269.599 246.834
74.3558 250.385 171.875
77.3469 317.894 262.316
27.7044 354.343 23.5254
37.7981 110.437 359.586
53.9261 146.368 301.58
44.4505 162.002 400.423
31.3002 134.906 284.385
23.3094 121.406 330.611
26.4052 129.438 340.63
25.2325 195.677 333.018
33.5782 141.441 377.827
63.7188 314.373 223.649
36.926 58.1086 165.458
22.1857 142.116 66.9532
69.5432 129.002 294.005
44.006 142.192 335.064
59.6637 269.555 185.711
63.9739 290.196 248.342
48.145 368.654 143.465
66.5364 329.106 260.124
53.5916 91.1798 284.167
23.9389 56.0006 119.401
36.3468 229.566 219.352
28.7376 213.314 145.931
45.5629 174.838 327.305
50.6694 293.26 202.467
42.4103 258.16 164.716
27.1855 61.4191 311.755
26.0287 171.651 41.1577
24.5231 150.551 48.2036
33.0187 305.391 260.04
38.6726 103.319 351.484
53.4606 50.6437 124.845
30.6758 82.4092 281.965
62.548 64.2356 270.93
23.218 180.254 417.776
29.3855 140.911 364.612
71.1697 236.326 225.913
61.5045 108.043 347.871
32.775 169.329 149.741
56.7322 109.943 358.853
23.5284 271.171 234.521
22.1702 60.8487 276.032
51.6649 144.457 310.112
66.4238 50.4499 284.139
65.9282 105.624 309.339
48.7641 104.17 354.613
59.0215 70.5978 267.727
72.0018 334.483 203.644
68.2155 242.405 279.462
64.288 97.5648 58.9552
51.7051 261.353 237.08
55.4348 169.799 393.426
33.2431 200.867 353.461
46.8335 90.9763 76.4275
28.1717 315.767 195.379
60.7617 174.094 313.74
68.3131 171.345 298.512
30.6293 109.417 309.087
47.136 213.767 330.732
42.2797 30.3884 283.89
59.1677 151.123 268.044
28.5038 185.316 293
47.7855 28.0653 301.95
22.6384 109.721 54.7697
46.4449 264.576 155.656
23.9311 45.4717 133.572
53.0821 321.019 266.898
38.8361 72.0843 112.563
27.912 275.444 264.855
29.3315 313.981 287.55
24.6454 137.764 305.024
62.0793 26.9222 232.53
47.3496 98.0368 313.039
70.4987 287.454 161.847
57.8495 140.937 273.323
61.7171 282.876 251.175
48.2635 185.486 283.72
63.6822 137.844 103.122
40.9628 105.049 295.106
24.7536 46.1094 119.873
77.3206 235.879 196.993
28.686 282.299 219.158
24.301 70.6751 280.476
60.5893 112.595 293.074
51.3445 119.888 368.302
68.4042 258.166 159.127
23.0498 53.4803 149.875
28.3912 253.468 254.091
23.1325 276.53 226.185
28.51 360.555 263.09
48.5711 174.717 279.464
66.3916 255.421 189.586
28.3797 23.2967 430.665
37.7718 322.167 252.119
39.9947 100.125 315.871
68.4509 283.467 257.355
59.33 258.036 154.83
28.3885 272.176 222.629
58.8246 282.717 149.58
29.6555 344.336 127.645
56.1574 60.1103 120.01
54.398 260.899 244.878
32.9884 55.3428 112.782
53.466 356.112 144.49
66.4371 330.259 177.034
41.3017 376.108 146.801
45.5479 154.393 273.638
57.1634 212.431 334.69
76.0269 242.453 192.355
44.2311 361.109 155.361
26.0938 166.621 299.22
34.5657 187.257 370.522
41.6552 223.496 215.392
61.4763 157.622 107.165
40.1783 299.59 274.981
71.1757 174.45 281.75
46.608 161.801 355.418
65.3318 304.54 277.984
64.3883 308.957 157.109
51.9132 127.727 278.315
26.9196 81.2195 140.603
60.4545 254.16 250.939
74.7988 293.894 259.159
51.8276 215.714 214.4
79.4346 309.464 268.864
26.9783 196.25 316.963
78.6718 308.123 258.255
52.1252 112.698 288.891
28.127 198.393 342.213
56.8963 211.033 238.705
62.4236 118.268 352.904
25.7465 359.277 146.807
52.6069 292.782 227.478
49.8026 215.054 244.015
28.1197 239.437 202.393
54.006 241.263 167.587
54.748 300.511 209.453
52.4961 224.813 187.221
27.7881 181.449 360.504
61.7163 236.991 158.404
45.6672 11.63 29.8466
52.0023 205.992 298.233
34.889 34.8555 197.312
51.5567 56.4909 215.027
23.0241 45.8365 153.444
26.8689 48.711 274.95
58.756 181.601 43.3743
54.3111 31.7746 188.924
52.0525 259.304 280.76
40.2182 186.016 330.7
40.7963 368.003 152.823
33.013 104.146 319.833
23.6293 192.16 324.213
31.2873 34.2592 288.148
66.9349 318.713 268.9
59.6417 344.632 239.5
37.2238 133.542 51.6873
47.5357 267.135 220.782
42.9751 304.02 157.856
55.4867 132.525 344.079
70.1829 187.913 313.76
57.3973 60.4213 265.084
31.0453 37.5549 211.493
56.2207 276.837 244.665
56.689 169.505 75.6099
69.1134 332.825 185.916
39.9799 157.247 57.9828
24.9944 128.308 20.8081
47.0982 71.4434 152.861
23.0875 146.035 340.084
31.9807 155.472 378.671
61.4075 119.763 343.939
58.606 86.5957 291.56
34.0286 46.7655 267.956
54.3252 284.892 243.97
41.8495 146.968 320.898
46.44 141.377 315.938
78.1179 333.839 234.607
58.4227 166.473 307.004
26.9685 247.878 201.738
74.0123 322.391 236.161
37.1749 343.634 38.7623
24.639 187.56 408.796
28.4313 322.235 233.48
36.9806 220.414 141.109
26.842 125.478 296.12
73.3961 234.827 215.348
25.6294 302.174 219.98
43.652 326.651 272.65
63.5418 311.105 230.651
34.4456 208.006 314.725
45.4118 371.87 130.41
68.0397 261.416 260.818
42.2257 218.135 135.474
52.2222 272.255 29.7602
38.2741 208.612 337.122
66.663 124.128 288.196
58.0616 186.494 65.6673
35.8547 14.158 170.985
32.3697 35.1961 279.008
69.9193 266.576 287.678
68.8544 114.974 314.791
40.6777 223.943 244.882
35.6575 82.4856 126.263
52.3085 263.656 208.629
25.2162 307.547 225.859
59.7059 129.708 351.773
43.9682 356.5 39.3369
51.1016 66.6538 322.913
23.9886 272.338 48.4828
35.84 168.513 381.215
28.8996 307.416 368.068
59.9342 36.4127 296.387
36.0256 92.5924 292.048
43.4487 23.1177 235.001
57.1354 186.081 320.651
72.9341 321.294 202.956
25.7061 169.688 86.5281
33.7372 361.031 28.0576
32.2553 14.2977 403.071
27.4844 16.3066 198.47
65.306 102.599 325.818
51.3982 183.171 374.68
47.2288 237.317 177.292
59.2489 149.085 156.429
39.3158 166.165 418.049
22.2853 133.342 334.757
58.9508 170.251 401.773
71.2226 179.765 307.57
32.4068 159.455 281.896
34.6502 183.186 286.05
78.8327 319.125 252.669
46.7891 274.843 39.8525
26.0884 251.074 222.034
65.8228 192.476 320.798
47.0479 213.942 341.97
44.8962 135.749 224.869
32.5826 23.3779 171.956
22.5736 146.621 79.0904
22.9138 141.118 90.2554
24.063 170.935 73.1742
53.5229 158.641 268.93
55.7974 81.5606 311.392
59.7005 60.938 315.16
70.6778 319.291 170.772
54.8538 253.42 229.484
50.615 360.634 123.286
23.6958 51.0951 140.432
28.1065 97.7023 60.5905
52.0036 65.7876 150.39
32.8418 184.373 69.9305
44.9474 221.284 143.331
45.4025 334.911 183.264
49.7024 144.342 272.044
25.9931 323.204 289.242
72.9098 248.635 268.622
36.4349 56.0896 319.763
46.6074 138.637 324.474
22.9372 126.166 323.25
54.3739 255.2 222.14
50.1378 195.486 369.061
30.1745 85.4473 293.559
42.7941 196.558 401.446
33.4978 122.555 285.887
51.7135 90.1403 300.512
36.9503 73.1439 318.413
27.9962 362.005 271.501
42.6764 8.80283 436.675
64.7298 52.7358 276.172
72.6275 338.335 212.711
52.0413 23.7068 175.973
29.0507 107.444 333.844
26.1812 77.4175 290.282
36.4182 198.933 364.666
59.4018 100.848 75.9012
43.3481 207.422 307.987
44.3578 36.2281 313.669
35.7404 85.1296 305
46.7908 53.4128 227.027
73.7564 216.306 245.831
56.1025 105.029 312.331
22.7522 140.791 360.43
51.8848 257.048 157.491
74.4325 229.785 230.788
45.4181 32.0456 420.45
61.9349 76.6777 290.384
62.4443 126.022 315.811
31.586 110.278 236.05
58.0586 36.4693 306.415
40.6118 20.4293 436.691
33.0651 37.3763 120.3
25.7836 185.258 351.831
60.453 186.889 284.16
61.8268 247.518 161.78
43.8005 167.592 340.501
57.2191 180.956 408.702
50.022 160.341 304.649
42.3407 111.163 239.217
39.9328 341.313 205.072
31.2218 180.512 393.45
34.5506 331.033 296.57
28.8421 202.911 315.152
72.3663 227.101 189.516
25.9053 17.056 409.699
28.1138 117.619 292.157
47.5947 62.1744 261.155
36.9304 225.56 236.248
45.82 342.889 200.262
37.3516 85.1887 136.95
70.7483 297.466 254.253
76.1231 237.889 184.452
68.8015 63.4356 156.371
41.4305 226.437 201.572
54.432 262.374 200.767
22.0374 3.61657 49.8805
32.538 231.361 211.029
72.8817 228.123 238.778
58.7255 72.105 314.669
63.1976 102.609 93.9988
39.0456 125.799 375.257
28.9733 257.008 212.986
71.0781 309.271 240.538
33.0948 233.025 232.17
25.8407 267.753 192.704
75.4238 225.695 247.959
47.3224 172.258 379.253
39.9467 160.382 276.404
26.7671 65.2691 160.261
65.4867 92.1024 69.8982
53.6642 16.5184 235.857
49.4806 271.651 199.687
72.1523 248.482 191.395
28.0165 105.66 36.8416
28.0314 353.627 120.956
26.4257 260.953 203.766
40.7489 243.861 180.982
36.1965 230.235 205.418
24.8062 290.002 198.315
69.4873 248.067 166.262
50.647 193.875 414.938
66.3197 247.463 254.783
30.175 18.3614 40.8375
31.2463 76.7317 118.277
42.4174 158.726 330.334
72.4712 242.901 204.627
62.5886 211.727 227.591
26.9844 156.904 171.778
22.6372 129.352 30.4582
29.0372 56.3431 297.812
42.1867 162.049 321.596
55.2321 176.989 53.9132
24.2197 2.29845 430.35
35.8748 241.294 189.105
61.2154 165.198 19.3472
31.9239 177.138 260.648
26.6144 260.557 55.9661
46.8824 29.6406 199.109
39.0612 256.844 48.7914
35.4072 108.395 294.112
35.937 141.883 222.019
55.1004 140.205 348.891
24.8604 151.705 62.0767
39.7594 24.2302 202.781
34.7239 116.095 365.854
52.5431 74.8236 133.543
25.3006 55.3016 44.6634
48.777 2.08655 414.288
73.4345 230.902 258.214
46.8991 94.5645 293.216
46.1864 132.942 114.9
29.2133 382.967 447.577
58.1228 68.0178 140.689
48.0773 281.719 38.4772
45.1185 180.117 387.009
61.3828 124.73 328.401
22.7714 204.014 153.417
35.2294 23.8391 234.079
27.7999 273.403 37.5322
32.6393 195.826 297.677
23.8589 183.747 345.173
66.3182 243.516 216.341
73.4661 323.091 196.411
56.4461 78.1322 272.357
40.4576 101.685 304.912
23.6274 119.307 244.415
34.3844 185.424 397.353
34.2919 116.523 251.075
72.9877 240.949 260.889
40.9971 154.534 383.715
73.3602 250.231 182.528
32.6908 1.8866 437.666
41.8548 362.39 111.787
21.8754 62.5062 147.313
54.2841 131.293 326.712
66.0657 158.136 285.989
27.024 170.674 416.4
35.4371 273.207 70.784
51.6913 58.8236 157.813
45.8953 26.9102 430.741
29.4916 334.136 274.408
30.4051 258.075 199.589
49.0868 167.41 157.94
39.4022 3.88974 27.672
52.0919 221.972 255.548
52.9726 351.452 134.934
50.7892 183.903 392.418
55.2063 179.33 420.342
32.1673 254.263 233.049
32.9869 181.744 44.5458
43.7309 125.878 41.7044
33.2756 344.34 25.346
28.9699 314.477 279.661
63.1936 53.8925 308.449
28.8126 277.367 201.146
75.5919 276.623 270.431
51.8755 85.6009 275.529
45.0962 63.2946 324.11
48.6207 187.381 236.163
52.0621 79.718 317.547
60.0584 53.1562 130.95
46.6969 150.492 349.485
26.0071 313.678 381.799
71.403 311.871 271.415
70.6512 333.61 253.99
26.0447 141.466 31.0187
72.6946 259.573 171.871
38.6591 180.846 376.64
43.6088 89.9666 64.4936
68.6075 190.518 288.842
76.8033 329.73 227.848
72.8383 323.763 189.1
68.0828 125.401 305.292
54.8971 204.171 356.802
38.9064 377.809 435.019
25.0715 73.642 148.629
68.8687 236.935 241.224
26.305 13.6234 52.3663
37.733 347.721 115.312
34.1097 261.883 39.2565
54.4986 30.0408 221.16
44.3923 102.83 27.1142
29.805 136.062 218.651
63.884 294.798 283.88
43.9574 81.2582 317.413
41.5987 14.3727 61.122
26.6063 142.962 14.08
34.1805 285.894 33.8195
49.1797 268.409 212.309
22.6295 118.959 74.4578
25.3772 53.5152 306.111
26.6681 43.1 291.839
73.8416 256.462 272.636
41.0819 332.829 271.104
44.9208 22.5069 50.8214
59.2609 31.5002 288.745
38.7872 343.413 145.55
31.2826 108.715 300.666
30.6731 4.56814 31.6498
47.5704 353.177 115.387
35.392 46.8728 313.094
60.3283 164.874 272.847
50.5863 346.102 444.587
42.9589 11.2815 174.119
46.9117 45.8455 321.036
64.5984 116.159 337.689
35.6725 204.732 304.335
27.3672 171.175 158.078
46.465 145.721 142.293
35.2778 176.452 32.355
23.2488 51.783 169.944
24.5334 139.929 349.291
54.9086 209.553 308.632
42.522 92.3572 282.894
48.8483 146.3 359.551
43.2175 183.529 431.264
44.8177 118.795 371.35
25.4374 314.876 202.573
38.3742 186.998 259.492
42.6599 151.253 338.198
43.7267 31.9987 171.573
40.3926 343.415 447.305
38.75 1.982 387.476
35.6042 71.4281 161.908
45.5943 136.945 272.628
65.1708 239.621 169.394
63.4715 60.8294 276.383
50.3956 58.3841 115.274
60.3526 310.913 275.099
42.6282 119.87 53.0346
70.9471 182.824 240.694
57.79 183.935 82.1986
36.7894 163.974 171.381
43.9095 151.159 77.986
59.0345 12.2524 60.1632
43.1372 133.656 251.237
56.6167 108.643 104.844
44.4632 49.9371 210.12
25.4361 199.72 160.852
59.0232 156.303 97.3075
47.1072 92.207 43.7884
56.0447 44.089 270.85
67.1416 64.4876 150.113
59.715 326.937 265.366
24.9562 141.722 47.2353
64.3263 302.532 240.553
62.7983 173.803 273.686
43.5549 167.859 325.74
48.5552 168.555 425.953
28.1022 2.50127 384.289
33.6315 358.307 115.099
63.2056 126.465 98.8785
50.2122 150.463 382.652
25.2884 380.745 93.7307
47.4425 60.4239 160.88
57.6395 166.928 84.8123
20.1171 172.75 370.039
55.9338 148.652 373.768
33.3671 195.172 418.447
32.496 284.594 70.5903
42.6187 192.081 425.358
37.7191 11.3426 420.075
40.9576 125.954 219.876
50.9945 158.827 81.8593
46.4632 318.831 280.693
47.8383 270.356 63.2886
57.6099 158.122 90.3471
47.2112 146.842 114.159
27.9274 62.9513 287.124
42.7573 135.966 380.698
60.4531 246.422 236.473
28.589 145.2 106.839
63.8034 169.674 262.926
28.0416 272.461 182.183
46.2803 61.6827 234.87
37.2055 112.265 19.5225
65.2265 244.556 208.767
24.8714 34.1251 133.061
38.1911 165.185 392.592
52.222 5.51871 63.8133
43.7276 153.865 167.313
40.8365 20.9401 404.365
53.082 148.214 90.5189
32.9095 45.4076 161.993
38.1171 98.3192 87.1281
32.1245 247.189 233.173
54.7746 19.8141 57.0693
45.3633 176.211 248.151
31.1443 367.215 118.01
52.7918 48.8615 265.409
26.3727 183.189 57.6335
57.501 174.381 31.9072
61.4674 45.2557 305.878
48.0423 343.488 140.503
36.9068 208.399 347.11
53.4806 211.137 350.369
30.5148 15.2057 181.02
72.5713 304.701 274.341
30.1414 123.344 109.494
52.9722 171.184 62.7217
28.2714 24.649 241.603
27.3132 2.38897 394.538
51.3031 111.814 14.1866
40.8405 197.534 293.812
40.3297 272.315 167.266
57.1385 349.788 447.39
35.6508 53.5583 254.041
54.0182 174.097 313.375
76.2408 187.939 242.459
65.6666 183.773 237.611
31.4851 245.747 221.81
34.9803 362.284 51.9857
24.0213 131.998 308.927
37.2549 144.154 66.5667
33.9884 81.931 149.348
33.5123 287.116 53.5867
25.1684 34.483 146.602
55.0047 108.144 53.7456
56.2927 297.945 280.437
52.4147 195.787 288.729
60.3672 112.796 326.03
33.3831 114.11 105.452
45.218 25.8874 225.775
26.7345 118.184 37.0962
30.9241 7.54092 182.785
49.3478 167.758 313.295
44.6568 328.056 446.627
51.997 41.7625 140.35
42.136 146.163 7.87287
21.3372 136.757 345.517
41.7112 178.434 151.58
41.1214 62.4763 245.281
70.0687 241.401 221.694
59.1926 206.183 246.865
34.5392 222.071 147.933
26.1035 383.8 85.5901
59.4416 142.898 96.9864
55.0756 22.0002 182.705
42.1122 289.411 49.3412
32.9993 142.878 243.051
53.4427 45.054 219.784
27.3 55.4705 258.531
48.0594 189.534 396.808
57.9868 127.223 338.452
51.9921 117.527 78.7969
24.6918 372.16 38.9407
64.0502 99.0203 44.3612
61.0654 86.1311 57.3325
36.8229 157.984 108.27
55.0747 154.642 143.362
55.734 136.547 6.06313
40.5008 262.418 37.2459
43.409 122.448 9.51976
27.3252 365.577 121.651
57.3536 85.2045 69.4962
68.399 311.47 234.538
26.9686 106.352 93.7974
42.2012 91.0062 305.823
43.2901 198.815 261.247
40.1925 27.1414 230.032
32.8609 237.972 214.467
37.8611 33.5848 427.841
32.7685 145.77 143.958
38.0134 30.3582 142.559
44.4233 140.042 154.873
58.9483 53.6133 142.526
57.5579 110.241 15.3264
54.1868 143.389 151.719
46.561 13.2212 196.245
50.4741 332.897 251.315
43.0538 190.345 69.13
46.8086 141.326 166.435
38.572 221.965 152.647
52.2418 51.7546 188.876
38.5499 84.9773 274.237
49.0224 167.38 16.8874
67.6129 114.524 331.5
47.2798 74.9416 264.192
61.5948 205.615 299.956
58.8459 132.255 90.0221
28.6152 266.209 67.2018
45.1102 278.189 64.0376
23.0341 47.0195 216.288
43.4671 104.597 99.3007
28.6468 70.8018 114.407
27.5986 355.407 52.1559
25.9288 119.61 224.9
45.929 328.195 250.938
76.0082 331.453 246.684
33.653 103.727 95.1113
64.7119 240.893 231.845
64.0793 141.372 10.1251
38.152 257.187 64.4718
49.0687 169.929 47.0752
52.9119 45.9008 131.575
55.0107 189.479 40.7108
58.7176 116.742 107.073
31.2737 30.6702 134.287
72.0572 191.437 240.458
61.0063 100.685 25.4097
25.187 160.489 367.089
45.0474 134.908 80.4948
29.6126 155.591 144.018
58.2031 87.9589 46.8457
28.9162 50.8708 235.543
55.2421 38.074 242.495
56.5086 17.6144 35.1649
45.405 51.4222 246.733
24.3723 120.195 106.654
41.9846 163.41 140.286
65.8014 341.945 236.702
42.0952 141.815 167.203
50.9293 174.916 102.221
50.8334 163.475 109.736
40.2059 44.5551 212.079
57.8701 116.114 90.5091
24.9328 382.33 423.212
60.1623 106.082 36.0319
34.0237 30.5691 432.884
21.2737 51.9974 161.747
45.2854 310.464 236.979
30.0931 306.563 235.574
62.471 52.8425 155.116
39.0378 6.24627 177.985
57.5619 330.639 449.087
56.3588 89.6111 82.913
41.7411 22.0086 189.947
29.3143 157.943 369.306
28.4957 35.722 152.841
41.1651 371.898 449.349
37.4546 292.877 236.237
65.9828 199.771 263.845
52.0403 13.7388 32.5319
23.3658 143.897 348.525
48.1137 80.2625 135.248
44.1443 151.596 342.893
28.6298 32.9195 128.487
37.9148 174.933 96.4686
33.0552 28.5905 240.415
43.022 36.7996 243.105
25.0159 54.6543 228.587
56.3072 157.61 10.3345
51.5904 180.009 25.8588
29.7273 185.314 424.745
69.1846 238.886 234.826
43.0504 36.1961 153.975
64.5977 109.688 323.575
45.4671 61.6123 117.543
41.4348 94.7506 42.4712
63.8778 132.301 19.1702
78.0466 331.772 241.391
25.0979 335.392 8.91957
23.6125 49.1235 234.36
28.2921 160.028 146.524
