ply
format ascii 1.0
comment Created by Open3D
element vertex 1201
property double x
property double y
property double z
end_header
47.2869 190.899 79.1134
44.0015 200.69 49.3924
28.6988 116.381 232.995
39.1872 169 195.016
35.7653 205.749 52.6507
54.8466 143.591 56.492
37.1518 45.2775 204.634
52.1465 198.974 36.1889
56.3922 89.1982 76.0861
55.2555 164.384 191.761
64.9296 114.122 105.8
29.8495 101.801 95.0428
56.0357 179.219 127.105
52.1809 102.875 47.0015
36.0249 50.6414 38.0808
52.2165 52.9129 194.11
60.306 182.787 45.0362
62.1715 177.067 149.586
46.4862 147.738 39.1608
46.7441 190.377 36.1021
45.4238 148.603 196.032
40.4669 146.583 47.5352
71.3461 208.477 146.397
35.714 247.302 156.722
34.095 234.31 121.381
27.4235 55.6352 229.615
55.0662 58.9072 243.822
43.7153 163.531 42.64
37.898 166.245 110.412
53.7883 103.475 94.51
29.1707 169.769 103.618
37.2244 209.208 100.8
42.886 242.753 151.702
29.5859 180.567 188.338
55.0801 148.676 39.3953
48.1916 121.445 220.742
39.6347 187.472 107.177
28.7635 182.125 134.969
65.1121 195.109 234.572
41.3681 234.238 135.59
55.3899 178.921 224.282
30.7247 195.169 101.723
36.2308 148.07 57.4267
53.4147 203.559 46.0838
46.1299 88.5039 116.589
35.2599 93.4898 137.81
33.4672 102.666 65.3804
58.5959 39.6279 228.784
44.38 153.491 177.091
47.0016 172.534 192.851
45.5611 175.57 177.367
62.7581 134.692 122.207
32.9277 168.627 130.008
46.7226 150.549 208.42
35.8008 193.332 112.909
33.2418 149.156 117.61
41.073 138.265 43.1602
45.6236 103.371 96.9159
40.0776 116.211 232.768
50.0447 100.859 125.829
28.2381 47.1365 232.223
46.5608 34.3897 205.565
48.7081 162.297 147.703
65.0904 220.972 114.791
44.6074 248.849 124.392
37.7661 155.526 190.042
28.2678 94.2631 60.2339
30.5508 184.333 95.7904
50.966 187.015 132.02
68.6556 97.0329 104.279
52.6066 153.491 51.5582
61.4402 169.377 144.993
36.002 213.848 120.311
35.5799 174.823 204.276
38.6141 117.815 137.921
76.0285 196.647 152.83
33.1157 60.968 235.493
48.3578 210.481 96.2927
55.5813 180.915 197.125
58.9958 117.887 135.711
48.2752 176.54 53.2321
37.7009 212.539 110.862
55.3896 160.446 58.1316
55.3541 121.26 121.83
39.4851 148.87 117.47
49.959 25.2397 244.802
28.9547 93.4127 132.293
55.736 33.7865 215.908
48.2866 88.7445 98.277
54.1154 85.0541 113.842
41.4787 95.0024 114.288
57.404 76.9294 34.1439
45.5339 32.8117 247.668
55.8199 150.255 141.135
42.9344 53.4357 21.1778
33.093 153.029 125.349
60.0509 37.4536 249.077
51.4443 161.714 24.1107
55.1121 215.018 102.969
71.0628 209.889 99.2873
56.9955 167.865 176.829
32.1613 202.438 107.055
35.8473 183.572 187.203
56.0993 110.495 53.6757
44.8354 101.8 62.8399
45.6031 12.5826 159.556
26.9679 96.2285 124.466
49.6979 107.405 55.4929
52.6688 208.403 130.668
28.5114 187.448 102.218
48.2311 203.32 133.746
45.8884 177.073 228.649
36.9644 33.4467 244.043
50.7176 154.609 144.39
41.7241 171.094 204.491
47.4223 168.558 139.04
55.2014 184.239 55.1309
30.5411 244.317 128.739
46.7993 78.9379 128.473
56.9007 119.981 212.664
47.7145 126.59 230.625
61.3127 176.765 199.266
59.5543 211.512 134.851
39.8215 173.927 107.528
57.1173 184.531 181.983
55.7411 214.829 126.499
46.6706 161.711 169.356
50.5709 104.061 225.486
53.835 202.866 214.132
29.9484 172.921 201.049
37.2716 159.787 211.197
39.2038 87.5093 109.486
33.2951 163.323 189.964
56.8467 132.778 43.3442
29.0927 191.149 56.8934
64.5402 99.4494 139.029
56.3878 136.886 127.458
50.1368 17.7589 237.952
31.4851 185.164 40.7649
52.5478 68.7167 66.1749
66.3484 39.6442 248.152
39.5935 186.301 198.937
46.3243 165.654 178.04
56.6395 108.848 232.283
29.1596 50.7386 212.158
56.8922 172.171 157.562
34.4567 100.296 110.847
57.4429 16.5763 228.243
38.9484 184.729 81.1564
41.1683 104.464 222.278
63.479 224.085 129.438
53.6003 73.4997 74.7827
47.4383 186.729 177.878
29.9302 175.749 178.37
43.4872 145.389 133.89
44.2986 195.238 116.856
41.4462 53.2811 246.807
37.7901 139.459 113.464
32.0914 80.132 123.437
31.4245 199.477 121.943
37.1829 100.786 54.6028
57.5741 220.032 113.137
37.5187 239.186 129.087
57.1079 70.0664 234.257
46.7911 111.639 218.622
78.917 148.381 111.865
47.3299 157.518 183.43
40.9722 208.444 217.408
49.4737 189.596 194.493
33.6172 184.612 86.178
42.1757 129.234 237.487
36.9437 70.6851 225.867
61.0634 21.5696 233.12
67.9589 42.5149 238.166
40.7941 152.99 211.362
43.5458 152.213 28.2175
63.221 154.788 188.776
56.2149 21.5726 219.09
42.0748 161.358 144.208
34.1769 204.645 116.225
27.9516 154.102 42.7252
49.1064 148.976 181.921
58.5159 94.1563 45.1473
46.9191 110.979 229.135
57.6118 161.255 30.5646
51.0028 144.518 137.402
53.7212 157.296 201.897
45.266 159.608 209.04
40.3146 140.602 54.2662
34.7481 162.866 175.263
49.3114 67.3447 227.967
53.5128 103.859 113.19
57.6872 183.191 244.341
32.2012 154.931 203.922
39.5645 76.6702 122.217
41.3233 73.0407 217.857
56.0621 149.614 130.539
49.505 117.944 230.787
49.4878 169.041 154.48
58.5502 176.425 179.119
63.2851 195.078 218.735
31.3136 158.647 196.648
48.9817 109.786 123.749
35.1628 155.748 177.452
56.4203 90.2957 133.583
40.4731 155.444 87.0923
45.9269 80.2399 118.839
50.2702 224.324 122.615
45.1906 81.4112 44.9614
60.5873 79.1906 116.118
28.8207 179.264 103.39
50.9913 86.3761 127.243
48.295 58.6891 247.464
33.2042 94.6765 55.3586
33.1995 196.71 130.958
49.438 162.024 80.9016
53.1939 140.315 42.0193
72.3226 166.367 141.75
61.3003 152.087 31.5897
55.5462 62.3401 53.118
29.9583 54.8253 31.8401
37.0211 190.163 238.755
46.3399 181.666 220.299
38.7974 151.147 32.6076
48.0865 63.4044 49.8635
34.3374 24.6801 238.989
36.195 88.2177 78.838
40.3023 172.469 129.692
44.8886 196.231 217.327
48.7799 211.283 143.352
59.5673 163.512 155.476
41.7592 148.096 62.7651
49.6458 185.517 200.761
49.9887 181.514 75.3629
37.0046 158.482 137.641
37.5645 246.935 132.151
56.7951 203.096 97.5531
33.912 174.823 121.488
37.5653 175.997 86.4531
34.7246 250.926 142.163
58.0368 52.0557 248.417
41.8043 188.653 184.589
45.8992 98.5368 240.498
34.3498 128.277 231.17
42.371 73.3497 231.381
37.1003 149.411 197.344
50.4996 183.572 101.5
51.8442 158.358 175.069
39.4221 99.1262 45.7296
37.7822 36.3656 205.302
39.0962 198.58 38.8366
51.4151 170.872 170.528
48.9806 212.623 221.24
28.8274 98.4866 116.557
56.3404 117.623 241.733
58.8064 210.777 218.632
62.327 214.626 128.896
49.7241 161.288 119.825
39.9663 191.876 51.6184
30.9304 149.023 47.9607
31.2097 193.471 47.9289
30.5694 33.2522 111.556
40.4831 176.486 198.378
50.0621 179.551 39.1317
58.7881 62.3117 70.152
71.2958 157.697 144.849
45.8681 114.96 251
49.892 193.411 154.302
54.2295 44.8753 196.321
68.4688 201.904 152.97
67.7777 85.1902 109.264
41.2291 202.31 59.6499
46.3315 135.713 49.8404
52.0014 114.093 249.789
32.0602 156.118 111.586
45.7888 156.189 198.293
60.0948 166.079 210.77
46.709 29.4882 100.445
41.034 99.4136 229.386
52.4279 72.5609 59.293
49.6518 171.06 81.7025
37.4953 196.628 86.6249
43.769 240.871 119.628
44.0938 151.517 123.439
46.9424 95.4589 142.571
53.3016 136.834 49.5348
40.9103 181.943 179.687
28.1953 50.8662 220.552
63.3401 161.023 145.998
41.4456 208.372 94.4122
62.3956 158.869 198.186
66.4018 81.0623 123.609
57.6817 197.408 56.3956
30.1433 108.511 235.214
39.487 14.4634 112.303
42.3002 120.133 125.13
49.5148 208.689 105.382
31.5162 231.458 127.06
39.6549 210.077 233.172
46.3386 164.576 201.542
60.747 108.193 97.7689
60.8372 83.8723 136.103
56.0404 82.5039 82.9967
69.4622 154.678 101.621
65.9554 154.32 141.51
53.7296 150.453 31.6247
51.8127 100.187 234.219
40.3772 172.975 116.544
61.916 62.298 239.03
27.6947 237.657 123.605
49.8934 103.882 69.7634
38.6413 65.1592 69.8876
48.4238 187.296 87.0331
38.6597 196.069 125.986
63.4919 57.4656 201.992
43.2911 211.447 119.512
31.5971 91.5747 72.8825
37.5793 181.777 231.503
42.7634 48.9853 39.2884
44.4232 218.957 119.741
63.6833 51.0993 206.302
55.421 187.428 33.0365
52.4968 145.894 193.306
61.9266 159.274 101.351
62.6058 26.6807 213.392
55.8418 106.347 67.1646
74.1103 152.709 139.227
64.5531 34.5635 205.111
37.7581 22.2729 115.725
42.9562 130.398 37.6282
48.054 112.53 139.849
54.9272 176.042 99.5277
35.7964 115.669 242.027
62.8844 172.075 192.027
46.6526 148.614 90.403
41.5745 48.5408 31.7844
38.4354 79.5173 62.9054
31.0258 100.199 84.8098
62.2306 140.221 115.653
37.9366 209.183 126.748
54.4768 158.027 84.5406
62.428 174.537 74.3413
50.4764 96.9415 37.9009
43.3908 164.346 216.628
51.2323 57.1247 61.3131
72.1219 157.544 91.9212
73.2245 86.8338 122.815
36.8639 198.206 143.74
55.6305 174.08 120.673
37.3554 186.847 118.245
37.8545 194.36 63.3162
55.8171 177.067 207.422
56.3823 25.1875 247.208
52.7152 42.78 237.385
60.0575 213.421 119.286
76.7337 174.255 127.754
39.515 107.011 104.909
33.9397 160.385 51.7843
50.2822 139.775 97.064
65.9137 24.0083 228.221
45.1911 180.219 198.578
41.9588 61.4425 244.692
57.1921 222.254 130.923
53.1784 14.0399 165.4
43.2108 15.9764 175.835
43.3262 178.844 133.801
62.2964 98.2165 97.3734
50.9924 215.549 132.265
46.3738 165.933 127.449
55.9677 154.14 186.034
38.1454 134.778 31.3732
38.7889 183.579 56.7091
27.9411 50.4644 237.899
45.712 89.0341 36.6561
51.9352 110.91 239.996
32.4069 164.345 202.383
73.7747 41.9591 236.74
30.4107 201.157 228.334
51.7286 176.568 184.024
44.1872 163.835 84.2935
40.4216 181.154 148.974
32.811 194.759 93.0297
34.8009 83.849 136.237
31.3929 46.8486 26.7115
58.0198 111.444 123.407
60.276 179.46 189.158
59.7398 57.3255 63.241
70.4501 140.454 105.071
38.312 164.794 79.0043
58.3753 4.70705 170.746
49.3129 72.4663 124.012
43.7782 154.641 140.838
41.6545 127.563 228.014
49.6697 151.182 107.913
28.6166 119.525 241.449
45.9078 174.06 211.927
30.644 42.7394 207.325
45.1812 114.905 240.639
30.3755 163.295 111.218
49.3103 184.912 94.6317
52.4916 78.3445 132.288
68.8811 63.8308 55.7785
32.2578 136.423 37.5164
61.9963 64.06 208.595
31.2516 138.961 45.5988
47.8611 93.8187 109.818
59.1687 85.1649 125.022
47.1844 183.117 154.884
65.7094 184.777 148.403
44.7433 82.435 136.48
46.7057 120.459 117.994
42.7246 179.891 190.798
64.0999 157.586 48.1691
43.2604 196.277 149.958
28.4186 191.038 120.301
68.7148 56.5041 237.592
36.136 136.308 49.9743
27.581 172.884 125.401
38.2928 110.302 142.748
30.9565 171.779 193.701
44.0525 188.551 142.518
39.9053 117.729 250.647
31.1174 31.2204 103.333
51.4383 149.063 82.2517
50.9995 119.163 108.581
36.3459 145.868 103.74
51.4612 157.713 101.155
48.9228 150.674 134.269
54.0638 126.554 228.416
49.1195 69.5031 81.1129
39.3732 109.466 249.317
65.6801 145.989 90.3275
46.4873 193.719 126.982
28.6031 200.032 114.311
51.822 168.384 33.6928
61.336 165.063 43.6611
40.3613 25.9651 245.299
65.3306 103.972 43.2788
34.7041 179.206 195.456
57.6409 31.0368 242.511
29.3205 29.0678 228.034
52.6041 191.82 215.234
56.2229 91.0948 141.065
47.3907 78.1674 99.2945
61.1237 157.736 140.085
37.5038 147.739 128.497
47.2331 63.1268 58.6346
68.9497 107.135 109.872
42.3505 158.44 80.4636
44.0881 167.683 74.6118
46.6934 82.7335 109.617
50.6738 173.723 199.203
42.7338 184.21 98.4902
44.9327 185.035 51.3465
54.8401 202.405 154.471
60.2475 190.273 82.2475
65.6973 169.441 155.138
50.1193 203.641 121.781
53.9726 165.263 216.184
40.9563 120.941 240.786
54.6097 206.864 148.87
51.1086 173.993 232.784
51.9799 37.8139 250.095
47.3732 17.9866 113.883
44.2098 114.334 112.256
47.2792 140.495 31.3031
61.2763 28.0427 224.542
36.2316 166.098 122.412
55.931 133.595 119.731
67.8219 176.77 90.5417
36.6133 80.3651 113.058
49.3011 212.07 124.508
43.3933 62.7657 223.776
55.3127 100.123 55.1667
60.0257 206.7 104.186
45.2468 135.655 110.624
51.6352 185.752 122.697
41.0199 88.2587 142.86
41.1578 145.474 24.4777
40.4289 65.7819 234.207
47.3936 207.657 243.658
41.0836 96.7358 77.9831
29.9794 169.512 116.519
32.3355 60.4376 216.8
30.0812 144.468 41.516
39.6096 206.986 44.6647
65.3615 69.1549 75.7654
38.898 159.197 202.794
57.7906 80.5602 74.3166
43.532 203.365 145.899
29.3567 28.3211 121.817
56.2807 163.488 79.3657
31.0477 168.472 175.891
40.7489 189.18 192.525
67.641 146.523 129.484
73.6615 214.768 139.13
60.9232 175.866 94.7717
48.3306 77.9676 38.5447
40.4156 164.404 31.4278
33.4255 183.722 62.4503
71.7377 177.532 148.685
58.318 221.791 121.888
30.0326 173.14 50.7634
30.6327 169.89 187.488
40.88 154.994 22.5444
43.2485 67.5093 78.5932
59.1028 118.07 105.167
32.6141 25.0029 171.23
56.2714 47.1593 225.867
58.5744 35.7006 202.06
63.6448 172.372 137.063
38.3933 158.489 126.124
35.5424 160.23 117.655
68.4909 95.2547 49.3861
55.1219 190.89 86.9342
69.7229 159.732 76.8191
60.8442 153.707 80.6021
36.2983 68.2524 214.034
29.3827 10.6508 162.915
63.153 83.2365 102.981
53.9042 189.604 47.3122
47.9335 142.425 117.153
53.3716 41.0341 211.985
61.0801 70.7135 214.394
41.2354 92.486 49.3032
62.9908 176.654 158.775
57.2636 90.9301 106.569
50.0507 58.2452 231.282
34.772 111.369 112.32
44.8945 154.226 114.68
40.2455 153.14 132.697
54.2002 74.5766 226.023
38.9588 47.5658 237.368
79.6229 213.132 120.82
27.5116 80.2699 62.6022
56.1203 159.85 148.72
68.0839 139.752 124.929
39.3295 166.151 140.556
53.3213 174.64 148.789
49.721 195.407 142.455
51.8762 133.309 33.349
49.921 63.086 240.829
43.0803 214.429 136.187
34.5004 50.0734 21.3025
64.4862 213.218 112.595
69.8377 78.5786 62.4197
37.457 97.6334 126.679
55.1693 156.577 209.129
44.4642 161.043 192.007
72.1891 115.122 114.466
35.6974 164.035 91.1777
36.8057 176.395 185.445
35.3988 104.473 230.408
65.8251 64.3093 66.5678
54.7861 129.731 101.727
65.6257 206.861 225.208
37.0311 154.7 40.7848
47.6538 128.469 103.741
77.8193 210.077 144.136
45.6963 171.815 165.391
33.7442 159.193 27.3493
39.9024 19.3014 101.409
70.8494 151.482 84.0282
39.0471 205.522 138.286
49.443 175.646 157.022
49.347 207.102 90.709
35.4275 197.683 240.41
55.6244 172.784 191.034
45.4347 105.212 48.2375
54.5127 162.626 155.032
32.75 177.132 113.103
40.1415 233.544 125.713
50.9281 130.718 39.5201
66.6207 66.919 221.88
50.232 141.768 128.365
45.5088 243.869 129.321
46.0562 164.519 54.6531
52.3748 88.7835 39.7114
59.7953 187.927 102.335
35.0915 169.869 97.0278
62.1743 148.229 133.309
37.0696 201.7 95.5638
62.6854 209.573 235.607
32.9396 41.1741 238.523
40.8073 19.0344 242.642
54.6238 160.081 43.0027
53.2583 219.274 137.944
60.186 74.0383 81.6082
63.8154 187.276 222.335
44.9109 58.5475 236.712
62.0635 184.753 111.019
48.5712 169.472 120.773
72.351 168.858 91.4887
54.102 95.864 70.8448
44.2887 180.739 79.7148
40.0576 163.485 130.838
29.7736 87.1733 117.274
45.5708 105.551 246.329
43.8965 142.426 97.4627
50.2297 87.2323 139.119
74.1739 37.4314 228.801
64.9462 167.171 107.182
47.2161 160.166 135.285
58.8805 100.145 109.544
65.8793 93.5931 65.3396
42.6344 208.961 131.681
46.9069 234.526 128.883
53.3402 66.784 45.2733
42.9396 187.75 133.181
39.5446 169.724 172.021
66.0012 43.2302 204.211
42.4263 1.59751 109.124
71.0892 178.172 157.307
29.6218 87.0465 127.421
48.5679 157.364 128.02
68.5665 221.023 135.895
63.3935 151.354 107.551
29.7609 106.306 118.011
50.0901 147.791 98.1227
53.4076 187.622 158.476
40.8057 74.4012 71.4061
58.0904 43.5407 207.207
55.9593 64.1279 213.776
38.6975 193.575 100.202
39.4911 169.395 212.334
47.1014 220.486 129.336
50.5146 121.67 241.652
55.1779 155.586 24.9474
68.0361 86.1061 131.807
33.8041 244.734 121.365
42.3671 83.9726 103.036
39.4499 88.8653 64.5821
61.8626 141.214 129.98
34.6165 116.787 221.536
40.7065 43.1154 24.4576
64.561 119.745 112.862
62.4553 212.359 98.6799
43.6297 179.279 63.48
33.4255 194.183 218.931
44.7296 73.0229 111.021
48.4562 154.626 21.343
56.4251 152.944 121.502
42.4505 201.004 104.515
60.6402 163.425 86.1126
61.3171 13.5599 176.795
33.8078 187.484 143.734
39.6598 3.8717 157.733
56.412 152.26 57.9501
38.3453 74.2607 45.8372
45.9693 124.479 246.176
51.6565 103.623 140.993
28.9497 77.0115 56.3787
46.7189 67.6728 237.658
57.6423 191.826 94.0107
53.5092 119.584 114.964
42.6002 161.299 25.4288
58.5606 21.1922 241.722
33.0813 177.78 92.7772
37.5706 94.023 71.5358
38.3312 56.5326 204.979
44.025 196.515 97.4132
49.4984 158.52 89.0732
52.6458 102.867 104.644
38.8544 142.488 122.662
74.9854 100.336 108.362
65.3229 26.0374 239.679
56.8579 137.878 33.8844
60.5944 153.815 203.525
53.6547 157.21 133.324
62.8092 151.991 53.4557
41.0068 61.7732 20.6302
64.0728 51.0073 239.328
72.4772 208.978 125.112
73.7946 148.368 132.948
41.6696 43.9283 241.355
44.6559 232.915 120.299
70.7544 50.0117 213.1
41.8635 182.496 35.0402
46.3351 71.6591 63.515
70.1405 179.242 109.777
61.2726 68.8859 38.716
71.0867 104.039 136.646
50.5711 42.2928 202.958
52.1519 64.0392 76.3294
43.5612 151.114 100.909
34.6092 71.4987 71.9859
61.4678 107.044 55.9535
40.2656 160.977 170.54
27.9416 165.541 182.476
55.5365 113.436 100.833
47.9012 89.7478 78.2002
58.9386 213.674 147.425
31.2085 102.334 238.73
50.8649 81.941 103.081
54.9347 97.0035 79.8226
52.3635 70.4822 39.853
45.3035 104.307 107.337
31.0675 44.7663 34.2121
71.0894 186.294 91.7104
43.4149 145.049 107.923
30.71 106.582 224.413
61.6755 206.659 92.2537
60.0927 201.699 145.805
33.0376 57.1668 19.4168
39.7441 18.2476 121.745
48.8777 47.9205 214.455
48.7764 172.822 73.2793
53.8283 174.182 91.8736
61.8337 142.026 33.3624
68.5124 152.932 134.87
32.3653 149.555 28.5385
41.0773 149.415 184.834
57.6102 80.8089 106.278
48.0263 178.197 204.78
56.9982 205.765 124.146
51.0484 91.1122 48.1551
45.4516 99.9149 71.7732
62.979 96.336 37.7045
55.9803 151.984 195.407
46.6288 59.6729 69.6223
55.3823 175.142 72.8509
35.453 179.186 101.025
45.2477 157.788 35.1344
33.0008 239.168 137.792
58.3279 159.424 181.686
51.1717 203.157 85.6567
38.7859 96.8429 105.756
38.5779 113.344 225.095
43.2048 82.9584 71.2104
34.8578 150.01 109.616
33.928 190.495 125.015
46.095 177.172 97.003
42.9871 161.975 119.793
53.0312 156.078 215.925
76.5574 179.172 104.185
46.1994 198.116 87.3994
62.3573 73.7099 68.8135
46.2547 180.765 146.394
56.0121 161.213 141.985
42.4152 167.626 186.121
40.6363 203.42 121.738
58.9235 169.4 93.212
72.0189 165.494 112.982
47.0899 48.342 249.413
68.0856 170.174 72.9192
91.2599 175.819 125.757
40.6157 181.844 111.903
47.2906 187.688 108.325
32.8805 59.7352 29.156
77.5398 215.904 127.906
53.4869 178.927 171.476
74.4393 186.802 154.064
52.8359 165.775 207.843
37.3482 180.416 127.768
38.0081 103.264 71.7251
53.2767 69.3822 205.48
49.2877 110.17 99.2098
57.2571 50.9786 241.975
51.9375 208.937 117.568
64.0016 84.7208 75.7684
35.0881 159.061 33.3423
66.9384 208.625 118.57
72.2633 174.749 136.721
56.3522 197.477 79.8906
39.2516 76.6222 131.009
41.9349 139.127 102.428
49.5018 170.22 207.613
44.2051 163.53 112.593
33.6537 62.0358 224.7
33.2799 92.8835 63.6853
42.4272 170.512 121.647
36.4702 230.805 134.195
46.1339 174.899 241.282
57.383 77.041 122.39
40.374 169.305 91.1012
53.5542 104.778 244.705
69.6712 31.0503 256.599
33.4097 204.959 240.116
81.8541 210.634 136.121
50.3546 147.928 59.2497
55.8049 177.543 109.995
36.865 182.793 138.503
69.5167 70.2866 63.5079
43.9256 51.4694 197.103
49.7963 76.8088 82.2811
61.2724 194.269 40.2125
57.415 115.977 226.593
48.6409 219.392 104.418
59.9324 200.534 115.908
73.1439 96.7214 135.571
58.702 177.942 235.622
58.6861 170.502 102.646
64.3733 76.2906 35.6433
40.1915 171.101 81.4538
77.9508 159.22 143.009
59.2237 161.101 108.007
50.3017 201.266 150.131
42.5977 59.8984 32.591
46.1638 180.208 115.792
66.4778 191.82 156.656
62.0965 61.4408 218.557
52.4697 160.338 72.7396
75.3551 49.1567 234.161
52.5506 249.519 140.507
49.042 177.071 86.0957
31.7407 102.975 134.266
59.03 186.165 137.519
31.3633 91.4168 47.9641
45.9764 44.8376 207.494
65.7138 101.768 59.1274
62.8973 151.832 38.8667
33.3658 54.7493 239.479
48.3823 195.695 134.389
42.0706 74.124 81.5207
77.8801 202.44 146.684
45.8306 67.7752 44.385
50.0796 188.885 185.827
75.0045 49.0686 220.306
64.0062 165.841 184.642
61.7493 139.638 45.7535
54.2015 152.708 91.7672
40.7605 64.4742 50.2205
69.7493 179.126 125.069
41.2489 216.536 127.188
77.3994 209.45 104.595
38.0092 27.7327 98.1128
88.6504 187.312 141.93
37.5637 80.3857 78.0876
37.4814 31.8282 106.189
34.6775 49.4338 242.767
48.5849 97.9629 55.3822
66.912 170.058 85.8911
50.7507 136.097 115.615
52.5073 91.1087 92.3707
54.7203 184.923 116.005
74.7876 42.5334 219.196
55.3133 65.2793 238.148
43.026 181.635 90.1539
40.1977 95.4947 60.1623
54.8616 146.157 47.8365
65.2666 118.985 120.509
42.7784 167.691 151.324
69.3022 51.8294 227.541
71.5252 216.949 117.217
40.1545 82.8121 39.3781
54.4792 196.328 116.558
56.6412 159.753 93.8235
40.1766 190.132 93.6259
64.7029 188.292 92.7483
41.0695 193.038 228.748
76.6603 162.559 84.8021
39.0392 98.4966 240.656
28.7191 183.403 109.383
83.7767 176.194 126.892
43.9444 139.165 59.5903
41.2499 197.233 136.146
50.7016 202.672 98.0118
67.0173 34.3006 239.052
67.0767 192.057 100.866
54.7046 55.2334 230.194
45.8769 75.9627 224.608
63.1402 69.0386 229.202
55.5592 183.485 88.1932
41.9302 104.77 52.806
44.4927 189.137 248.441
66.4877 199.329 124.167
35.8647 143.454 35.508
34.4705 35.8925 234.245
33.4501 125.193 237.453
64.3609 179.813 141.224
39.8114 77.7885 54.7454
81.0948 150.724 100.263
50.1019 91.366 68.6791
57.8547 109.8 256.098
52.8143 168.834 185.087
29.1788 83.7922 46.8023
43.361 213.449 100.318
67.7962 30.0621 214.279
58.1554 170.682 204.8
78.1648 184.258 123.234
74.4275 92.1552 130.028
43.9549 220.989 110.533
31.2924 111.609 127.304
29.6475 74.8742 63.9954
39.3716 201.555 131.342
80.1054 171.295 90.993
56.7472 110.919 141.046
61.1937 163.633 119.435
70.3432 153.22 127.176
67.8523 161.687 151.473
56.5445 94.96 96.206
58.8044 179.289 135.39
70.1558 189.405 115.338
69.9129 61.4017 215.169
65.1501 39.8425 212.887
65.2521 201.32 97.5402
51.7132 165.243 112.59
65.3582 105.054 252.283
28.3434 189.815 110.471
75.3446 108.76 116.427
66.14 88.1814 124.632
69.3428 81.404 40.6305
54.5387 171.933 137.367
45.612 138.108 123.013
37.0701 141.583 27.1656
75.2726 201.995 107.633
71.4252 72.583 56.1563
72.2945 36.0507 214.315
35.7401 63.3815 25.8769
46.1024 193.908 102.65
64.5953 103.301 67.6169
53.2711 92.3331 116.647
63.1546 91.1264 98.8317
58.4882 69.4201 220.054
55.1605 185.079 142.011
35.6023 173.806 142.036
53.9386 75.2022 213.405
56.6008 183.367 95.3089
60.5345 134.272 110.665
80.5802 169.771 114.105
56.2869 181.024 159.436
47.3656 199.373 81.4659
77.0982 179.592 81.7353
59.7549 146.05 49.5734
43.5865 173.829 154.139
47.5477 172.697 113
74.6917 141.985 124.46
31.8454 191.372 136.48
47.2952 137.45 24.9816
62.7136 183.461 158.617
78.332 189.411 117.237
35.2094 156.807 100.596
61.5583 169.275 79.1636
67.6699 102.767 51.7365
66.4692 215.59 122.216
73.0929 44.6342 226.108
60.0794 70.1447 59.2004
76.5594 106.704 131.217
30.6183 162.374 104.227
55.2517 84.4007 96.1471
53.3216 38.2648 199.967
40.6721 3.49077 167.441
35.5173 153.628 96.2181
39.5454 165.993 100.792
48.4416 119.087 130.68
80.7648 99.7238 123.538
30.1375 85.1326 57.3196
66.2092 201.224 106.916
81.5124 203.785 106.992
37.6611 92.0007 42.4042
64.3456 191.638 76.4553
55.8214 188.728 74.0028
49.6177 137.297 105.615
45.0454 95.4858 40.8517
72.3879 196.669 100.801
44.1209 184.865 241.882
42.0117 60.9817 62.7066
65.166 29.1977 220.145
61.8615 42.4082 242.843
73.7168 171.399 152.839
56.4467 14.04 238.409
33.0579 122.113 226.326
67.627 164.187 95.3165
47.7412 12.3831 233.356
69.7281 63.6929 226.172
79.3098 164.032 93.5828
48.7591 214.378 112.233
74.9872 164.118 150.935
32.3915 174.018 58.6296
41.6053 148.829 95.2494
69.9845 193.274 151.881
42.2373 197.214 82.0832
70.045 47.805 241.651
75.4683 192.306 85.5839
57.0453 100.008 138.21
69.4344 161.944 85.4129
63.8944 153.202 95.6869
60.4849 143.592 106.646
54.997 62.0493 223.515
59.2473 60.3071 45.4845
55.572 169.057 108.609
55.0223 146.538 23.8358
80.5903 157.474 95.9924
66.0806 1.5499 41.8535
68.8204 170.902 146.114
65.846 79.4175 72.7348
35.2259 106.274 243.818
52.3703 27.3864 210.055
62.0198 203.271 225.265
43.1898 188.183 153.716
84.6828 174.997 100.996
78.6093 173.94 146.334
51.2832 199.045 105.742
47.3202 169.937 88.8721
65.158 94.2073 74.1571
44.0829 54.9628 207.077
59.5869 191.424 158.843
69.4864 154.974 110.163
54.5142 184.954 81.3217
58.6074 47.9158 214.824
46.4832 48.0825 200.722
56.7928 101.779 39.3066
74.1194 163.823 97.8045
68.048 44.8597 219.878
47.3862 47.8617 230.412
67.2979 199.661 86.0312
43.2416 184.937 124.699
68.069 146.413 112.588
40.1184 70.2628 210.097
59.8341 98.8903 73.4937
59.0982 55.9088 55.0669
80.667 167.046 144.669
63.8303 163.334 93.0544
76.3231 206.66 115.045
39.8431 122.82 221.368
56.2008 200.476 245.817
55.9793 141.825 120.053
77.9581 185.835 88.3456
84.8017 196.675 142.462
41.6924 85.8444 126.426
61.6649 88.1231 116.377
36.0923 69.5143 60.2414
68.9278 182.345 98.1654
63.1681 163.117 203.523
59.0369 193.99 130.867
83.0706 178.647 92.2305
42.6262 179.816 168.705
41.6612 159.362 95.8528
74.7678 158.194 125.087
62.6299 103.557 117.606
68.736 205.291 112.458
66.7362 95.5159 131.101
70.2426 83.1901 117.512
56.5944 204.086 232.438
66.2283 104.68 100.535
62.933 181.219 120.285
46.9838 151.392 46.945
60.7692 177.533 103.672
76.3454 180.99 130.191
46.7463 158.203 58.1298
69.9549 74.3611 49.3853
31.8784 1.84238 165.352
40.9857 180.425 223.579
83.455 203.437 137.837
67.9043 60.0687 230.47
51.9855 223.217 111.42
73.9439 172.196 106.882
63.6967 175.631 109.801
69.318 213.784 105.432
79.5056 148.902 127.836
41.8416 86.1345 56.1953
54.272 32.9259 206.793
81.1707 182.209 138.494
77.5193 165.768 127.824
74.8538 166.743 80.1848
70.8098 137.621 115.483
49.6309 195.484 90.3114
81.7009 159.886 122.3
56.2104 67.3369 79.8734
42.0973 82.0317 80.3461
65.5322 217.46 140.563
75.419 175.512 113.187
55.5501 169.881 125.055
55.607 201.007 106.768
64.438 108.244 260.006
70.0469 196.112 92.9823
76.3481 156.344 103.449
57.1239 91.0742 34.3005
68.2127 205.754 94.4344
75.3584 177.08 91.1452
46.3437 187.547 149.17
63.709 59.6106 225.324
79.2037 158.21 88.9343
40.5793 102.58 142.945
80.7847 175.801 133.608
65.2866 207.097 129.045
56.5769 150.469 102.881
78.7428 193.059 146.188
74.97 91.8607 110.636
39.1596 254.003 144.398
47.946 70.924 218.957
48.366 73.7558 210.202
32.1897 82.9655 71.408
77.1305 199.422 93.1128
54.5782 50.4584 206.312
64.6991 177.109 129.271
58.0616 62.9782 203.751
67.1667 108.498 136.091
31.1685 54.8257 25.265
64.9896 187.684 127.776
57.3798 157.068 112.281
81.1473 209.554 112.191
83.138 160.965 132.799
85.6643 207.483 118.908
59.855 50.7281 198.822
60.8445 139.055 105.422
67.8149 156.114 82.0211
51.0841 185.905 249.315
64.8646 193.709 112.093
69.3921 192.8 79.1754
60.4015 148.203 115.882
59.4729 186.182 151.316
68.3952 61.8442 49.108
69.9151 162.45 105.072
38.9753 56.7296 218.648
67.272 86.7144 48.8401
41.6176 156.935 58.727
64.2464 197.977 135.922
31.4477 181.688 129.063
67.6226 113.786 255.686
69.5453 225.05 126.563
53.1104 82.623 47.7873
76.4252 172.154 83.8387
52.8079 1.7773 165.794
66.8027 177.573 135.654
54.759 167.695 198.845
73.0089 198.744 124.421
71.0754 164.242 130.868
56.4361 56.0193 200.148
34.5217 177.408 65.9674
77.1741 100.311 117.068
57.4562 29.7906 207.167
77.7671 181.168 146.093
75.5478 145.925 118.066
67.0034 195.845 117.84
77.8701 162.054 135.207
87.52 158.493 126.802
74.3205 213.385 110.857
68.9775 185.994 106.455
77.7426 92.4654 119.164
71.2975 181.55 116.265
70.965 193.456 107.687
66.477 142.998 96.1081
84.0433 186.485 148.651
47.1238 34.5055 108.153
54.2926 254.05 138.563
64.1658 206.746 151.321
74.3471 219.568 123.309
44.0291 124.289 91.6197
82.2772 190.851 139.705
30.4926 143.146 34.0275
65.9056 146.985 119.983
64.2531 1.35125 48.4723
65.3558 183.855 233.555
41.9951 53.4051 217.483
51.2582 36.2605 242.077
49.8915 175.071 129.929
41.8963 89.4991 123.311
71.8769 169.379 123.688
69.6563 181.457 81.519
37.0211 41.9651 231.919
46.6578 79.6219 53.0335
63.9844 166.765 128.496
58.4005 145.79 96.9377
71.5287 110.99 128.682
47.6004 64.6129 66.5147
74.051 185.374 109.76
74.7465 70.1444 46.5711
51.7512 211.703 236.511
56.7591 120.126 177.71
74.1161 218.346 131.584
82.2439 170.481 121.276
39.2449 92.1201 96.1916
82.007 194.631 132.405
57.6687 195.9 238.853
88.9285 167.712 113.68
36.3981 53.2134 26.2829
81.1004 187.085 110.575
83.5066 154.166 125.481
61.6283 190.05 119.381
29.8241 239.874 119.609
80.105 198.523 115.69
58.5853 104.714 61.6061
73.5648 55.5608 222.014
71.6382 112.865 122.654
66.8954 56.9559 208.9
59.2634 159.188 130.261
86.0659 188.17 119.303
72.6418 172.982 97.3555
81.9354 168.962 97.3457
51.861 122.271 128.25
86.465 167.481 135.057
77.488 189.852 94.8497
47.7759 4.25306 114.369
88.9428 167.6 127.667
60.7273 154.512 123.917
73.0674 191.478 133.481
78.0283 155.816 130.596
68.7262 81.3455 55.321
27.3268 5.79116 68.2325
47.8551 50.8744 223.501
68.9998 96.7021 113.116
85.6949 175.617 138.841
57.0616 106.807 107.689
90.8369 174.52 109.912
58.7454 190.792 148.484
62.2603 151.381 86.1428
63.4299 87.8581 55.2988
66.335 156.271 120.615
82.9578 182.223 106.583
78.8075 109.757 122.199
