ply
format ascii 1.0
comment Created by Open3D
element vertex 1454
property double x
property double y
property double z
end_header
35.3133 119.185 70.6547
50.8752 83.8019 47.3288
34.8855 7.55522 143.672
49.4221 10.2844 149.526
55.3209 129.031 98.5287
61.8918 128.575 175.351
56.5976 133.772 83.8807
61.987 62.6571 36.7147
34.0502 76.0521 86.3796
33.5787 56.237 106.315
48.9598 13.8065 142.123
52.9363 101.739 135.987
57.8072 78.525 235.894
76.7229 65.0361 270.136
60.5983 131.733 33.8052
35.8126 114.586 256.368
33.7092 73.3275 95.6194
38.2225 114.054 170.193
36.4051 102.539 78.7157
81.4316 133.809 237.716
34.6596 46.086 79.6556
50.0076 73.4691 60.2867
60.1507 110.3 295.152
34.2193 60.339 97.3409
43.866 102.38 195.043
97.3942 113.671 77.3655
36.9957 63.7833 90.776
36.1591 76.2641 109.287
69.4868 99.1008 194.332
38.4177 73.6748 120.312
65.6459 68.3968 110.907
56.1713 50.7933 86.1754
51.4264 82.2843 343.203
54.3163 111.886 89.7413
44.322 104.99 113.423
71.0073 62.2684 74.7657
38.1603 93.9222 321.614
50.7929 84.2779 280.982
67.4574 67.9137 49.3304
66.7527 66.9481 128.839
47.9023 79.7388 251.284
35.1454 87.142 89.6648
61.0722 122.234 32.9197
71.6849 97.3932 177.424
46.4607 87.0335 94.8257
36.1749 68.8493 114.6
57.3687 146.984 85.3484
41.5259 82.0478 338.074
49.0149 85.966 182.879
40.6243 95.5692 190.05
61.5675 82.9746 44.5295
46.4287 120.194 171.742
67.8294 157.279 42.7446
49.3532 113.568 160.786
70.8368 36.1183 45.5388
37.126 115.669 62.1746
72.5979 159.725 92.9144
63.6568 91.609 124.354
49.6795 44.1908 48.4265
60.726 123.16 50.9636
48.6994 96.7498 279.22
54.124 135.516 263.66
49.2486 108.64 43.3127
42.6505 93.9553 177.236
36.817 84.2515 317.532
43.9516 10.0482 152.158
72.3073 87.3852 218.487
49.6954 137.602 47.9982
40.2478 117.708 264.673
75.6894 135.113 102.724
52.416 127.894 70.8725
56.5157 89.5889 174.512
39.2054 110.638 82.6744
51.7706 102.468 270.279
66.2116 48.4873 96.5714
39.1319 110.161 58.1101
43.3198 15.6799 145.298
59.1377 29.4347 96.953
34.4503 136.527 72.0276
53.429 76.0398 75.8243
68.5669 110.486 42.7211
39.7224 6.00327 137.676
109.129 137.691 47.2724
69.026 121.753 190.349
60.6966 152.867 78.1679
34.9622 85.477 230.941
61.1457 87.1219 191.095
65.4249 112.011 134.627
47.0297 74.3927 127.075
65.7298 90.5001 41.9773
50.3969 50.4224 118.766
59.0017 83.3713 280.779
36.0166 39.8938 81.3678
35.1539 107.464 243.477
77.8161 171.07 343.811
66.9932 69.4375 244.566
40.2318 100.739 58.2066
64.985 88.819 237.956
76.7205 66.676 251.504
49.4434 126.757 43.3153
65.4547 158.299 61.4609
66.7668 118.524 134.228
76.9492 136.27 93.9047
67.6745 76.2933 228.708
42.744 77.8128 54.9478
38.7834 123.358 242.356
79.286 92.1159 59.3882
77.4242 53.0508 84.2831
68.9553 114.657 171.061
65.2772 76.909 283.964
58.2554 84.6561 320.614
57.9064 120.855 39.2692
43.3678 97.0362 119.69
66.9917 67.2545 238.084
69.3441 83.3434 39.8735
36.2897 67.0589 101.675
51.1378 156.643 69.3157
44.2773 81.1168 89.8032
44.8627 40.3765 113.876
43.8298 118.162 84.787
73.835 88.9791 38.2198
64.1387 122.175 197.69
44.0438 71.6798 80.5731
60.0927 89.7728 163.246
100.602 74.8061 255.109
56.4545 120.375 198.774
49.1484 84.9368 166.316
45.2001 91.275 126.567
33.3344 90.8058 71.7124
84.8779 66.8601 257.091
61.6574 66.001 85.1542
42.9811 105.464 49.668
84.0812 69.9487 281.666
64.5546 71.5802 332.388
43.2858 120.58 54.4925
59.5463 157.829 71.4451
83.325 118.15 102.962
53.8589 66.6193 40.1146
33.1474 68.6582 106.307
64.2353 109.212 139.898
58.1278 124.867 164.659
54.1493 128.444 35.599
50.8326 47.662 108.87
34.5809 47.3161 99.9224
49.8795 96.4145 156.13
45.7888 124.296 180.326
58.3502 49.7623 60.5355
60.2771 23.3308 76.4918
89.8352 92.1612 132.418
81.8725 125.424 41.1651
81.221 81.7417 258.937
42.1478 37.3381 101.08
90.7562 63.5885 65.2315
70.3111 77.6522 64.6715
63.5884 39.4595 63.4748
58.0656 45.8735 271.578
48.7374 118.855 195.627
47.8901 131.869 89.5918
39.1551 75.3548 322.761
54.5587 94.6479 273.132
72.7246 137.174 236.838
39.9849 110.888 163.667
60.1036 122.447 190.288
62.6003 99.782 247.967
35.0858 111.569 249.272
38.2957 102.891 259.001
45.838 171.724 348.496
40.3606 88.2414 58.4842
62.9588 83.1794 342.729
67.3294 28.1236 61.0878
77.5714 120.795 128.168
92.3229 111.103 64.2016
45.5928 130.326 238.704
62.1768 64.4804 70.3647
64.0371 86.1917 94.6141
61.9085 47.8994 109.32
37.1341 112.48 178.197
83.6803 102.944 286.834
58.6235 142.066 73.9729
55.0413 89.6482 231.53
34.5322 131.38 62.9731
87.1025 70.6524 139.449
59.9637 100.381 237.049
40.6507 67.7235 55.4982
35.2809 93.1674 82.4702
75.021 103.087 175.464
49.8952 75.5903 45.8457
48.5097 67.2732 68.4999
73.2598 81.8018 109.812
54.0645 120.594 286.327
67.2676 68.1748 142.593
44.8499 143.252 84.0372
52.8734 90.4329 56.755
48.6334 2.07398 149.809
53.4706 68.1964 326.941
48.0332 94.3937 135.678
55.4464 107.904 41.8455
43.8438 106.805 91.6898
39.7798 94.9269 257.905
56.0864 116.895 81.8526
60.7106 24.6115 67.5709
80.5097 93.971 111.042
81.7184 56.5281 116.623
46.3899 83.3332 341.183
102.973 142.017 39.823
63.3741 84.1284 118.324
37.9871 132.966 82.1443
59.1772 68.5978 110.629
42.0408 95.339 228.067
39.2247 46.9469 76.074
59.4795 100.314 49.1332
55.4371 135.545 272.769
54.9736 80.8328 66.7617
70.4214 43.1122 90.5579
78.5709 125.14 88.8469
96.5628 57.2265 106.594
40.1283 125.434 254.805
75.82 95.8709 216.833
50.1997 74.7051 135.389
59.4254 68.865 250.396
85.6866 145.902 32.7897
82.408 60.6933 67.1408
46.9207 37.6057 267.489
65.2805 94.7245 167.886
63.3173 44.8712 37.442
44.3387 135.379 80.6312
40.4913 116.239 236.876
73.0191 101.379 187.905
64.4503 108.853 246.475
54.3196 96.5581 143.262
48.9092 136.457 82.3905
71.847 124.028 85.8019
99.5274 121.659 136.426
42.985 33.5353 69.9017
68.187 150.01 33.9183
69.9392 92.0933 98.5545
86.8313 64.9526 142.569
54.3589 113.543 267.016
92.2009 112.676 120.321
52.5283 152.672 63.6926
41.1465 159.198 151.706
46.8543 129.329 69.1915
37.601 41.9399 94.4514
44.4151 131.059 252.603
49.7561 114.85 286.205
54.4017 53.4632 53.545
68.1415 129.613 79.4834
67.0978 100.534 284.283
73.9239 110.144 260.507
39.0251 109.762 190.512
80.9753 91.2471 36.5585
70.9231 114.256 268.309
77.3132 92.5756 141.782
72.7392 64.3365 136.223
63.6479 67.8998 270.44
93.9532 24.0545 89.2588
62.3432 134.513 288.06
59.0968 45.4602 118.656
57.9388 90.3689 198.422
75.4627 162.813 84.7821
77.1291 118.134 294.344
78.9713 75.1425 283.931
73.5567 67.4141 235.696
67.9684 22.2953 69.1196
47.0031 124.756 232.916
60.9992 64.0938 52.0282
71.7522 75.1347 279.402
62.4263 102.413 107.266
35.7706 81.1449 67.4372
44.6734 150.603 152.438
88.6451 154.766 101.936
60.6929 114.589 204.565
53.8644 96.9774 334.849
69.5258 73.2086 120.138
39.1717 89.3616 243.948
57.8388 97.9927 325.178
43.3199 96.5555 63.9155
48.9219 111.487 200.448
67.4056 53.1519 111.033
73.9214 65.4632 37.5646
70.6882 126.2 97.4453
70.4753 95.0855 186.256
49.5369 82.3292 125.054
47.7526 46.713 56.4038
54.2424 95.8045 86.7494
79.4947 162.688 89.679
86.6361 127.657 125.588
62.3886 140.499 274.143
71.5688 86.7736 104.864
76.3374 161.85 77.8453
107.343 121.035 136.001
57.7693 67.8466 132.682
53.8935 76.4106 108.103
77.6693 73.8063 154.091
56.4347 134.757 240.512
87.6048 122.265 140.227
50.0569 132.271 251.615
53.5838 138.231 37.285
43.0492 72.6893 124.97
35.511 143.509 64.4371
81.1711 65.2826 36.9582
68.8035 111.893 95.7068
67.5393 99.2926 95.6241
56.5022 83.251 338.74
59.4961 76.7269 273.825
52.5152 108.891 126.976
62.2153 102.773 161.841
67.9901 71.1038 34.9852
50.118 83.9967 307.73
36.1186 142.53 74.406
46.6216 74.8925 316.202
37.4165 106.392 173.763
47.3091 117.122 229.844
58.4995 48.8134 261.762
46.5017 97.4565 334.333
46.7011 88.8672 315.733
49.6946 80.6309 69.8718
68.5071 126.905 175.954
69.8978 135.569 100.734
85.0702 121.769 26.3295
60.9241 118.18 125.165
37.5233 85.3213 102.136
37.0827 52.7964 74.7307
74.0896 90.1427 134.643
75.9099 107.672 115.471
63.6278 38.3964 96.6081
71.0771 150.161 79.2625
63.2526 109.813 221.842
58.564 52.2017 114.618
40.6489 53.8316 120.494
54.6219 75.1005 245.783
82.9376 96.7883 35.2948
33.1315 78.6871 76.5967
57.3955 80.71 147.616
76.3785 43.5954 62.8162
52.8719 136.977 54.974
97.4088 110.123 113.547
59.5746 126.821 239.517
71.0166 77.293 48.7165
74.1837 105.133 217.025
69.9294 82.6542 289.969
96.6281 53.3362 80.0103
65.4025 127.651 41.7133
43.5004 83.8069 179.332
72.1154 119.152 92.4891
54.5896 85.3501 145.028
70.6271 82.7579 222.778
78.9289 126.252 243.617
75.663 109.285 193.493
74.4662 118.047 305.971
114.05 121.344 76.3892
51.276 147.544 82.6346
56.7144 99.627 249.672
75.6438 64.5625 65.6036
66.6433 94.4631 55.5226
75.6496 116.202 121.534
51.8498 74.9301 82.4386
48.478 88.5183 77.8703
68.5518 75.2144 39.6868
45.1491 98.6785 50.367
61.95 91.9108 274.083
83.3806 113.996 128.957
70.9214 118.534 112.499
79.7532 49.8825 58.8914
65.7951 29.221 72.2064
42.3964 105.284 70.6692
76.446 84.336 57.6249
62.4944 89.2258 102.564
55.8707 147.371 42.5981
45.6217 71.7873 64.4232
67.718 160.694 54.5657
61.0407 84.8438 247.057
54.7884 107.295 252.963
77.6741 68.7579 126.145
57.5749 77.3092 120.783
59.5427 135.788 100.415
92.0464 150.518 40.8826
87.492 132.31 289.034
40.9599 96.0606 330
50.1459 4.17717 139.46
36.5731 95.7396 167.482
60.0993 155.063 50.7576
64.8746 109.809 101.727
92.8277 71.3196 151.382
91.2279 88.2685 279.826
82.344 134.473 28.1298
44.9587 40.1224 59.9162
72.6816 50.8173 36.2353
44.331 111.292 82.7007
51.9766 99.3498 291.111
95.9452 28.8425 75.4462
44.9563 99.4014 101.162
64.5336 46.0499 54.3626
56.4369 127.709 86.6268
35.4232 70.6027 79.8931
44.3291 62.9838 59.2471
69.6745 125.84 251.623
103.246 101.029 261.332
58.6378 112.306 287.538
66.4109 124.266 89.5818
38.9752 108.327 183.09
43.3205 66.5345 86.6895
56.59 60.9346 66.0636
63.3528 73.1996 147.22
39.08 37.6631 76.4676
57.8165 109.248 55.8848
63.7322 91.0074 339.434
84.0886 68.6373 59.3195
61.1288 101.377 284.776
79.4299 168.622 353.488
43.7315 106.139 80.7097
36.6202 124.269 74.9551
42.5172 127.234 85.2526
37.095 153.386 156.405
72.9829 120.799 233.796
55.0644 151.256 76.0043
61.3787 101.131 127.834
66.56 108.381 146.292
90.5205 139.078 103.476
51.7978 96.5122 46.5497
64.1187 75.0323 72.6702
43.9292 96.0495 198.237
63.3953 119.941 230.788
43.5483 114.956 49.1858
43.3694 98.1909 272.503
65.1728 91.2965 95.8023
78.9245 51.3618 110.926
76.3882 161.69 54.4632
42.558 127.408 247.855
58.8637 57.2498 125.367
39.1536 73.6421 61.1176
53.8305 133.019 235.789
88.9429 70.0459 271.515
36.1998 89.1285 329.007
63.3263 46.0591 68.6115
59.8423 121.54 283.596
75.1579 139.743 281.721
52.6726 136.426 248.619
62.3598 75.905 139.522
72.9385 141.706 260.481
66.8932 146.449 251.418
62.3298 150.944 37.3586
36.8618 92.7717 62.3318
43.7767 112.322 89.3516
42.6187 85.7671 100.996
68.1247 29.7052 98.1158
78.1439 53.4463 36.1328
75.3981 111.4 94.1555
83.7734 111.417 296.96
72.0753 33.7855 75.4826
53.4427 97.1864 163.745
35.436 118.926 175.258
51.2452 86.6277 84.9536
65.9493 99.9182 123.417
56.0535 102.705 295.539
88.7128 134.757 264.011
85.2079 71.9912 154.529
53.7561 147.053 48.7159
59.5899 110.775 134.339
56.2066 108.358 236.197
38.5947 104.01 188.803
93.123 79.2647 280.187
70.8813 131.038 294.912
80.4782 21.5407 88.4724
97.2035 132.126 49.7359
67.4449 112.848 36.1296
71.1487 125.607 282.158
51.2527 129.558 61.1084
47.9755 115 92.1742
43.7927 57.9077 72.8541
56.8796 116.949 49.3397
54.9509 60.6476 38.5012
51.0267 145.279 58.5502
82.8294 138.95 107.076
82.6295 83.9481 133.527
44.6009 84.7956 171.297
63.21 96.004 317.605
56.7918 127.007 50.5657
64.1918 90.544 287.808
38.6924 51.3354 67.0582
38.638 99.5902 250.202
56.2534 117.527 158.239
54.9927 24.4197 74.9631
55.2791 90.7211 161.604
51.4026 91.0863 340.199
50.4519 126.861 240.672
59.7642 104.861 118.841
39.3776 149.283 147.745
92.6279 129.951 34.5141
67.0143 73.2887 262.031
90.2492 106.067 31.739
74.4826 123.629 193.235
44.4021 94.8958 108.229
47.6939 28.5603 79.8518
59.2116 113.293 257.215
85.9161 85.5207 123.938
51.2057 82.7449 244.415
75.1845 82.509 120.704
67.6404 80.17 327.242
35.2209 104.577 70.3382
41.8387 79.4998 107.394
62.2034 118.85 304.44
39.2447 46.8466 274.594
85.4171 79.5259 236.288
53.1869 27.3525 86.2217
48.6181 114.629 112.172
60.2178 123.768 291.241
61.6229 63.3365 94.9822
44.9802 83.4841 316.257
52.2004 58.1768 80.3501
65.7065 126.564 296.698
45.5611 95.854 266.357
58.1591 66.627 73.8578
79.0323 127.406 300.472
52.8491 85.6091 194.201
59.9673 103.035 254.212
51.4682 123.713 86.7605
88.2918 128.475 251.552
53.04 107.935 111.518
49.6948 84.5308 64.0472
42.9699 97.3933 163.788
50.3297 110.86 228.063
71.4851 147.065 72.3363
59.5823 94.1259 336.069
43.2117 69.8763 331.445
67.5912 97.4834 255.026
85.9727 114.643 26.471
60.2245 137.694 31.9956
37.8695 114.4 72.9341
54.6633 114.788 301.536
90.3106 95.5564 270.897
60.2751 87.7478 88.4743
86.7484 111.923 123.613
51.0075 102.098 44.9065
43.3585 106.919 248.68
71.1791 108.885 221.986
82.0253 92.3043 247.809
89.4823 122.81 74.3111
52.3976 112.177 251.1
51.7986 86.2422 189.396
51.4023 69.2445 125.898
69.5308 103.212 165.412
44.0398 121.517 67.4075
44.823 85.014 256.27
62.0374 100.03 141.229
85.1015 124.136 134.78
45.4191 85.3358 189.807
68.872 90.4562 293.907
45.2257 56.0261 54.6433
72.4413 168.126 356.846
54.1885 78.229 94.366
83.4616 28.1136 76.2494
79.1837 139.718 273.432
47.6695 104.305 164.211
63.7181 79.2921 64.6367
70.4363 39.9186 97.9016
58.419 81.5175 110.917
69.5712 70.0086 90.6342
89.1439 52.263 69.4124
96.6416 151.203 47.3475
58.1129 103.102 90.5289
47.2236 85.3047 70.5869
83.1235 80.3528 34.8608
77.2489 54.8432 48.4577
50.4079 79.6032 267.582
64.7461 74.4611 340.085
83.9613 84.1572 288.231
50.694 42.306 95.9184
55.6307 116.152 123.583
55.329 79.9069 311.169
75.0521 90.7192 52.4597
43.0025 32.2455 79.6612
77.7051 83.6429 271.429
53.9811 138.524 257.917
62.8479 86.4591 59.8317
72.597 114.594 185.66
81.5202 113.964 83.7611
76.0355 85.1665 148.153
69.6827 101.96 104.881
73.4801 49.4005 95.1962
75.4877 98.184 41.7383
41.9864 80.7922 224.892
94.3363 119.603 67.2917
48.4175 92.0299 174.712
42.1432 64.7269 77.62
49.051 104.913 233.846
95.061 155.376 53.6446
54.0907 69.4561 333.737
70.3418 113.705 139.388
80.344 137.832 284.263
75.5408 90.746 118.488
82.7781 95.1343 52.2045
34.601 46.9623 110.35
54.258 116.739 276.653
35.6414 119.633 248.806
72.285 121.706 257.839
67.6793 128.154 106.478
62.7056 26.9772 91.5966
54.8947 72.3449 271.029
48.7369 80.5589 76.9891
86.9851 117.281 144.367
39.993 70.0145 98.9788
60.123 117.558 112.651
52.6119 122.966 277.299
77.5217 119.092 89.8857
39.3854 86.2154 334.17
73.9069 100.017 261.341
47.1139 58.9527 44.7478
65.2741 103.523 229.482
82.0054 35.9685 52.9443
79.2035 142.933 248.821
60.7435 117.941 267.297
75.6298 146.51 34.4521
44.7208 51.6248 121
75.6213 94.6875 300.417
76.1456 81.4362 289.776
39.5998 58.5926 112.888
38.386 124.342 172.252
50.2421 80.6744 319.592
90.1866 80.5961 123.528
96.8676 118.519 240.481
74.3318 145.712 248.578
87.9921 119.589 81.298
35.1433 4.14331 265.347
59.2152 123.051 225.647
44.9598 102.054 85.8683
40.4213 24.2584 356.259
74.4737 50.71 73.3702
58.9845 141.777 255.102
46.5845 111.979 271.713
61.6552 73.4148 52.3721
81.1253 67.4092 236.836
82.6617 60.0448 104.622
94.6428 152.468 90.72
61.6407 94.9507 226.987
67.2068 90.725 226.1
95.783 74.0532 136.235
82.893 84.5215 158.412
77.6379 98.8187 285.495
82.7918 129.12 101.322
48.9368 95.5237 82.3401
56.3445 75.8978 137.813
49.6058 101.679 129.694
82.5781 164.322 76.0904
42.1922 125.169 263.123
61.8175 111.732 92.1539
37.691 91.3187 99.2648
71.6399 87.0945 270.71
76.6675 99.2776 119.263
62.6803 128.456 86.1869
39.837 40.892 268.385
53.3609 139.706 67.0479
36.0519 128.91 70.9329
56.1606 99.8229 97.9523
89.481 77.3781 42.0612
66.6619 75.867 133.366
83.1154 23.3976 72.1494
36.8922 98.0321 179.777
75.0696 137.525 42.6474
35.3076 50.6924 89.2341
77.806 120.162 27.0612
67.2647 110.174 306.612
45.7053 136.4 54.8418
51.6106 55.2862 124.431
63.0956 126.049 260.493
53.3512 123.274 292.718
48.6978 43.9228 121.055
54.7656 115.446 225.071
40.7831 94.3529 89.9982
46.8732 91.9518 48.5047
63.0894 71.1271 61.1464
59.1959 125.595 105.717
61.116 56.6371 43.2865
89.2553 61.0678 112.482
87.2769 92.6964 111.194
51.1685 66.5268 86.4381
44.2597 107.795 121.237
77.2168 157.756 100.846
81.9079 52.3615 64.8976
69.122 83.3789 62.8943
86.9181 159.082 50.4927
90.673 26.6245 101.256
83.6899 65.6249 109.443
64.7917 104.072 198.854
80.2188 68.1511 244.406
79.2095 93.0912 266.348
55.8436 122.684 230.217
77.3302 68.7999 262.657
64.8492 96.0102 332.823
47.0137 81.4053 237.183
49.0195 61.1931 129.835
70.4283 74.6643 153.14
48.5693 125.587 53.4775
64.401 107.515 302.505
85.4044 120.756 300.62
42.256 93.0956 336.219
46.1609 89.5081 266.693
85.1665 109.942 106.384
82.553 120.445 92.941
40.0081 85.8254 237.223
47.7933 49.4684 278.898
84.2852 44.8174 52.3498
70.6506 110.077 108.533
75.5225 147.498 258.54
38.9901 71.0454 87.2832
44.1647 79.8669 120.15
46.0059 90.2499 194.978
71.4212 93.1582 240.338
55.8908 122.372 81.2671
98.0326 121.678 123.873
51.3999 72.5448 320.736
64.9145 89.0145 266.973
54.0291 129.515 46.0386
73.8885 76.9345 134.877
89.081 159.816 96.1403
64.9192 48.9157 79.0539
41.2215 81.7237 311.391
69.3174 123.953 302.359
41.5177 49.7783 60.7727
53.9796 97.8314 233.444
46.6697 82.3876 268.26
52.9117 33.4508 62.2312
51.7271 106.742 281.673
79.4434 36.3533 74.3611
58.1451 93.7343 240.388
74.0033 71.7704 109.346
78.5894 140.542 32.9887
40.3164 39.0421 86.4521
56.2438 126.229 189.232
66.2618 141.617 241.523
75.6333 134.289 261.093
74.3357 151.663 36.073
82.4949 62.8737 139.917
51.9813 82.5096 336.147
67.4719 116.943 205.029
62.2653 65.0801 264.353
69.9533 66.7482 253.281
89.9683 65.7867 42.5728
70.5788 101.214 143.203
38.1019 89.9283 66.9924
52.9747 32.9135 87.8024
66.9693 153.781 96.3361
58.0182 128.604 230.457
83.3775 136.522 243.859
57.7927 60.3761 88.5429
59.4476 77.9706 86.038
68.3692 110.188 200.297
60.7196 102.404 226.665
58.0022 78.7144 257.791
105.657 114.276 138.597
97.6884 125.584 32.2396
68.1353 103.566 115.441
62.0267 137.639 84.6686
65.7963 71.756 100.89
84.5815 129.732 34.4101
62.962 74.0802 40.3672
70.0124 144.815 105.563
69.4886 87.5653 328.367
41.9621 93.029 55.1649
45.0205 143.244 58.2988
94.857 102.654 68.9693
72.8798 21.5585 66.4592
82.1956 135.923 256.512
57.9117 97.5627 156.72
59.6262 37.7099 40.705
39.4327 120.681 184.016
68.0564 121.936 166.336
48.552 153.106 78.0833
68.6727 53.2864 99.9921
59.0391 108.681 46.779
89.3134 114.273 296.526
82.781 134.449 103.453
85.0932 80.5454 251.363
78.4387 101.912 106.62
68.1928 86.0069 58.3086
75.4517 118.692 140.042
58.6688 154.822 62.8237
84.5827 164.257 69.763
82.0543 159.996 47.3859
72.8237 128.174 268.921
74.6835 119.365 271.04
44.8013 62.227 124.722
56.1401 102.343 319.43
72.0327 161.169 59.2298
96.7363 85.2239 123.021
63.6081 77.5466 92.4891
62.0174 110.647 40.1009
35.2128 91.041 179.919
51.6586 130.773 268.839
69.7905 142.086 95.3326
78.4422 116.237 102.172
113.286 128.825 119.094
66.9491 138.589 83.1181
58.7723 71.1721 98.5207
61.7829 148.096 95.356
83.6241 150.514 37.5341
39.4723 62.4778 121.057
45.8196 106.834 267.202
39.5847 85.6356 114.478
74.906 130.401 88.9644
88.0851 80.4784 287.747
70.6432 103.912 124.961
47.1425 87.0095 224.115
85.6321 51.8638 46.3761
70.9604 136.592 91.7832
49.6692 117.085 42.9658
99.1098 103.661 52.5627
67.5395 43.2664 45.8176
41.801 113.735 267.643
89.5629 100.885 287.661
76.4147 21.595 77.7748
51.3142 128.422 274.995
77.9619 132.252 36.9748
86.8823 132.787 282.413
41.8377 57.1434 60.6459
36.6924 57.4832 88.7582
61.5159 81.6154 229
36.7357 108.445 255.622
63.0824 19.9398 352.971
65.7305 132.87 231.475
70.2456 140.724 31.236
44.0251 14.4843 137.098
52.7534 120.081 163.46
70.2667 98.8394 248.827
62.5387 50.6404 44.0088
75.2835 161.543 43.9602
73.862 70.0623 245.318
55.0911 106.52 300.007
70.4274 157.956 85.8946
86.2271 111.319 81.6007
50.8871 119.848 91.0476
108.848 136.91 96.7359
77.3837 93.1177 290.391
52.4033 33.3628 113.184
57.811 153.186 56.9578
65.8236 123.56 51.8209
91.8906 161.873 73.8877
87.804 164.393 82.7363
66.2536 81.6103 122.128
72.7962 20.792 88.3651
68.488 67.5401 67.6099
70.7297 153.41 100.65
56.8713 133.561 281.49
41.1899 12.4434 125.267
71.2953 108.685 146.833
70.713 159.598 69.9593
62.4482 127.353 182.816
90.3069 89.8166 91.7225
35.6458 75.4205 66.2369
104.189 138.75 88.1407
60.5243 52.2395 50.1193
56.4906 121.499 89.9516
82.9851 138.692 35.4472
43.983 67.3415 122.477
102.051 121.841 46.1856
102.996 53.188 81.7365
106.44 131.044 46.0746
73.1669 138.111 270.584
70.4402 60.3426 109.386
57.9709 117.099 247.59
81.1058 146.254 108.231
53.9498 78.2603 328.844
92.5643 132.27 125.679
93.8673 95.9709 281.692
39.3885 59.0356 45.1468
56.0229 39.1047 101.2
78.4346 105.172 123.845
52.0216 128.906 82.4506
84.4085 102.708 110.352
65.0771 143.564 30.8784
88.185 148.728 105.321
68.9215 71.1537 56.4435
61.6984 107.735 97.5397
74.0892 111.456 31.1821
82.4861 93.9013 217.874
62.8955 80.469 267.144
90.6206 155.094 45.0333
57.3596 75.1131 279.35
51.6313 25.6491 78.585
76.0896 127.352 226.807
94.0522 83.082 251.451
71.7914 142.754 268.181
55.2019 68.8382 91.1467
38.1981 118.243 81.6234
72.7614 118.159 242.688
60.9153 83.1556 153.449
67.6349 106.411 204.879
99.2466 97.9204 273.87
72.4222 77.0349 126.765
103.823 127.782 37.0575
74.5522 105.607 299.724
74.1905 106.55 95.5555
88.3768 83.4236 110.844
63.1963 53.5759 37.2285
42.5041 104.121 264.005
63.5066 62.9477 105.903
58.5276 89.3499 344.095
66.5146 83.4325 126.931
40.7855 41.7063 65.5999
97.6993 67.107 144.823
79.0931 113.941 90.0131
66.9164 99.4119 227.98
80.6599 65.4698 276.205
82.6156 88.6839 238.576
62.2068 135.031 278.801
83.4425 107.788 275.66
45.3279 87.7841 86.3034
49.4445 132.214 52.094
58.8275 25.3672 81.6305
78.3606 41.8704 42.6779
86.8551 92.8889 286.508
67.7198 77.4522 110.171
91.6584 127.757 27.6742
60.7829 79.5477 57.8186
49.6562 91.5869 227.375
65.2747 79.1946 98.0734
89.6426 160.322 354.746
87.0898 63.7564 135.068
41.643 110.93 263.408
94.1717 101.637 283.212
96.1436 147.894 97.7048
76.5454 106.145 39.5891
74.7877 139.476 106.583
81.5575 123.314 224.901
66.8843 46.4271 106.515
80.8627 92.7889 132.668
56.4098 78.9737 54.8084
67.4619 132.579 33.7864
81.6638 40.3234 49.386
60.106 87.7868 226.113
78.6917 111.561 277.459
69.0338 125.872 31.1485
63.7135 73.1259 86.9859
52.2713 72.9528 95.3551
60.504 101.841 269.369
91.9343 123.945 292.14
78.2647 116.846 146.135
78.335 127.055 284.396
70.0635 94.8092 155.952
88.6438 119.001 124.23
64.6254 122.434 80.8246
69.7722 60.0999 37.0535
66.5397 80.9936 103.74
79.0085 155.645 35.5506
50.2513 82.122 114.356
49.6192 129.514 257.676
77.8551 124.885 230.92
46.5941 108.734 100.545
60.2878 70.1105 259.451
101.244 152.673 57.5313
96.0013 142.57 50.8467
79.475 131.259 252.669
70.9915 127.909 38.8563
47.8805 33.8913 55.0428
59.3754 136.316 234.721
75.7213 114.905 179.842
53.5919 115.524 52.476
73.5483 59.9621 48.642
89.5267 117.248 102.579
56.6025 101.034 42.3796
52.6596 86.7782 317.185
101.599 132.868 117.022
79.6209 110.792 286.14
60.8644 28.8409 85.0382
77.7871 130.31 27.2132
52.202 28.3704 60.6247
64.1268 128.085 273.887
56.4137 138.76 244.495
44.245 149.053 59.718
64.2357 118.272 85.596
78.6545 79.8004 154.26
77.1735 89.7429 256.948
88.9452 31.6384 102.84
48.4903 52.2847 47.0627
92.8979 129.23 116.362
96.5548 90.5285 274.176
46.9054 99.379 75.5514
39.8539 149.162 79.1995
53.21 70.783 259.415
36.9517 65.8388 67.0931
49.6427 104.896 98.1777
51.048 89.5427 198.604
58.514 92.8998 45.367
38.0466 2.12329 147.545
63.7792 32.4949 94.7457
87.6241 139.478 37.4764
89.2035 75.5694 110.247
65.552 25.5947 85.4758
68.8306 110.272 159.375
46.8408 32.5927 64.4946
60.9338 122.722 298.535
90.84 127.037 267.489
42.6624 92.0466 185.172
77.8345 85.7 110.901
72.222 69.4757 129.611
90.4995 67.8853 57.379
68.4191 103.545 253.596
86.7643 138.033 254.866
69.0744 119.144 280.161
72.8005 112.16 150.509
41.4426 78.0621 68.3112
48.4496 102.255 200.442
81.1097 92.0946 232.933
63.5175 120.32 115.208
58.0432 36.0312 109.533
45.5137 125.149 91.3249
88.0903 85.3197 37.3102
81.1508 108.904 103.026
82.5936 110.616 224.283
64.1026 31.1339 46.9505
82.8507 131.47 294.506
109.819 131.011 90.2444
92.9774 99.2376 228.721
80.0878 61.2419 54.5594
48.9998 99.4454 161.593
88.9926 117.899 136.815
56.5544 85.3038 59.383
60.7485 84.2678 262.509
64.7143 131.178 256.3
86.6466 167.716 357.12
43.1372 108.061 238.82
40.8789 125.063 57.3603
96.5278 116.22 102.505
45.5597 88.7473 54.4772
73.8417 131.692 233.401
87.7345 59.9629 72.4059
93.8133 59.0565 61.5268
68.1323 100.347 152.147
70.8483 126.294 244.808
85.9995 135.608 248.748
58.1951 69.9075 120.274
75.7745 113.168 49.1171
74.5394 138.375 30.804
69.4883 26.4237 90.9587
85.5714 69.6744 42.3164
81.9001 61.9264 45.2548
68.9667 61.6245 95.3164
64.8266 93.7277 129.522
71.4978 25.2294 56.4144
66.3005 87.6744 157.09
77.5603 103.416 290.047
82.6109 104.696 127.602
103.02 128.202 130.154
77.4462 132.918 292.393
45.7163 116.998 268.544
70.4529 25.8316 84.4644
54.7255 43.314 121.315
83.0213 103.888 45.5581
59.4187 111.361 232.296
96.5236 110.218 35.3688
53.7124 112.589 102.033
64.3356 122.662 269.479
51.5233 26.4063 68.213
87.7901 22.9315 92.5666
64.4753 101.21 239.823
56.7339 136.178 252.346
62.3642 89.0032 324.733
44.0019 55.8749 86.0917
65.5099 144.775 103.145
46.3168 32.5877 87.7811
64.793 94.2553 234.714
76.4368 161.941 70.3328
47.4841 100.332 315.585
41.1905 124.806 224.16
66.2793 135.36 71.7793
59.2065 78.252 69.9885
53.6199 90.2581 89.4471
99.0127 168.888 353.292
78.632 146.448 39.162
47.7681 75.9426 256.287
56.9049 88.6938 316.429
85.1702 24.1516 98.4609
82.9546 158.671 101.088
104.054 79.0671 55.9869
78.4485 23.9018 63.0829
39.7652 109.649 70.7065
84.1759 110.702 31.8815
53.4555 75.1445 117.334
74.1573 101.379 222.7
81.9331 119.353 241.639
75.1379 80.285 52.8181
54.0443 90.4748 255.753
95.8932 122.597 265.228
67.0923 96.0676 244.121
95.001 116.53 29.2682
35.1055 59.4624 73.3081
77.5779 37.5405 48.2369
73.0196 60.3203 91.5283
55.5854 60.1087 107.71
95.7178 95.9507 50.1507
71.3148 67.2841 148.953
49.3152 122.008 61.1325
67.2173 116.659 217.541
87.0074 54.2524 75.4866
40.8386 46.6631 107.611
68.8775 144.637 99.316
47.864 106.1 85.7212
53.2597 54.2301 44.6856
70.014 98.2625 43.7869
64.7387 68.397 276.832
68.5687 40.5763 105.208
60.699 118.868 106.055
76.0896 121.308 250.028
52.0712 85.6665 131.278
91.285 106.995 80.6212
77.6271 141.454 265.455
90.971 115.061 228.911
83.4712 113.249 148.44
93.591 146.582 103.76
80.137 130.301 93.2047
79.4136 71.57 277.302
89.8747 44.8251 67.5722
91.6544 161.595 79.9202
75.7895 62.2049 84.6618
50.1908 122.477 185.25
49.3392 41.8607 274.355
82.1532 134.378 267.408
63.5576 105.304 233.769
61.724 119.77 257.22
72.3822 94.2319 57.2419
78.8514 161.549 356.066
63.8393 72.64 277.63
55.1526 46.7724 40.3432
94.462 147.238 67.8838
71.771 162.073 76.718
53.7458 74.6867 253.265
92.2234 127.028 129.853
49.8552 128.886 182.692
67.8373 152.579 66.2708
56.5762 82.008 87.41
57.3481 142.207 39.1477
95.8891 116.172 139.14
75.8468 75.9899 115.358
73.1562 54.5774 97.6658
65.1219 113.434 116.271
62.8393 107.895 50.5517
55.76 85.5169 52.2118
76.1015 30.0865 96.6833
102.145 134.793 44.3248
72.8812 97.2062 99.4492
87.3605 29.3051 68.3102
75.6635 75.8648 258.728
78.998 48.3345 69.4407
84.9468 73.3405 37.1095
79.0234 130.991 273.566
52.97 122.241 49.598
107.313 146.321 50.8228
96.5818 49.4061 106.52
103.544 128.409 53.6553
68.9808 135.252 289.881
69.6834 141.621 274.157
53.5483 108.335 290.261
98.0294 123.921 130.083
72.4864 88.4755 152.231
59.2011 45.1948 90.9128
60.575 65.2828 117.3
70.05 128.669 227.722
106.561 133.391 119.724
82.3388 164.678 82.5334
51.7792 63.5092 66.1036
64.6676 116.336 94.8451
61.6019 94.9634 56.3414
99.1348 65.7103 45.5607
83.7173 161.724 94.8638
78.7998 25.0551 99.0689
65.1882 157.64 83.6351
46.5653 123.127 47.2916
65.9073 146.579 260.712
49.1933 120.581 67.7553
88.3296 81.7365 244.45
69.8643 68.3535 75.3045
91.8239 158.976 89.9007
70.5894 144.147 67.9487
63.9912 29.6826 78.9183
70.6246 77.4274 57.5405
71.8969 158.69 64.4691
93.9146 70.5991 58.9233
46.931 34.0731 100.313
79.8354 108.058 31.3073
64.9464 114.731 233.836
81.7206 79.9729 111.703
47.8097 62.0856 119.65
93.1688 128.273 66.6823
77.847 100.928 48.7541
93.4466 40.6063 71.7664
70.549 147.473 260.282
49.6239 88.334 271.479
42.8517 88.0372 118.209
82.933 74.4804 109.158
87.8787 95.0274 60.334
100.402 74.4195 149.341
78.4217 78.8139 125.75
64.4831 124.497 280.85
58.5514 113.577 92.3606
75.023 77.6731 35.4871
74.5353 43.3269 107.208
88.0289 158.516 59.5549
87.8101 106.544 290.867
110.225 110.878 74.5355
68.4571 109.408 230.709
42.9764 118.235 184.559
79.1774 99.6295 220.091
87.1974 22.8011 75.6943
60.2064 72.8353 234.961
55.6353 108.583 226.638
96.298 156.092 82.487
44.4568 86.3243 243.059
86.781 125.909 292.826
87.0748 24.2737 85.7989
67.5199 111.745 238.603
86.3618 97.3033 257.921
52.7204 76.8074 121.71
46.8998 92.0761 259.386
85.0686 110.605 87.9844
75.425 107.278 185.752
80.8246 77.9662 263.145
68.1414 111.667 52.2734
40.0983 80.7665 121.719
55.2498 38.2181 92.6852
41.5438 95.5085 262.873
67.1736 147.707 92.5489
94.4038 118.968 279.523
66.2276 90.8323 59.0811
66.8266 98.5301 294.274
90.3075 110.052 146.874
64.9465 103.563 91.1196
78.388 23.4163 83.5971
88.4323 82.5768 134.053
98.861 96.4789 127.411
94.1048 164.366 353.978
81.0416 30.5699 57.7646
60.6358 70.0331 254.468
65.8556 74.5262 234.038
77.5193 160.882 60.2243
81.6464 23.655 93.8773
93.4968 138.583 44.4554
47.4872 51.883 271.399
69.0671 74.6194 77.8527
90.0518 117.295 266.295
66.6098 51.2139 87.9522
71.7926 143.302 85.8547
108.309 50.7162 129.418
48.0015 33.0868 93.4758
96.9499 114.556 91.634
76.1395 97.1196 36.2462
58.2176 51.7215 39.0179
89.8852 125.526 116.104
80.6645 71.8422 249.354
77.9939 92.481 125.097
120.262 124.616 106.288
95.1768 139.689 68.6033
87.0528 35.8817 56.2176
104.502 83.4881 257.779
77.5861 125.187 96.0685
96.7265 78.3487 153.917
59.1739 138.655 66.9064
78.3504 62.9442 138.309
105.162 138.876 102.969
42.2551 134.61 86.8883
43.7399 103.711 168.776
96.6867 23.026 80.7346
86.5766 100.397 279.015
92.7536 90.455 41.2459
105.29 136.403 110.649
65.4369 121.866 238.486
58.5867 83.4973 95.4159
70.689 124.173 124.101
47.3324 85.4375 263.051
63.9135 87.8425 317.789
72.6448 43.4931 72.9574
64.7177 128.991 229.028
105.323 42.2012 67.9105
57.3301 131.776 266.12
38.3909 80.4577 114.089
100.594 107.936 103.122
56.7142 46.0694 95.4849
98.4299 70.1124 262.118
89.9611 160.986 63.9076
65.145 118.21 182.426
75.9047 109.326 229.783
36.2471 85.8026 186.604
93.9863 139.942 34.4581
53.8587 139.739 43.0072
90.691 129.192 85.8828
72.0738 143.929 36.1752
85.5884 31.9144 64.7143
81.7363 140.511 261.703
64.1473 39.4992 104.591
54.292 67.3441 76.1642
81.1605 53.413 74.5434
89.5671 134.406 36.9591
42.6185 84.3676 60.2384
91.8847 132.322 95.721
89.4818 92.8219 242.187
79.6017 68.8743 69.2302
77.1417 117.637 195.174
65.366 134.281 29.8086
76.3524 73.3456 224.01
61.9887 102.368 204.436
57.3012 103.307 127.546
82.4958 28.8907 63.2967
112.278 133.884 114.661
73.0762 130.613 31.5145
93.1931 144.981 42.9299
59.6036 85.8521 54.7824
51.7523 81.7778 237.013
87.8681 110.735 100.767
82.5935 81.1572 121.592
60.1824 110.534 157.785
61.2304 82.9353 89.0188
47.6406 85.2197 56.8761
89.7002 154.126 92.6269
49.3451 113.309 257.767
88.9686 114.05 109.926
82.5996 20.6501 80.9069
104.993 46.1822 122.437
88.6476 102.36 262.349
73.841 123.416 30.8418
94.3968 79.3298 113.357
89.6902 127.528 104.471
95.6632 134.222 77.3957
64.2482 83.8969 275.325
67.0645 123.469 181.893
75.056 35.7679 79.1858
78.3763 88.8902 65.5531
85.0302 141.906 252.659
60.609 141.016 263.758
70.3421 131.366 87.4946
86.2808 79.1577 157.237
89.7281 147.937 35.2772
104.442 123.035 56.1257
36.0406 57.7397 64.7483
100.964 28.025 101.013
75.4787 92.2887 105.109
98.3009 140.439 100.17
103.863 170.533 356.94
60.4529 42.7169 104.187
83.1948 102.661 298.045
76.2387 28.0042 53.7111
60.2738 91.4632 231.67
41.7829 53.9441 274.263
60.3489 124.071 255.279
67.7355 126.338 282.5
97.1527 72.9384 123.405
111.646 132 66.1913
42.7652 49.0288 55.6416
82.6534 87.5925 112.231
85.9648 71.9839 244.054
51.1347 102.923 321.124
90.9302 157.207 84.0607
81.5813 116.538 123.357
92.1445 29.2341 71.3302
100.595 85.6359 263.481
72.623 116.871 216.933
71.7377 113.603 274.565
50.7474 124.986 268.59
43.2009 96.1535 79.7777
57.5127 32.1454 86.6109
85.6651 63.5787 37.1526
106.682 79.0957 140.3
72.5473 84.8185 157.541
77.6099 126.878 263.353
100.888 130.167 40.5874
71.4558 54.0168 83.2241
100.812 78.6156 271.516
91.5716 88.3542 51.5136
92.0789 122.15 120.744
72.7461 68.1056 257.739
60.8916 141.632 244.033
92.8961 127.375 254.809
96.9247 143.745 91.4211
89.8638 101.905 268.15
49.3802 80.8379 258.255
48.2236 106.175 123.723
61.7896 108.055 202.471
84.8514 133.688 276.719
56.0388 119.083 94.7524
66.7133 123.443 171.458
88.3427 86.3982 117.997
101.079 110.793 247.12
40.0004 83.7258 63.9471
74.6103 71.3973 239.832
99.8321 78.2515 247.69
70.6632 32.1513 83.7021
91.4992 132.072 79.0022
66.0405 73.6586 46.4385
98.2205 145.099 73.1779
106.53 138.133 69.8716
79.1855 50.3363 102.878
73.5336 130.777 273.479
48.4714 89.2691 61.8012
84.9152 35.0589 73.6055
77.6498 50.0876 41.6933
72.9876 125.709 299.509
94.1644 140.16 76.5423
41.1291 90.9723 311.076
65.3204 100.344 46.3189
77.1622 22.8884 93.3659
75.1978 92.119 232.518
84.2915 160.601 63.3143
82.5733 86.0814 36.8837
69.0382 141.246 78.5343
65.3811 27.0925 55.2072
86.8456 119.803 236.972
83.2312 93.4247 278.321
100.002 116.395 107.556
97.0378 113.316 147.751
83.7899 86.0785 117.864
94.363 160.314 67.5965
50.172 37.4523 46.533
86.9666 103.739 47.8891
70.2395 49.1259 47.1175
34.223 102.311 308.628
62.5795 102.959 156.784
60.4577 29.5214 58.15
63.7091 100.888 253.048
84.8978 105.136 33.471
40.4212 52.2007 90.6795
71.152 104.063 98.4056
83.3734 120.942 249.195
92.5684 108.353 225.453
84.354 43.0218 110.193
96.5261 110.838 95.2148
87.496 126.978 91.2519
102.826 69.8024 114.828
79.4841 66.4485 132.991
72.7574 67.9812 277.202
58.8065 123.752 270.514
94.2624 119.726 84.9384
83.584 79.3659 53.3177
79.1864 112.605 127.25
74.3119 113.062 218.371
92.2996 113.881 290.565
40.2266 87.6059 226.113
58.5692 93.6273 94.121
115.523 61.1754 138.881
72.405 118.945 198.509
70.7308 135.703 39.2599
53.641 114.349 39.197
97.8879 80.4291 117.475
63.3678 117.034 37.2965
42.7204 107.802 323.563
106.69 91.9092 133.4
77.8325 119.595 236.289
45.5787 88.3909 66.9787
47.2112 62.9363 344.53
74.7943 55.7993 111.022
100.934 107.632 138.152
57.2637 110.822 161.767
82.9543 108.464 263.582
61.286 123.647 169.372
93.8561 126.04 109.539
84.8947 90.8251 132.045
87.6738 78.469 51.1785
