ply
format ascii 1.0
comment Created by Open3D
element vertex 857
property double x
property double y
property double z
end_header
52.7376 256.306 206.708
24.6475 66.0926 147.592
32.9001 183.753 208.519
71.9343 170.019 220.804
33.2593 196.86 137.316
21.1864 181.783 115.647
23.2079 199.357 26.3541
18.0024 215.136 248.347
16.4844 91.8039 159.723
102.784 165.109 133.087
65.8645 156.137 165.274
37.6073 229.251 58.5906
13.5025 194.173 32.8639
66.0927 51.4599 285.817
43.3 185.768 64.7053
57.0359 212.042 238.663
14.6453 159.199 127.16
32.5875 174.575 200.388
20.4193 175.832 135.564
62.6504 223.109 109.574
68.0564 93.9402 131.841
51.8982 199.787 242.661
31.3479 197.823 180.81
49.5442 222.523 253.629
61.1575 56.3687 266.771
14.2691 261.442 228.837
48.5441 213.608 184.953
37.3704 203.207 174.793
59.2157 215.546 134.524
80.4569 61.1064 268.201
56.7314 223.98 100.248
66.6625 62.3521 263.304
73.8724 185.796 163.593
70.5993 155.236 236.419
81.7837 55.0817 276.283
19.8531 166.162 142.166
30.8546 193.564 33.7135
39.0287 119.882 159.465
42.4934 183.261 211.531
49.128 37.9805 119.614
28.8763 19.6103 126.387
75.8938 88.5836 138.216
43.8677 24.3401 128.651
29.3594 198.732 102.956
32.6829 201.988 127.083
42.2885 34.7913 109.67
27.6114 132.656 169.792
64.2945 122.186 138.111
30.9769 241.933 241.399
49.9974 45.5008 131.778
38.5352 203.112 75.0686
25.5384 94.5511 149.486
52.5686 115.249 158.205
36.9223 190.658 72.4556
30.0025 186.551 148.42
50.7309 193.416 183.53
15.1098 83.2399 151.848
107.963 193.488 115.465
36.8321 210.847 103.178
40.105 219.949 251.481
78.3421 127.371 167.07
17.5834 72.4683 146.746
22.7279 190.052 128.834
37.6613 242.732 180.081
46.6305 101.88 139.075
41.1148 12.5819 123.484
33.1794 54.0006 113.938
17.5897 266.545 221.567
45.0301 89.7564 136.768
48.588 127.452 140.557
42.2458 237.689 254.094
62.0044 63.0532 283.914
32.6299 219.419 61.4511
34.7273 212.005 170.669
48.402 211.824 139.237
25.6996 194.897 120.68
17.1825 137.808 155.318
65.1219 242.546 199.79
79.3278 140.431 80.8939
19.857 45.9842 114.287
27.1876 27.2811 131.719
71.9506 168.946 164.271
71.0893 45.9155 261.776
81.9731 53.8845 259.519
53.7024 250.215 198.141
25.9415 161.276 154.124
32.5261 190.842 190.414
46.9443 194.602 238.32
29.9717 228.097 175.161
29.0219 72.764 147.01
103.48 158.307 116.135
57.8668 247.61 184.929
29.307 20.8068 108.105
44.062 255.568 225.222
53.8168 239.105 229.518
45.1746 210.219 76.9924
41.5881 247.094 196.705
76.0255 19.4533 287.111
66.1343 204.85 62.3371
45.8168 194.841 198.21
94.708 163.103 148.911
35.8582 145.74 157.861
34.2918 245.532 233.629
27.7097 32.3432 138.936
35.9075 94.7535 141.43
33.5083 205.893 92.0946
108.5 188.201 103.743
77.6901 202.071 261.009
31.7721 203.361 248.526
68.3067 143.542 231.912
99.6445 166.254 71.1992
27.4853 190.19 23.9447
82.4124 143.957 144.189
58.9021 138.719 157.679
65.3984 146.184 163.852
41.7532 160.267 165.325
54.3652 192.5 197.048
100.86 207.274 257.357
44.7756 50.23 139.484
28.6061 198.465 90.4774
40.1653 216.974 242.891
69.495 34.4784 287.488
31.8582 229.093 69.6725
57.2752 47.5145 136.062
26.6845 189.847 105.158
24.8742 134.745 133.228
30.1489 236.238 181.4
25.2069 174.066 148.603
52.5769 241.746 181.069
100.523 102.778 121.97
45.294 34.8616 128.158
43.2219 89.8392 149.965
23.638 226.504 60.5771
33.8214 247.137 247.676
73.1218 177.221 215.11
58.0403 167.618 196.991
78.1753 26.9018 284.266
18.7573 253.438 225.317
55.9521 131.714 163.551
78.2076 222.097 196.832
41.3554 191.785 189.488
41.701 25.6846 109.951
23.888 180.865 144.765
20.6621 18.5882 122.197
22.6796 160.039 117.244
31.2138 108.213 167.266
64.8791 149.523 205.223
29.1134 101.27 170.121
37.2072 243.152 208.577
52.1527 205.502 27.1112
77.0269 112.789 119.057
54.5732 235.699 262.297
48.7139 190.429 259.766
49.9089 175.11 257.479
57.2321 100.24 145.963
55.6025 189.677 253.522
49.5854 126.518 129.667
73.1116 175.781 230.333
20.7467 48.7391 136.331
44.9028 235.867 236.184
58.0882 222.404 119.896
35.324 40.6517 103.371
73.8816 220.671 82.9629
24.4029 24.6637 114.285
38.8516 29.3999 138.198
66.1392 197.214 216.56
38.133 252.201 231.496
51.1031 237.908 240.023
54.9977 216.556 247.14
78.5386 162.433 58.7702
67.0161 226.279 118.883
99.2313 212.188 105.377
47.5727 29.2735 122.416
77.3181 210.302 132.86
48.2772 236.621 264.343
47.7401 246.821 190.136
30.6376 170.758 157.9
32.1691 161.144 98.7716
111.698 178.004 101.017
69.1843 130.838 147.423
40.7632 213.946 117.55
58.4462 138.48 142.131
62.9561 84.9072 131.935
59.0622 192.678 55.7167
81.499 220.758 89.0857
90.3689 34.3757 279.526
33.7313 217.212 267.684
22.1867 35.5715 114.33
41.0533 53.6749 126.878
34.0519 227.714 184.807
87.5172 221.246 185.838
55.2292 147.004 165.281
37.7895 152.055 92.8978
31.4873 220.527 41.7226
47.6187 230.201 243.725
55.4419 138.747 90.2679
102.087 200.781 88.0522
44.8407 129.469 112.624
13.3988 46.6669 128.142
64.6856 220.468 81.1813
63.8629 210.829 261.18
68.4874 189.819 55.9178
48.3052 221.534 236.591
42.4419 252.383 209.395
54.0366 190.887 205.819
34.8904 74.0677 153.091
97.4013 145.733 106.389
80.2748 115.371 128.478
40.019 243.898 217.812
78.6073 232.867 222.432
35.2501 242.564 225.628
39.5613 212.524 17.4582
12.4084 149.319 131.386
87.134 31.3055 268.134
85.4939 207.482 270.044
51.8562 148.411 70.1578
110.278 182.831 117.148
40.931 136.145 104.528
46.6081 137.73 172.936
38.7188 190.746 153.81
52.6981 182.331 225.065
35.6393 67.5024 145.507
38.0858 172.971 208.213
21.0202 172.606 118.086
51.3316 216.549 81.6561
62.8151 178.694 259.949
48.6826 245.105 259.436
64.3086 222.8 205.892
88.7438 109.231 114.871
64.8818 253.715 233.623
90.3776 46.6242 287.688
96.0918 102.499 172.265
24.3929 154.865 106.011
34.2259 40.2603 140.655
19.585 256.926 215.312
36.2219 218.866 69.5814
29.579 130.569 139.961
22.0278 2.7287 53.2757
72.492 58.2029 287.497
31.0526 187.092 198.632
42.418 13.5785 113.866
56.5932 201.845 157.7
55.5973 153.366 63.6792
44.9002 19.468 134.563
44.9255 189.476 218.753
108.714 187.611 89.625
83.8799 186.301 231.454
29.0441 222.829 27.3923
61.217 213.423 227.381
50.7886 217.409 197.014
61.1992 249.52 194.186
50.3995 99.4386 130.152
94.1336 214.845 93.1049
17.289 143.639 143.591
88.5056 145.533 108.638
43.6789 222.751 63.182
33.381 238.151 193.259
52.2821 91.5654 137.902
52.2315 216.733 24.5837
39.802 104.747 132.251
42.2164 235.082 265.295
55.6113 177.226 261.94
19.2413 206.369 242.137
76.3162 186.691 56.9317
74.0478 246.76 248.796
85.2892 140.58 125.23
59.1386 163.195 168.152
61.4579 190.865 189.005
68.5305 178.478 267.166
45.9395 202.329 26.908
24.7144 194.011 181.909
39.8914 204.395 19.1698
81.1766 134.098 101.172
84.3536 211.538 202.345
75.5372 85.1071 150.849
89.0465 181.806 236.469
62.2765 216.903 181.678
79.2658 175.956 243.268
37.8122 180.387 159.512
33.2914 20.4347 116.84
42.7146 244.518 250.029
31.0539 206.777 20.6048
33.135 223.874 250.785
57.5737 222.735 201.412
22.7237 76.8453 143.71
59.7286 222.619 90.8818
28.7161 230.586 246.196
49.6567 224.56 212.493
42.948 211.444 127.061
45.6226 147.749 166.21
65.8861 257.156 223.816
47.5545 193.45 247.666
25.6221 43.1264 141.232
56.5257 252.071 247.45
110.144 171.026 105.017
109.696 180.122 91.2761
62.2159 50.4213 274.036
46.4817 99.925 149.602
58.5985 211.676 70.2306
67.8809 78.3528 139.524
26.5972 101.576 154.606
34.3034 237.338 252.687
13.3307 157.25 145.72
79.7691 252.769 257.136
43.0999 139.292 147.236
41.0973 194.566 180.817
104.461 148.4 102.234
64.2296 151.386 61.2867
40.965 193.868 207.591
93.9472 157.855 67.8344
24.5349 214.067 172.296
74.1573 116.48 168.201
65.1555 175.643 236.106
85.7917 147.452 67.0386
50.1006 219.227 111.439
36.7604 166.076 72.8233
76.4093 206.879 64.3677
78.1457 108.553 160.075
26.8803 217.917 272.087
60.7179 164.523 205.007
47.093 208.835 18.1933
35.0721 136.784 166.402
33.0037 218.309 243.435
79.5133 121.453 174.96
84.836 49.3192 266.167
30.607 201.976 114.72
44.7395 239.534 224.324
86.4704 38.4278 270.149
47.9906 110.367 148.737
48.5962 155.457 81.8895
77.0598 109.763 174.482
76.7302 130.388 147.423
51.2166 216.872 127.613
20.9296 125.752 161.533
88.8296 101.85 117.396
44.3406 160.062 66.5764
59.4964 198.194 247.304
47.621 219.87 100.119
60.3849 69.2042 274.102
69.4076 224.896 98.1143
105.629 197.745 104.642
21.9924 139.783 137.842
83.0618 171.319 230.12
67.0408 164.229 195.236
47.8337 222.569 37.5107
23.3204 145.29 114.213
57.3287 223.636 209.59
69.0563 148.723 67.4806
71.0275 171.15 55.2872
60.1521 67.3968 267.606
40.0675 200.503 148.239
79.6345 251.579 236.144
59.6468 73.7848 284.656
65.8335 219.553 193.873
30.7798 180.976 153.583
59.3981 144.018 68.8273
84.3522 206.178 237.739
96.4119 115.791 175.649
97.5656 109.838 117.627
43.4046 235.058 196.958
103.653 190.249 81.1728
66.2838 194.431 182.273
56.365 231.253 242.865
62.9878 241.376 231.781
105.599 174.21 135.878
41.1374 125.894 129.4
82.2455 51.2076 283.701
96.9943 176.417 68.796
60.781 190.219 262.06
33.9275 135.144 112.076
45.9283 187.084 161.37
74.2554 105.706 166.246
32.4516 13.552 120.04
66.7445 212.457 143.659
32.3004 188.108 92.3848
46.1099 234.299 207.047
62.3973 188.375 200.333
42.654 224.725 29.1665
79.5879 77.9928 127.484
68.1354 39.9712 272.337
50.1582 196.709 58.3024
40.3951 47.2975 108.336
71.8928 174.077 260.577
75.0245 218.636 126.73
19.434 141.038 122.488
80.1285 93.6521 146.502
35.0363 196.712 198.904
48.7952 254.129 216
95.1736 144.948 96.0743
33.6681 232.637 36.3189
70.3006 206.429 258.512
47.3733 198.853 153.769
44.5397 221.075 182.365
76.9635 223.103 118.149
53.4649 189.222 217.265
46.7011 122.582 174.838
49.4814 260.931 221.649
60.7199 190.118 215.392
26.647 84.164 150.12
54.6128 182.961 257.076
66.4559 139.389 79.9619
48.8774 235.935 216.039
34.8359 220.73 18.8799
66.8919 202.58 267.03
39.3374 119.024 180.627
68.9927 196.778 254.37
30.9086 144.515 147.768
70.2012 221.72 200.044
52.9333 207.351 169.272
23.93 211.926 22.1966
72.7688 34.0827 278.153
77.8659 215.334 70.594
38.9553 112.426 170.126
42.0523 191.003 252.583
76.5625 215.648 276.404
79.6202 182.811 219.628
31.8634 53.09 129.354
79.4325 189.967 251.347
72.3024 107.086 130.47
36.7112 234.819 233.673
92.1646 201.324 70.0638
96.4996 168.877 205.767
95.6169 180.329 153.152
24.4716 206.824 172.958
27.483 28.8004 101.757
31.8376 113.298 161.349
74.1526 175.706 250.34
26.1025 206.798 253.42
94.5065 146.373 128.08
50.047 159.009 61.5117
40.1272 212.576 86.2906
81.1315 257.152 241.9
31.2838 110.131 176.542
54.3269 230.375 217.404
91.2686 250.982 235.715
39.1125 126.231 139.618
64.922 221.773 127.1
73.0134 134.648 89.2272
88.0606 50.9149 273.403
39.0474 228.987 191.929
63.2657 135.794 132.287
72.8864 189.723 262.71
32.7362 132.695 120.348
62.2344 193.586 224.82
88.5588 223.338 197.027
81.0463 215.797 209.523
43.4516 145.665 91.7411
53.2785 168.665 59.4999
47.5287 185.976 240.618
37.3071 190.239 211.994
27.4079 55.1274 120.369
78.919 35.5124 263.571
85.1107 27.9507 284.644
24.2572 177.904 102.116
29.238 145.53 104.659
58.722 225.009 227.521
81.715 96.1834 129.393
86.3797 155.541 64.8495
72.86 239.06 254.264
50.9992 204.58 68.358
56.16 141.112 82.4718
35.8156 135.025 176.042
32.84 112.403 153.9
49.2246 165.736 189.698
83.3421 113.973 178.754
37.0553 205.957 137.851
108.405 161.171 93.8042
36.0818 18.6667 139.575
41.6453 222.688 22.2313
69.9684 212.442 67.588
86.9897 141.623 88.2549
74.8649 133.514 129.826
33.8951 228.66 50.8709
18.3839 152.434 150.237
61.1116 185.974 267.355
71.2451 215.887 266.167
61.9799 117.852 152.276
55.7195 133.217 97.4133
41.608 224.934 197.955
47.6918 219.454 90.8402
90.8725 49.3001 280.782
22.824 54.3693 129.387
79.0183 178.362 259.414
17.8438 198.783 182.812
34.2781 125.15 133.55
55.847 212.86 177.709
77.032 235.917 234.33
52.511 175.53 57.2921
102.601 183.288 136.956
30.3214 130.411 128.558
53.6751 203.216 174.585
41.3624 226.76 49.6607
38.8194 216.503 273.888
93.9546 206.083 82.1206
73.3773 141.972 74.3463
70.2588 101.968 115.942
20.1908 216.09 255.802
20.0252 202.29 175.796
101.439 203.99 103.105
63.2821 197.731 60.3676
58.7815 165.025 225.06
28.8267 166.927 94.9891
91.6003 201.821 200.022
41.1641 127.117 175.379
27.6911 264.296 228.488
22.0865 104.455 160.869
103.309 173.355 78.0432
43.8139 196.649 69.0239
61.5265 245.564 252.22
70.546 26.4435 287.628
34.9043 147.492 100.611
55.8963 244.657 257.19
39.7177 214.476 61.7376
29.7089 204.135 173.497
94.3092 217.191 114.476
36.1024 177.122 70.0066
40.6013 44.9695 117.919
52.727 189.978 162.139
56.2162 175.432 235.548
110.135 169.023 91.9953
92.6224 55.826 286.778
55.9677 134.415 114.902
45.6992 170.267 166.978
18.1204 50.4532 120.579
69.4277 207.13 151.274
23.6747 149.357 155.066
56.1731 124.955 114.576
91.9872 215.682 201.54
69.4959 207.259 228.166
93.5771 39.1938 285.547
38.3534 223.11 233.142
57.6222 220.132 220.149
59.4281 182.519 54.5798
36.8759 242.192 187.111
44.7752 138.336 95.7088
93.0858 196.662 143.966
22.176 183.201 132.907
83.3061 83.9162 120.933
77.5665 226.613 260.559
32.702 225.937 237.828
38.3505 250.587 219.554
89.1161 217.758 120.844
59.9967 191.981 208.55
35.339 164.467 162.787
28.5529 189.741 140.769
91.1653 189.772 153.175
32.5774 218.864 174.068
65.1754 132.016 97.156
44.4923 149.105 80.9925
74.2872 49.5913 285.434
18.4089 38.5898 135.571
53.7532 253.304 230.893
50.9166 167.837 230.304
53.6098 57.0751 137.582
55.8272 117.055 176.683
108.289 172.424 119.261
47.8504 181.432 253.232
78.4156 201.082 270.141
56.6225 70.0909 262.197
67.3227 218.964 74.2948
39.9437 112.654 151.254
111.614 167.829 223.294
52.9868 249.637 237.549
30.4802 180.494 81.8447
69.9157 215.008 228.544
56.1306 189.594 238.888
77.9851 225.41 101.565
67.7748 172.11 253.827
49.8732 222.695 188.712
70.6813 194.303 206.322
103.553 167.798 212.629
35.3911 25.0106 106.245
73.5939 184.309 269.832
38.9026 103.984 146.191
87.8764 80.4372 128.886
64.6432 176.6 55.5443
24.8628 256.949 225.809
64.5571 210.613 189.896
82.6586 225.711 226.416
50.3124 143.655 77.236
24.1745 208.454 30.1752
103.696 115.405 175.873
45.9196 179.574 165.258
30.8329 229.099 43.964
50.8304 140.723 155.621
65.4543 86.9773 143.052
31.0781 180.676 74.0162
65.8227 161.827 57.5252
20.0791 84.9672 146.113
51.785 180.21 239.46
83.7929 157.9 160.653
76.0409 150.929 158.49
76.5593 237.769 244.701
16.1101 165.571 122.99
102.772 204.101 113.542
89.8296 163.086 61.8398
80.3007 136 91.82
100.922 170.863 141.304
37.7668 190.023 202.147
41.3446 174.126 63.9502
69.7891 93.6222 147.173
50.9805 225.58 206.039
77.8549 152.689 63.8336
63.6637 251.642 243.359
43.2202 127.18 121.137
36.7501 129.721 145.651
60.832 184.827 222.667
48.0159 228.633 258.553
41.6769 158.022 78.1033
63.9967 238.77 240.868
58.1342 216.123 41.8264
68.0287 208.886 278.316
68.7557 53.4631 266.006
86.2763 213.097 72.0971
60.3697 261.595 204.241
61.273 180.143 195.333
87.7493 168.693 206.027
106.545 175.551 206.086
55.5883 258.829 220.919
48.4185 192.131 210.57
78.1477 93.3757 114.89
75.6461 196.945 58.9391
63.2687 210.029 178.277
87.231 42.9204 276.337
79.0453 150.271 257.14
62.01 130.416 135.402
80.174 144.906 71.868
80.9556 246.082 247.461
59.3481 222.457 190.746
87.1109 133.487 114.314
108.131 231.889 235.259
76.5797 221.816 222.242
24.5465 179.66 94.4343
87.4758 179.984 226.984
75.6773 226.06 109.466
46.6919 129.086 150.24
77.9462 30.1375 272.91
99.7007 206.953 93.4598
86.9292 223.766 110.484
51.0864 208.179 146.484
26.6684 220.49 171.899
80.0113 209.84 219.764
80.4635 163.224 166.589
66.4096 102.427 124.165
33.6072 170.404 83.45
40.7343 229.126 259.402
62.8846 167.792 166.598
88.4752 171.252 61.941
80.0758 169.668 215.773
58.7846 175.015 167.879
47.1614 250.078 238.709
85.183 170.671 163.733
74.1946 201.809 157.352
93.9441 160.05 132.942
53.3376 132.614 104.064
97.3229 208.914 271
98.357 184.618 145.653
29.8487 224.069 32.7285
75.1267 178.307 200.579
112.458 174.63 112.959
78.0676 208.201 213.223
103.35 165.325 81.3531
60.5823 174.215 246.009
75.4578 209.077 225.317
13.2726 156.556 137.611
60.8831 56.4919 278.869
31.5244 134.733 150.296
82.3181 150.814 156.731
58.2198 175.231 253.189
74.3377 220.267 207.759
86.2531 183.797 162.255
57.5762 221.778 241.528
82.1878 43.1586 259.002
85.1326 123.223 179.569
59.4968 166.468 234.612
47.5104 219.646 45.1145
93.6092 112.82 111.985
41.3922 252.434 238.408
89.8153 91.7256 127.102
48.826 222.779 199.091
105.334 169.669 125.282
45.5046 252.002 202.141
89.3975 33.2848 287.72
81.4017 201.019 221.347
80.317 173.977 235.5
19.1593 24.7212 126.79
90.9292 96.3686 121.336
81.4758 194.5 159.123
87.0317 87.5993 140.135
34.9908 88.1315 149.626
72.3584 206.161 270.623
68.438 206.705 234.271
108.187 155.731 107.259
45.8664 217.431 21.2229
72.7113 206.314 167.637
68.5162 224.327 218.998
41.3979 227.388 39.4722
39.0558 57.6051 138.941
92.9235 141.054 114.351
65.2027 216.279 217.867
58.9422 111.193 148.21
69.7531 82.0995 125.453
89.4447 207.219 256.065
70.9498 42.8356 288.242
34.9835 154.031 162.123
67.1096 128.796 106.903
91.4707 203.622 135.966
86.9489 250.919 255.667
42.8037 242.188 201.464
58.3845 120.603 125.877
15.1401 146.743 124.438
21.6285 235.223 60.0927
85.1984 84.7852 95.7988
69.8118 48.5278 277.066
54.9891 261.305 213.525
87.9981 213.542 81.0796
69.7409 210.398 178.525
85.0345 228.373 234.096
83.955 223.392 261.823
31.4677 199.237 271.28
59.6284 253.579 224.947
61.6144 250.581 210.263
79.625 205.069 150.784
57.6954 206.407 151.544
69.9321 189.065 224.132
87.6831 179.518 247.968
89.268 256.048 246.909
94.0332 203.001 122.165
62.9801 252.488 216.14
57.178 110.819 139.532
86.0223 204.034 208.878
59.2339 248.852 204.861
63.5319 185.14 167.505
43.7927 50.6107 119.324
96.8316 221.143 169.21
84.7676 204.998 66.6948
58.2284 196.446 175.709
28.5705 38.2139 108.826
48.2597 183.584 247.861
64.7686 127.392 123.164
51.1711 173.129 200.098
59.4058 31.1495 269.639
65.6038 136.16 88.5115
51.0647 246.127 251.433
98.8111 216.285 199.742
105.213 157.197 79.7047
68.1501 203.105 158.392
105.945 214.671 165.555
95.913 185.978 71.4243
55.1213 218.158 187.275
87.8374 215.764 102.35
71.0539 250.337 233.292
51.3073 175.827 246.661
88.1023 124.098 170.7
92.9871 206.118 216.35
72.4878 195.935 161.338
39.2681 234.068 212.136
38.3286 221.992 179.081
33.699 107.732 142.471
33.2876 78.9695 142.228
66.8288 187.129 207.897
72.0496 131.412 100.745
80.56 180.892 58.3274
54.8328 190.88 188.918
77.4086 215.438 174.766
18.658 35.1409 124.478
75.9605 143.645 161.325
33.6013 215.803 23.9035
91.8526 202.688 267.531
55.4388 174.275 210.043
79.0409 136.232 152.133
84.2724 174.33 222.135
62.1027 220.696 213.555
41.0825 57.9522 133.029
60.7113 176.601 209.406
43.9026 224.721 190.506
30.8927 98.6697 147.229
77.7396 173.114 167.983
81.3399 204.459 141.124
83.2246 103.868 169.027
71.8966 214.85 218.735
43.8407 226.99 202.38
96.8699 196.601 80.0923
84.6579 99.8856 137.203
48.243 254.543 231.499
50.5729 148.015 152.06
39.7603 232.503 44.0418
81.3685 185.917 259.931
59.3428 197.699 258.487
72.4011 158.376 168.524
42.9848 249.356 245.232
45.1691 153.955 164.293
61.5794 148.021 74.664
81.5418 134.433 161.239
87.5194 59.0588 288.681
95.1367 64.5331 287.434
73.8656 218.677 189.827
75.024 41.8935 281.537
80.5561 210.203 164.038
75.8618 192.903 214.263
104.709 179.562 82.651
37.9861 227.701 254.677
74.205 79.7089 137.228
89.6334 117.453 118.654
72.1335 197.963 169.429
61.9062 214.397 48.2734
84.7036 196.644 62.1265
67.9176 213.783 238.276
99.9959 147.362 78.0568
83.825 175.435 58.0461
82.6909 181.174 101.835
83.9166 189.869 241.85
96.8437 173.463 145.904
97.4322 165.07 216.895
96.9027 93.7947 137.608
58.1888 247.63 240.822
88.4738 219.622 172.319
48.0376 246.459 246.07
90.4415 193.046 210.845
84.6537 207.566 260.668
37.8903 144.962 179.313
71.4959 214.09 186.97
25.5605 163.502 104.035
48.477 229.262 200.146
95.1484 225.256 175.092
79.3743 219.934 182.077
82.4199 148.806 137.981
57.3598 181.673 165.873
37.4661 193.193 82.4129
87.7454 242.651 250.274
73.8205 214.762 164.023
77.7535 88.5887 124.622
101.273 110.441 128.067
90.8542 146.141 80.8319
84.1522 119.001 170.962
67.1192 143.444 151.262
92.0819 174.201 158.028
70.0182 216.773 213.582
98.6708 152.444 128.33
98.8193 210.242 118.424
100.988 186.831 126.291
70.1772 216.007 130.688
72.6705 28.3361 275.182
107.497 158.763 100.347
79.4639 240.322 253.076
89.1157 226.006 176.076
77.7233 211.66 182.706
105.57 196.089 121.202
36.4205 142.364 181.725
94.46 214.966 165.658
78.7001 99.5477 122.194
14.2285 230.254 254.668
29.9683 217.493 19.8675
86.3807 206.101 215.815
97.2538 156.656 74.3234
86.2165 156.198 141.878
90.5199 159.97 159.035
