ply
format ascii 1.0
comment Created by Open3D
element vertex 600
property double x
property double y
property double z
end_header
56.2929 57.2199 255.626
30.9768 161.964 180.222
22.6084 115.226 225.614
46.0379 189.546 131.902
34.8812 155.436 187.527
26.5221 63.1024 246.302
27.4018 194.544 109.231
41.6336 191.262 100.882
32.9472 147.057 38.0493
28.4214 84.4989 237.637
19.5697 138.432 104.416
25.4381 210.512 125.583
25.1291 193.149 124.25
43.7992 83.8022 187.088
29.2726 37.3108 238.127
40.0377 19.7311 209.894
35.1439 185.483 101.505
37.8882 124.79 205.931
39.5856 127.377 219.517
61.1252 44.7345 242.053
57.1004 32.3336 255.439
59.2478 132.576 31.4582
57.163 43.208 251.115
54.1534 205.11 123.861
59.1879 8.82696 235.196
29.3449 218.545 123.251
24.7923 2.95796 242.178
35.3619 63.0115 186.992
33.1054 166.454 162.529
45.793 107.848 228.576
32.2634 173.829 172.06
23.7747 114.502 204.523
39.8905 14.4746 227.629
32.1078 77.8535 190.852
45.5091 116.134 234.656
45.729 146.074 178.92
26.2173 43.9741 240.615
46.0811 76.9072 259.322
74.4339 123.685 51.2193
31.8531 193.671 151.42
50.458 155.328 173.913
42.5279 84.0151 47.8104
25.7718 48.1758 232.969
51.5924 34.2843 201.585
30.8843 100.731 200.193
46.5927 69.4727 218.14
37.2435 179.599 161.559
48.0465 220.33 134.9
29.8659 173.556 215.7
35.6574 22.4589 204.664
34.0338 234.088 118.565
58.6176 169.678 177.53
67.3234 103.295 69.3656
46.8025 209.981 112.397
34.5999 20.8772 219.527
54.9349 138.296 76.7726
46.5391 112.252 91.6816
40.7727 181.142 170.71
26.9957 99.8487 237.312
24.969 84.511 202.151
49.9601 65.8374 186.381
45.4201 74.6806 186.502
35.6078 204.74 109.067
42.0182 51.6245 261.238
31.9435 174.93 160.315
43.5345 183.079 161.143
42.4241 126.542 89.2379
42.2605 40.6768 258.584
44.5091 146.769 32.9172
65.7206 110.536 41.0425
69.7926 117.609 49.4691
19.9392 120.357 39.1034
59.7467 174.811 215.668
69.2023 132.783 53.9567
58.5961 106.853 205.849
38.8678 153.508 177.792
60.3803 23.5465 243.263
25.6452 75.1775 205.88
42.5786 225.978 103.846
41.5951 18.2506 221.36
53.8809 188.904 104.7
56.6031 173.019 227.381
30.2221 131.001 82.0846
35.1934 172.896 181.988
50.6179 170.76 151.933
70.4979 128.594 44.0805
45.4095 70.1176 227.477
21.3786 92.0955 232.626
53.7904 163.822 155.093
42.8224 158.644 158.978
28.6301 116.201 233.115
34.3219 122.453 88.24
64.2239 95.8469 224.992
36.2559 134.402 81.8818
34.627 89.9813 57.4891
28.0465 110.235 219.725
30.3759 206.254 141.801
52.6298 119.265 230.064
22.8794 120.172 215.023
28.1186 105.817 84.0123
62.8031 138.986 56.4286
42.2059 151.931 166.675
31.9369 109.299 199.957
46.8745 137.933 80.2988
42.3395 86.7205 81.1015
40.8355 123.274 230.071
48.1379 19.2113 217.374
38.7762 157.631 224.358
33.0102 25.7451 232.977
39.1575 176.804 153.012
56.3624 156.461 174.259
37.546 99.2856 239.247
50.8773 143.427 36.5123
38.3561 73.4382 186.045
27.2575 105.776 63.9222
33.2674 94.8579 81.9493
50.1033 99.191 91.0207
40.0394 94.5192 35.4409
29.9782 46.8254 254.387
41.8941 215.552 142.079
27.5855 143.352 56.8938
35.4991 61.6885 238.171
45.8174 61.3151 254.008
45.9511 84.2495 249.801
39.3403 39.2179 193.066
22.1268 112.808 46.1027
39.3898 223.753 131.541
31.0693 89.3749 190.287
28.7554 187.621 105.025
63.4508 171.959 205.308
47.7452 125.611 218.212
35.5981 159.185 162.147
60.6142 33.9349 243.969
29.108 135.33 74.183
21.1511 129.323 69.2757
39.6772 115.55 235.726
22.406 103.815 50.018
49.6272 84.557 70.2212
52.6673 143.305 68.8853
31.5365 187.348 141.573
52.6375 82.1332 243.208
31.4282 214.729 131.796
49.7611 78.1199 249.411
59.9854 69.1624 198.869
45.0238 124.025 24.5603
35.4079 95.8366 74.3335
23.1135 58.8458 237.667
35.5329 85.9855 41.8624
40.0631 99.3122 195.313
37.9304 56.3371 185.445
62.1229 139.141 39.5504
45.9678 196.953 102.817
23.6676 115.225 82.3542
38.9893 142.836 70.2797
35.7519 167.555 232.282
21.3647 192.53 114.685
36.8158 167.984 127.31
55.6876 140.189 40.8393
47.9261 201.684 129.589
46.3367 23.3944 247.679
35.1123 52.9803 213.286
47.1933 181.895 201.256
27.468 94.1378 234.789
42.6629 83.7958 65.5466
47.6829 156.49 194.189
26.0727 36.5277 203.789
46.8216 37.7889 244.558
36.2925 83.4681 187.497
44.9888 203.944 142.902
49.4889 147.22 59.2683
28.4654 121.262 217.975
59.0848 81.6114 235.795
21.2073 123.929 53.1867
42.4894 170.478 117.602
32.2191 199.451 145.125
35.3685 46.4177 193.654
22.7352 60.7989 231.428
36.37 14.6796 235.362
56.3342 90.0407 65.2059
30.5684 176.523 110.994
31.3901 65.2578 194.644
34.4074 111.148 239.12
36.4514 129.134 87.2204
30.9322 78.9584 246.185
34.3115 196.708 102.158
35.6267 43.1771 233.435
20.7892 126.857 75.9327
26.1353 95.1913 57.2401
64.6741 36.8177 206.981
50.3793 129.272 84.8595
27.2689 63.2871 225.328
49.5598 183.482 119.46
38.5926 87.1895 72.5694
43.1015 63.6599 185.143
46.5328 26.3385 204.951
59.3028 105.689 39.9082
49.0746 89.0925 59.9628
44.3129 114.955 23.1688
19.477 179.665 116.561
42.5119 171.658 232.806
56.0069 19.0041 226.983
25.3195 45.0652 214.385
27.0873 32.0352 211.037
51.6908 144.774 51.2078
31.9552 118.236 206.478
30.3593 42.8051 203.006
66.8501 56.9633 214.631
70.3348 123.085 59.7529
35.4964 77.2168 204.942
29.1388 135.249 42.7018
32.7994 70.5835 201.787
60.9916 87.1459 229.905
34.2221 132.412 37.5611
64.3894 70.8794 207.295
26.4861 105.706 211.214
50.3433 91.9278 86.9937
27.6177 72.8944 220.03
35.1813 180.388 137.393
43.4717 162.652 229.741
55.9706 127.575 26.3092
52.2236 94.5074 239.324
50.1896 121.777 204.314
49.4136 120.877 23.5614
23.1583 87.2963 217.473
24.2527 95.6624 208.112
51.2754 86.6205 77.335
41.7453 90.6018 191.588
31.6078 133.197 25.7912
24.4016 80.3971 223.636
60.3048 164.263 208.418
51.0194 176.682 179.146
53.029 113.87 25.506
20.223 113.626 70.9616
51.0483 45.1849 195.518
37.2511 107.771 85.7246
21.3727 127.299 41.9804
27.5302 100.575 71.3516
31.6011 69.1867 229.502
36.9017 48.3185 257.139
26.1508 108.942 78.0562
58.455 28.4167 230.047
41.3636 134.783 35.6477
32.8445 59.8165 219.022
28.131 72.5965 249.866
63.0198 124.813 75.4803
47.1144 55.5726 258.729
56.0521 124.456 85.5929
49.1703 179.191 108.176
27.959 81.2971 196.656
25.231 70.3043 212.329
44.3197 88.0049 242.057
45.1368 129.175 81.2771
49.5171 139.87 73.1549
39.1195 99.3219 89.6322
66.6983 52.023 232.669
35.0473 50.8394 183.733
38.7899 153.796 193.837
27.9851 96.5847 40.2035
26.9465 130.889 32.0139
60.4628 99.2593 210.168
41.711 168.465 150.521
21.0914 65.7984 212.385
30.0714 115.086 86.0767
47.2044 124.169 227.806
30.9686 128.924 63.0207
30.0621 58.3062 209.125
41.8103 139.52 28.258
44.9544 149.401 45.6299
64.3812 34.7423 226.254
25.8722 176.194 118.693
61.8891 95.3384 55.4492
27.361 38.2323 215.826
46.8009 16.8317 235.114
30.806 39.8574 228.659
48.808 45.5179 259.527
22.5766 69.4255 223.724
65.9854 130.038 36.2484
29.1741 83.7256 217.186
39.8326 20.9966 240.001
34.4957 177.103 230.539
36.2507 92.2483 242.146
51.8054 160.226 160.73
64.7202 36.1952 217.849
26.1252 53.8574 240.315
50.6428 115.652 32.1927
51.8112 201.758 113.384
49.141 178.178 155.975
46.7065 16.846 227.098
53.9053 138.452 30.9444
48.8943 54.6249 225.961
50.8623 223.808 122.209
33.1148 34.6169 232.606
54.0147 78.1238 191.021
46.4952 176.645 130.681
46.1659 150.699 172.526
54.1035 123.316 213.452
36.4548 113.844 198.373
52.5782 197.566 124.207
51.4342 99.9099 235.372
48.0748 178.223 229.823
41.4788 63.3306 258.897
27.2211 120.644 82.2912
56.0428 117.888 208.248
31.9077 100.924 34.2307
58.1039 108.963 228.464
61.7558 51.6527 239.856
32.933 51.5028 259.086
44.9511 102.87 232.325
54.1357 94.5343 228.417
36.1337 122.428 27.2684
38.1148 105.882 27.786
27.6482 177.708 125.885
41.5483 94.9921 231.748
67.2202 107.02 47.4986
35.1639 172.992 134.676
21.0988 92.5199 213.643
53.6857 157.743 187.409
36.6004 153.14 169.639
39.4747 173.907 189.228
66.9368 37.0678 238.602
30.1842 24.3165 218.114
65.2862 51.798 222.699
34.2186 123.573 225.893
30.5577 30.6534 228.058
60.0524 137.693 69.6342
56.7883 74.2212 248.639
58.3945 94.278 82.5196
34.939 180.068 220.71
57.1293 141.825 63.0829
30.4077 30.5885 218.405
24.4814 119.04 71.4681
44.2336 105.27 199.377
37.3694 141.542 51.5416
58.2215 67.4037 250.143
40.55 121.88 57.944
47.3105 161.841 154.227
28.6547 98.8815 62.1553
20.5507 107.879 55.0341
59.0237 67.2349 235.954
58.3976 19.7298 236.054
42.3424 119.57 83.9324
28.5008 170.433 167.509
56.3293 85.2428 240.515
44.1542 103.637 92.8471
44.5556 30.7743 197.976
25.6802 55.9593 220.818
28.8119 98.683 78.4909
41.0965 114.138 199.705
38.7487 131.882 27.0061
26.2334 117.326 75.9572
56.7528 162.895 178.606
49.9067 20.2603 242.219
58.7752 126.183 38.0577
36.1487 138.414 76.9887
58.3529 32.048 207.689
55.45 230.267 124.404
66.0084 76.7787 224.974
28.4987 38.1342 220.997
57.9822 201.514 129.909
34.9814 58.2792 200.879
25.88 125.064 38.8838
54.74 186.568 121.951
19.0383 124.931 57.5801
26.4032 106.155 40.2898
46.6553 63.0804 227.139
61.8298 74.9653 236.979
24.5293 55.2194 214.945
41.8086 110.33 27.3581
41.5837 150.676 187.624
44.2191 142.611 73.2002
19.8266 131.936 35.7173
41.265 164.431 195.654
60.239 99.9835 227.045
51.8316 125.71 31.7876
51.2555 17.6162 227.32
44.9978 104.426 29.4433
58.3337 117.479 217.368
41.9299 144.411 59.7573
50.929 53.3881 257.845
68.9721 136.009 40.7115
60.6914 107.636 86.3698
64.9423 70.0855 227.595
49.5829 70.1437 254.665
45.7014 118.892 200.895
42.6074 175.484 108.33
46.052 172.557 192.152
23.598 77.5596 216.57
54.4902 183.517 211.258
56.8957 59.7478 245.98
45.6454 117.83 88.0381
35.5553 142.205 62.4795
55.1535 74.7458 239.062
33.1051 124.039 219.42
23.0432 109.826 66.726
41.4647 127.727 212.13
43.1346 37.0964 250.946
55.1539 99.1941 44.4238
62.6 77.8054 201.634
49.3735 165.819 230.835
57.8889 44.8607 208.979
49.4277 95.7758 36.4797
29.9467 92.2634 67.24
50.0933 192.46 116.632
52.3803 117.55 89.9467
72.6884 108.896 87.3044
51.4061 109.397 236.323
36.8554 97.5746 227.295
47.6781 135.748 31.8943
58.6258 92.8951 74.4609
35.7508 147.931 56.827
29.0994 173.18 134.266
37.9986 143.852 29.9389
30.5136 91.0184 205.674
33.7899 53.3364 196.439
30.1422 75.9323 229.674
40.3929 32.092 239.962
47.1076 112.53 198.447
38.0372 180.8 104.508
33.444 20.5719 226.839
42.8764 101.339 241.875
26.196 129.294 78.0553
30.6895 46.814 209.129
28.4106 125.672 84.3132
53.4312 50.5396 247.207
36.3959 39.1917 251.76
56.2554 131.784 79.8548
60.9072 133.121 62.6115
55.7055 92.9746 56.8134
57.7856 31.9406 220.66
22.7786 140.097 44.8729
44.3901 50.9437 188.777
27.5183 49.4512 247.551
58.3076 93.5424 234.337
40.9478 156.19 216.064
52.1794 43.9848 255.195
70.9626 112.363 50.7212
40.0118 109.464 90.9981
56.4301 100.159 232.559
24.1177 205.033 131.818
55.4611 48.3112 241.15
37.2551 69.1149 192.01
32.1147 73.8046 196.806
42.4956 97.7398 55.2091
52.85 85.3022 194.248
56.863 99.3369 87.1928
53.1624 29.0543 211.549
26.3417 71.7533 241.698
47.6655 100.523 197.205
63.9287 97.44 72.2424
31.6297 19.0008 238.851
19.0628 115.234 61.5189
61.101 51.6968 230.214
55.1297 35.6021 244.525
70.0829 120.778 66.5281
23.0149 51.1515 223.259
36.5887 41.6372 239.523
58.6864 59.7398 196.32
54.098 104.231 90.9187
56.9798 142.78 51.2568
39.2112 83.8615 247.875
37.4557 86.9915 64.9325
25.9969 83.7952 210.357
25.9782 191.781 142.37
42.3229 63.6031 193.439
26.2698 64.98 236.669
35.9113 92.3116 208.108
17.9266 99.7791 212.964
20.9997 131.522 49.3675
29.5465 64.2278 203.149
60.5427 99.1716 48.4312
61.8158 119.223 83.6431
66.855 72.8852 217.804
26.3242 103.17 57.5381
31.0339 167.595 223.29
50.2449 96.5498 195.264
24.8787 76.9367 232.362
30.3176 51.9424 226.959
60.1836 106.023 220.931
56.3855 64.3546 240.932
22.312 62.3205 206.153
44.2049 30.2011 246.78
39.7168 179.529 176.967
52.5359 229.303 108.033
57.2821 168.952 163.004
28.3245 96.0613 219.292
61.6258 61.3967 234.771
32.5707 111.702 90.2191
62.068 54.2161 205.204
28.359 50.0547 204.05
54.4805 26.4742 224.912
35.676 64.4605 203.536
51.8798 163.137 210.439
40.414 200.678 106.35
50.7221 177.104 171.376
62.2926 64.0913 205.763
26.5532 82.2559 230.805
33.0466 88.9051 222.231
40.5491 178.254 226.45
67.7379 60.293 223.424
66.0613 118.771 41.4585
32.5943 140.157 68.218
33.826 77.2468 221.751
41.5146 147.158 48.3883
50.3107 104.815 200.131
36.3609 169.235 205.754
35.6348 38.0502 244.139
63.4706 87.0622 211.995
46.4451 132.239 24.9529
33.4164 91.3329 227.534
20.6535 120.983 48.2181
52.7446 162.953 222.319
43.9284 149.735 183.213
60.9632 137.86 47.0408
58.4931 111.93 211.222
33.5765 173.151 118.23
61.8952 95.7611 62.2324
41.8576 91.6765 87.4404
54.6064 22.073 219.835
35.7194 47.1876 201.125
60.2409 111.438 218.816
27.603 90.8088 228.787
26.927 117.944 64.5116
22.4388 201.388 121.377
64.8164 88.326 220.334
33.1517 138.212 48.9332
53.3641 101.699 35.9959
59.5026 116.038 35.301
20.8969 5.22758 253.882
51.5044 105.95 30.7395
47.1818 40.2182 192.354
29.3354 109.656 69.7044
62.1375 99.4477 217.063
67.6987 66.1677 216.629
60.987 79.3049 225.965
64.4316 26.61 234.328
30.5814 206.27 115.024
29.284 142.364 46.5475
59.8008 104.038 70.7563
35.8931 149.551 42.3885
22.2234 82.0304 217.553
29.5849 118.961 30.3727
35.313 83.4156 244.833
59.5983 48.3555 200.877
24.2337 65.9043 202.288
57.2784 106.913 74.9005
58.6256 126.846 76.7227
47.3964 165.971 195.742
39.4016 105.123 239.223
38.5322 165.653 216.84
67.4462 137.813 47.045
55.4126 132.953 62.2436
36.5148 169.62 214.943
64.9589 59.2864 204.082
59.086 84.7448 201.674
28.1771 45.5828 220.531
66.3118 58.4734 231.012
61.5777 112.886 87.2515
30.297 138.928 29.8466
62.6787 42.8941 225.83
50.881 155.552 164.473
54.4928 100.96 199.057
35.1579 55.0563 205.55
64.6747 94.5678 217.033
32.4566 96.1943 57.568
22.3723 86.8737 232.33
58.0578 90.4916 209.643
53.823 186.947 114.321
54.6655 99.2419 52.2527
29.4253 54.7384 204.34
62.5591 85.7117 225.024
36.7367 35.6743 223.976
47.4012 144.332 66.2582
57.275 92.4554 201.959
66.3076 66.1967 230.718
55.112 163.376 215.188
31.1346 145.95 60.3379
21.6673 127.624 63.966
47.5545 140.478 56.9518
65.9328 114.638 73.6221
62.2427 29.8701 237.861
35.1175 180.798 226.628
26.6758 64.8974 208.502
39.1502 145.957 42.6162
51.8275 89.9233 196.86
62.7895 59.0149 243.738
32.4448 98.6749 44.3494
38.3258 76.1268 245.687
62.0087 103.724 58.5867
69.6988 106.554 56.6676
46.6383 126.916 207.374
66.9572 127.834 63.4933
34.3715 90.8022 201.704
65.56 118.641 71.2674
37.992 114.603 27.2009
54.1912 232.217 119.113
63.7884 44.5661 209.331
35.8994 69.108 255.039
28.7072 78.4675 209.905
60.586 101.552 28.7958
30.6401 73.2625 234.621
