ply
format ascii 1.0
comment Created by Open3D
element vertex 1875
property double x
property double y
property double z
end_header
50.7995 338.189 304.242
80.3705 149.875 258.725
60.474 153.626 209.134
50.5448 224.229 174.536
57.1393 288.539 47.5036
86.1321 84.3958 171.724
70.01 293.194 88.2073
51.9445 344.136 105.436
50.3622 179.874 147.406
73.722 297.032 204.017
51.0616 194.633 219.587
86.6451 180.062 166.058
74.7204 150.304 173.549
67.0969 293.73 158.429
101.415 55.3177 210.407
51.5807 331.349 156.484
50.7783 335.781 108.176
51.3397 222.055 194.306
51.2855 299.627 191.581
61.4224 155.51 146.059
112.873 187.196 253.486
51.4335 203.946 145.949
55.6381 307.127 257.666
49.9123 234.154 203.72
53.4618 221.493 156.577
102.481 171.629 265.685
50.8733 215.368 206.856
81.823 380.488 172.075
51.3207 316.752 202.411
69.6088 277.212 156.748
51.2376 318.824 116.394
55.7842 348.579 82.9866
54.8042 267.533 74.1968
52.1201 270.927 60.0532
81.6516 188.681 194.395
53.456 327.995 74.9005
111.642 212.423 254.227
50.8592 193.016 138.777
68.973 150.74 137.608
60.8732 274.464 122.497
57.6286 371.899 183.228
54.6968 135.873 156.45
106.898 120.463 174.512
70.0233 309.166 103.266
54.4767 68.7805 163.173
53.0972 228.336 165.284
99.1681 147.724 116.408
55.2134 239.481 157.15
70.1096 217.345 203.369
54.3284 292.409 110.082
125.858 69.4429 254.18
75.206 260.658 216.547
72.3874 257.455 202.079
54.2808 166.492 258.595
78.9362 329.703 57.0058
51.7572 274.928 71.8032
75.912 193.745 120.955
63.2264 139.421 163.867
114.092 165.569 171.435
52.3633 206.748 115.509
51.6125 277.496 135.012
53.5876 252.076 103.867
52.7602 240.709 110.472
88.9777 361.444 215.199
66.7616 266.635 193.252
52.194 322.118 94.9859
58.3195 246.44 141.54
52.9447 325.28 198.001
75.4648 220.252 269.077
49.0533 335.719 130.78
55.1169 374.329 159.968
53.9108 161.586 184.465
77.4792 231.331 37.9183
94.8119 342.548 62.2182
50.7 312.678 234.151
80.1111 149.349 155.63
92.8172 179.56 195.596
98.1696 191.247 224.534
58.4765 370.37 316.425
50.0649 237.611 189.31
70.8733 349.327 77.7589
64.8309 228.719 177.946
73.5397 249.823 130.72
49.9687 319.429 126.73
53.9998 174.938 133.397
81.031 239.957 231.35
74.6041 269.838 37.6385
73.7361 269.072 79.835
51.226 326.463 188.307
51.5039 189.411 151.653
52.6436 314.13 100.051
69.9448 66.8866 259.806
76.0927 70.8867 175.437
50.7863 348.861 127.369
71.3561 201.01 182.484
80.216 210.474 269.568
50.0868 317.73 214.681
50.5976 287.628 192.118
69.6838 55.9239 254.284
65.509 295.974 180.316
82.9821 181.55 127.658
51.4069 240.046 100.411
53.0908 161.947 199.82
79.8146 285.814 34.5305
51.4819 194.255 93.5394
53.1349 258.97 82.8529
75.9306 235.358 271.883
96.8317 351.374 133.233
50.7981 225.788 248.627
73.8571 138.273 170.47
58.6495 379.889 306.232
105.305 173.849 185.349
51.3537 166.206 135.442
66.6237 224.56 169.789
63.2625 248.924 178.459
90.7935 187.065 264.147
102.5 150.452 102.19
51.0232 256.926 192.715
50.8323 202.2 97.2366
51.8654 313.554 87.9615
59.3011 244.465 267.408
62.7966 63.7741 164.357
75.9719 235.118 211.84
54.4562 275.892 107.508
79.4526 187.775 172.192
62.2259 228.107 268.61
71.3561 137.261 225.272
106.054 79.7067 57.7412
127.33 271.912 51.4531
67.8874 114.992 55.3787
66.4711 246.28 159.309
61.7138 156.537 129.654
91.646 176.81 134.131
117.178 51.3317 246.748
55.4092 253.463 157.358
105.072 377.192 179.257
64.5853 228.799 163.315
69.0481 286.625 151.007
73.7025 359.999 94.9166
57.1522 252.876 148.801
81.0942 274.197 272.86
50.7691 219.924 252.276
51.3257 124.576 146.987
67.3572 219.027 140.134
118.034 362.103 185.349
54.1597 162.418 115.067
75.0092 191.303 180.505
49.7088 303.473 233.97
90.2604 344.538 136.439
66.8919 296.302 43.4431
68.0647 306.821 188.901
68.043 229.523 115.07
91.0438 93.0115 155.828
116.709 165.052 147.007
86.0515 176.42 247.73
68.5545 208.285 122.872
72.0667 128.63 70.0884
67.2623 170.309 280.043
52.2144 236.196 143.342
51.8325 201.675 136.483
52.2223 303.693 80.6389
66.6899 242.888 193.707
54.0488 315.641 252.28
107.575 46.9338 264.749
78.0111 258.026 72.9786
51.0706 331.801 117.1
51.7623 240.689 91.822
54.6306 262.516 259.666
57.2244 69.4108 172.765
73.7627 250.789 139.913
55.6309 118.637 330
77.958 212.993 45.0281
76.7654 268.745 122.933
103.698 268.915 63.021
56.1234 301.994 140.698
87.1536 194.394 218.073
65.968 239.836 167.125
52.2259 296.875 181.56
64.7001 379.889 162.939
64.345 287.606 38.4464
53.557 184.696 140.506
55.3172 119.314 189.276
62.4848 207.097 61.0807
48.3421 264.037 227.345
52.0687 225.118 73.3498
98.7598 37.7861 206.644
120.281 57.5007 256.737
58.316 375.391 140.89
76.3564 138.224 297.073
80.2443 209.478 95.3752
127.875 215.196 45.9011
50.5082 246.58 202.207
78.4514 149.145 183.315
55.8814 172.155 241.634
75.2701 276.74 216.913
50.6702 357.454 134.101
49.9612 277.274 231.199
78.6265 338.072 149.481
51.2362 275.614 213.141
53.6808 250.666 95.7158
53.7125 337.773 202.061
63.0517 262.981 38.4071
51.6139 364.822 129.68
99.7149 106.332 184.686
57.0828 180.328 250.35
70.4583 146.382 202.912
47.3526 90.7665 177.699
51.9794 220.56 184.748
92.215 136.454 172.607
48.9573 279.716 243.141
52.4617 97.617 138.169
67.4405 221.628 122.233
73.3247 318.926 186.894
50.7469 291.723 208.428
77.7048 260.786 129.871
51.9571 300.973 152.591
87.0567 340.64 125.955
51.331 285.579 178.262
90.8848 370.655 102.485
50.5978 243.517 217.755
49.6513 251.978 225.726
53.6483 372.093 150.875
70.0171 283.767 85.3595
121.233 351.305 191.247
67.6571 266.908 94.0879
60.741 153.309 158.228
110.286 310.476 233.112
61.4538 336.241 63.8454
74.1888 165.087 95.6533
65.3003 223.298 152.021
52.0757 290.528 76.5155
59.3316 360.489 214.605
49.329 356.801 121.194
121.139 72.8137 265.475
54.9194 132.321 175.174
67.7948 302.728 106.746
79.8943 311.182 49.1437
55.5873 343.955 91.6288
102.005 129.997 181.361
49.2566 290.466 232.758
103.181 110.941 151.305
83.0052 180.698 141.298
48.3483 99.71 183.422
92.7304 306.009 76.9778
111.951 172.949 227.151
56.7338 316.991 54.5617
67.8683 139.443 150.581
69.2816 299.474 97.3531
64.8234 108.509 285.616
51.2303 353.631 155.71
63.1661 350.05 77.6632
52.146 356.816 106.936
54.9736 241.87 53.4688
51.52 107.937 138.412
96.7015 101.342 159.776
106.443 282.633 282.937
70.2577 235.267 136.024
51.146 290.376 221.325
61.8538 360.096 96.1062
52.8717 351.952 96.7306
68.173 241.942 152.918
69.5598 324.248 154.268
55.7511 285.143 118.272
51.7128 209.987 213.351
83.7613 232.954 271.561
117.014 76.6693 241.089
104.589 120.694 323.61
73.3735 147.743 163.123
51.4682 176.661 214.008
73.0977 319.498 50.8941
90.7797 292.594 70.9881
65.7176 209.449 263.907
61.6299 169.249 248.348
115.244 170.389 215.346
52.3889 329.029 219.178
109.263 295.731 69.4399
97.1151 357.824 79.9879
48.4617 218.63 220.449
95.1455 66.6591 225.434
69.7085 219.421 130.902
53.2508 181.873 241.685
82.3399 101.5 81.4993
70.0628 299.142 196.5
107.197 124.417 140.136
68.1777 277.429 89.6794
54.8373 158.592 125.712
72.4292 182.224 72.8687
74.3694 371.708 200.432
73.2875 250.607 118.438
83.9045 365.83 99.1809
66.8577 281.623 192.588
50.9476 296.372 71.6646
52.4806 365.471 141.552
79.5805 356.523 85.4808
51.6526 256.212 73.6103
64.9116 267.335 180.588
52.1838 325.501 144.524
89.2729 116.156 286.507
72.5918 153.905 117.525
51.2022 271.457 190.219
51.3944 310.391 121.581
86.1756 263.447 68.2686
57.3166 214.971 61.8971
75.6151 91.9597 224.273
53.9906 260.815 168.695
94.3852 261.438 66.529
49.805 228.38 129.196
69.0813 275.373 103.404
55.7891 354.826 204.393
72.9576 61.098 269.94
55.0133 276.559 154.974
72.6157 332.137 147.574
57.9352 82.1975 180.789
50.376 220.249 231.837
81.364 270.069 69.9446
83.6313 340.102 71.1699
49.9593 229.485 221.511
70.4208 207.227 55.8953
51.3579 183.541 164.067
72.3688 109.011 47.6588
105.994 276.304 63.3855
53.1103 190.824 130.155
96.3273 337.028 106.711
88.4792 55.9989 279.585
57.6956 230.868 51.3058
83.3798 140.609 162.937
49.321 107.086 349.473
59.5143 44.8326 211.693
88.2256 274.493 67.1621
75.4774 52.4246 222.388
49.6281 238.341 228.206
79.3025 203.538 51.7725
51.9979 100.66 354.914
49.7712 222.869 204.369
73.9849 250.291 81.2647
52.3668 210.965 249.191
49.1222 258.603 210.179
57.466 274.611 45.7389
48.3414 135.049 292.014
50.7948 360.927 153.498
52.7039 169.652 227.858
53.3612 346.724 189.856
53.0126 235.332 59.8755
77.1663 102.835 288.073
120.26 349.625 93.1799
69.1105 279.447 38.1373
55.4434 290.564 137.024
72.4713 269.334 209.729
70.2118 250.356 88.6482
64.3582 281.814 175.314
112.732 112.524 327.619
71.6828 338.624 63.128
70.9609 266.087 152.275
85.8438 94.8385 194.969
51.3219 345.041 179.579
49.6565 336.203 145.206
81.6779 321.212 52.3265
50.6436 202.858 217.298
50.9245 214.277 97.8814
103.497 113.73 126.286
87.8978 201.882 48.1388
79.8465 242.629 74.0964
53.5156 260.422 96.4383
78.4631 320.777 195.078
73.0626 326.121 112.309
69.7096 282.85 108.62
53.5151 338.051 230.694
54.9045 299.01 49.5077
76.4075 175.429 258.561
53.3142 225.195 62.3087
106.533 345.185 62.6454
80.2314 196.142 208.641
68.8726 304.847 172.185
97.1294 347.242 146.078
52.8005 228.485 107.485
50.9597 343.599 134.265
71.8836 327.594 122.785
73.0657 239.384 88.3867
62.9122 293.84 267.185
105.375 197.685 44.4884
70.3827 252.254 98.061
54.438 365.394 189.97
106.894 113.487 142.145
74.5218 259.381 117.639
91.7124 90.2464 253.577
51.6525 336.203 169.155
116.93 338.882 89.1232
61.3275 247.232 42.9803
61.9646 358.095 87.2731
52.4256 245.427 163.828
101.555 375.794 108.188
52.8844 309.681 152.395
65.642 157.531 115.604
101.662 325.287 207.198
60.299 126.303 335.683
72.7052 78.3017 223.831
129.19 226.092 43.1499
86.0931 271.793 234.559
107.779 118.163 158.095
79.8572 63.8379 278.811
68.6769 316.512 147.67
105.145 204.652 41.9441
51.7178 193.545 178.431
82.5125 242.874 34.9107
95.4065 314.152 46.5404
53.3374 196.061 186.327
52.5263 220.177 81.6125
52.6251 168.707 174.686
49.1183 112.584 186.459
50.4092 202.127 105.866
48.3123 145.511 280.617
96.4887 224.342 72.1051
71.7837 286.987 116.267
88.7499 147.985 122.689
60.4758 60.5668 206.361
63.7476 191.967 257.71
80.2194 349.831 77.5668
64.4739 273.411 272.132
87.1623 162.875 231.522
97.6884 104.142 149.56
68.6427 76.1299 68.4895
86.9942 282.028 70.5543
74.1228 286.625 206.289
87.1121 254.805 276.613
53.5424 198.536 83.4685
71.2103 275.144 112.18
52.6709 217.813 166.833
51.3034 320.36 239.226
59.2039 351.324 220.965
53.0256 350.084 115.064
53.3837 302.725 110.708
51.2309 316.668 74.1457
52.4839 200.958 227.921
47.7877 265.042 292.312
53.7585 305.979 93.4523
87.6802 374.222 189.026
78.6511 253.734 35.154
87.3819 85.3794 157.508
79.5933 331.211 113.593
110.703 89.2167 262.181
92.6044 176.088 183.139
52.5124 312.248 143.67
91.6563 95.7718 173.579
71.2456 242.408 142.613
52.4769 208.52 185.954
80.0533 52.0127 273.815
72.6015 209.928 195.775
57.1444 115.287 361.594
79.3416 101.78 43.4377
67.8107 208.926 175.606
84.1537 384.482 156.05
100.992 103.859 124.482
111.279 193.94 246.007
51.426 251.042 88.5031
63.8664 270.708 188.124
94.1142 341.209 115.55
102.976 320.879 216.213
69.3586 216.746 105.799
78.5625 311.971 90.158
81.3385 144.587 278.715
52.7923 212.47 151.488
99.8821 173.853 178.876
58.1418 376.657 169.493
96.8724 334.342 97.6595
53.0392 163.28 212.516
99.1481 97.5581 181.078
85.7503 143.258 211.112
122.975 291.074 279.568
58.7269 265.117 149.837
53.118 269.488 83.9113
104.962 380.2 120.953
73.8786 66.4199 238.466
90.6533 155.04 273.546
75.4224 190.365 164.561
72.3654 74.0763 249.866
47.1337 134.87 276.757
51.3408 200.462 211.757
74.0161 195.639 130.378
52.6115 380.753 305.386
53.0386 173.19 143.994
48.2188 108.718 177.364
75.0783 366.079 102.849
48.7941 235.226 246.838
55.8886 265.649 267.924
69.0411 278.914 199.299
116.548 222.203 60.8625
49.3816 316.433 170.122
70.3346 260.559 81.5138
90.9265 57.9472 185.119
85.3767 311.783 85.8319
85.8799 377.472 180.55
65.4396 216.62 174.349
49.6516 328.375 125.201
58.98 157.36 223.565
95.0056 383.518 152.584
74.7748 146.883 222.598
83.5561 213.219 227.114
68.8374 151.812 156.803
67.0289 221.205 182.8
66.9466 310.706 47.8904
68.6392 284.142 97.0177
65.9181 244.066 184.533
94.6118 89.0902 125.18
119.206 189.481 49.3955
67.1789 214.258 151.996
51.8474 319.063 83.9934
85.0598 78.0517 143.596
52.8455 339.708 213.792
81.9111 111.621 82.332
52.5193 336.207 79.0254
50.8092 173.016 160.583
50.9767 191.698 106.244
110.328 165.768 156.222
67.804 198.894 167.466
63.7372 248.979 272.939
88.3026 334.406 59.9491
51.0195 202.614 182.718
51.088 339.85 91.8208
78.6316 304.783 214.155
58.8907 282.445 129.873
50.1048 310.212 219.494
115.17 354.877 147.04
73.4693 309.95 195.341
65.5489 344.574 68.6399
72.4261 80.1944 240.477
67.3526 307.804 124.167
50.6336 174.986 203.193
68.8507 33.0972 216.686
53.918 260.12 68.263
50.9147 172.006 193.481
84.9716 111.78 293.164
61.8332 160.406 233.716
71.0526 318.117 177.313
73.7259 74.3171 186.584
56.5932 158.81 155.141
54.4287 284.228 91.6144
86.3674 250.609 30.9399
67.1537 48.6648 89.3372
73.991 59.0467 102.321
103.815 114.093 165.238
69.5747 261.16 100.021
48.8135 91.7895 343.452
56.2878 225.205 130.424
91.0137 372.732 114.358
51.3904 335.35 178.398
48.8731 105.879 156.893
66.4528 315.273 135.766
82.5095 218.396 40.1426
51.8578 190.733 241.166
52.2738 183.004 184.674
122.745 366.489 121.068
115.554 251.718 262.051
55.5496 221.538 260.256
52.0062 198.649 243.776
62.7678 113.792 278.614
55.985 107.102 131.256
86.6757 142.182 200.29
79.2351 332.8 175.143
75.8512 187.316 127.366
98.3427 102.826 168.477
81.6736 278.03 224.356
83.0398 370.647 200.737
102.687 171.033 151.951
48.1001 117.87 172.228
52.4226 277.521 184.309
53.3937 73.4851 151.713
51.2648 329.993 88.3129
90.1129 203.438 226.987
73.4595 327.03 175.308
53.747 219.832 119.95
62.8811 365.85 105.474
50.9895 232.614 69.5696
48.9431 100.989 333.291
67.2492 160.021 106.048
89.1911 79.2399 129.458
62.4643 300.499 173.929
62.1725 218.615 53.8973
63.6912 182.057 254.914
106.826 42.6714 252.464
68.6242 359.333 89.0457
50.465 187.388 228.921
50.9408 58.6412 80.526
69.6873 196.834 155.432
83.906 324.584 92.2895
54.0344 209.294 77.404
69.8499 243.832 109.484
88.8826 150.206 113.938
83.0951 116.232 358.315
50.854 80.4067 88.1556
100.096 201.964 273.371
109.129 205.035 244.092
90.6998 381.934 137.578
54.4656 310.796 67.2316
105.765 67.4205 279.658
70.0953 232.459 123.617
49.3481 298.183 242.495
52.1032 348.362 142.912
104.23 176.168 207.299
73.5806 76.8085 260.988
108.553 157.622 236.437
77.1008 72.4873 269.801
57.3261 306.984 48.6704
56.9944 226.312 143.313
68.1132 316.796 124.654
71.38 199.866 174.218
69.5624 315.175 112.331
120.607 343.218 209.449
97.2247 282.207 32.4834
95.6102 181.287 205.548
51.4892 249.035 241.376
52.4957 275.392 198.92
54.4964 357.006 116.655
84.5952 301.226 78.6069
52.9941 300.166 215.019
52.2868 193.627 119.427
73.5317 211.956 99.2928
70.7039 232.199 202.382
109.736 335.966 93.4382
91.9837 383.188 164.688
65.9779 86.195 249.333
71.3532 256.097 35.5377
109.176 168.911 147.86
69.5535 254.917 291.514
60.2018 88.2311 341.879
68.2435 209.526 140.95
94.614 286.311 68.0655
75.3885 262.265 141.236
71.4525 188.102 260.53
92.4174 32.8526 192.419
62.5801 169.267 255.906
50.655 256.498 250.014
58.2995 278.353 268.686
67.2821 304.224 116.525
56.49 340.812 72.6552
86.8891 147.388 130.073
102.427 329.618 52.8797
63.9328 76.0809 246.963
62.3005 239.595 48.1102
96.552 206.517 41.3385
68.6748 243.319 95.35
68.695 222.966 50.2759
76.3642 201.315 102.618
66.6341 125.396 127.723
61.5677 134.711 141.589
92.3992 121.013 68.9529
78.6361 172.498 284.391
104.911 86.5308 50.083
69.633 227.662 136.121
60.1187 152.472 183.322
123.024 370.864 137.146
49.8821 257.026 236.315
63.5107 230.049 45.8394
65.6016 234.352 187.83
76.7698 207.931 213.953
102.284 364.69 87.8845
78.7432 279.471 126.82
97.48 375.941 192.069
50.9954 355.609 142.557
71.1702 246.133 38.5417
66.6085 291.47 104.188
81.1185 79.6309 189.549
90.368 170.724 81.982
68.4032 295.705 112.334
92.9197 92.7673 141.893
115.553 324.617 83.9251
73.0669 305.477 91.7172
48.7211 262.286 119.871
81.1911 186.415 120.565
66.3662 67.7114 176.541
70.277 257.66 157.203
109.66 181.392 230.614
103.639 112.656 179.266
98.67 52.9898 198.864
91.8931 258.619 33.6951
57.6782 130.895 184.154
51.2489 230.87 90.6475
112.606 341.047 180.667
83.4164 340.554 141.477
73.9601 154.857 231.202
50.7283 282.602 67.7431
87.2142 350.843 77.864
104.458 219.192 67.7081
69.9882 362.209 218.383
63.045 323.863 53.8516
99.2647 296.761 71.4519
51.9311 182.732 124.753
51.7693 203.839 127.045
69.1791 218.386 192.653
65.9362 212.095 159.951
52.71 137.549 168.144
83.5137 312.646 210.615
64.2761 100.549 233.164
84.252 199.701 269.934
57.9736 135.382 303.669
86.2547 300.832 37.4503
84.8914 135.798 189.281
83.4186 149.402 164.549
77.5105 186.384 151.199
67.6382 306.143 136.024
57.6007 52.9987 193.661
66.293 212.297 166.884
113.121 288.809 246.573
83.7355 380.879 140.117
119.232 156.96 222.853
70.738 126.772 356.834
49.8631 221.477 145.314
66.6066 190.643 70.8856
53.7798 280.559 84.7552
85.6747 76.5808 161.604
60.1326 117.057 321.099
96.7523 40.7727 195.957
91.9203 319.174 84.7703
111.949 288.969 288.915
66.0555 164.851 241.07
79.3716 339.01 242.611
93.1337 92.9697 41.0457
53.4114 284.044 110.122
59.9434 303.232 265.227
51.9822 245.939 62.9218
64.2832 264.558 174.001
49.8628 179.83 115.526
62.6824 254.616 40.048
110.976 352.947 69.461
70.4965 228.775 272.267
117.997 159.11 76.1591
105.284 123.358 336.06
85.5607 202.693 220.774
70.8306 98.1171 47.3245
66.2311 281.647 185.131
81.2984 185.158 159.341
66.1747 252.8 187.638
95.6485 275.305 65.3013
75.5484 127.092 60.2108
64.6383 237.312 176.562
74.7619 375.972 191.714
50.464 114.466 159.854
56.0172 291.459 153.942
112.182 168.228 126.677
96.7476 170.273 143.422
125.535 150.52 101.531
88.2282 332.727 242.093
103.847 342.07 100.722
70.8898 204.968 110.863
70.9684 379.957 170.154
85.5359 361.418 89.705
50.0342 263.545 180.84
82.5849 201.742 97.9795
52.6123 163.113 148.278
53.8034 118.753 136.263
73.9501 184.482 268.763
81.6155 374.476 119.225
90.3368 26.7752 195.581
107.573 169.113 138.665
107.981 129.404 162.764
64.3419 149.711 222.518
99.2674 254.883 64.7508
98.449 172.3 125.829
91.608 96.9867 186.96
106.403 161.541 82.0614
89.7826 331.934 97.7677
56.2409 192.477 250.968
56.0176 328.052 66.2995
77.1161 275.774 34.7601
52.8444 269.372 99.6485
63.0282 244.322 171.638
84.4179 87.7228 45.1131
92.0649 94.949 164.948
95.3162 380.298 130.095
53.0371 341.665 221.184
86.0647 338.06 172.615
92.8647 233.534 277.279
48.9536 88.209 227.803
86.8718 220.166 272.205
69.8819 293.488 127.06
114.457 54.4807 264.948
83.2427 298.575 223.204
103.321 92.7666 253.866
92.7917 197.61 91.246
49.6778 123.393 161.574
52.4332 181.313 94.32
94.3971 367.702 94.7627
93.4338 246.866 245.518
71.0508 253.951 106.606
53.1498 238.521 133.432
118.436 344.517 218.643
83.0901 330.101 103.309
71.1986 291.156 139.816
53.7812 87.0817 189.534
107.346 344.798 122.64
50.0842 284.074 202.675
74.1807 277.938 208.448
106.801 171.403 174.657
84.7865 156.124 227.703
110.959 177.872 106.488
53.7859 361.135 178.992
89.9414 357.758 82.4191
59.5457 366.829 198.554
55.4622 370.037 166.892
67.6789 235.246 272.681
90.2625 345.084 70.655
68.2195 171.573 85.6018
88.3929 178.43 149.036
48.4387 138.833 259.089
57.7441 188.886 87.0359
52.6437 279.792 260.7
55.5776 246.409 46.5184
52.2866 304.654 70.4501
122.674 363.031 145.115
77.52 323.276 98.6846
59.5324 157.312 243.239
110.699 197.88 258.709
82.98 300.871 262.954
111.833 115.074 359.195
83.1923 376.459 131.971
71.2365 242.719 118.647
71.7461 329.619 56.8832
56.7677 292.481 121.711
87.95 320.671 48.1285
99.4177 309.189 229.69
115.296 321.717 225.623
90.9483 177.885 123.468
68.3198 311.718 184.5
62.5763 64.1003 154.286
75.2274 196.573 190.769
95.1087 155.702 224.737
103.134 72.8587 226.821
111.494 372.459 95.8219
57.0228 292.44 128.894
69.4592 209.722 187.542
98.0923 91.1517 262.971
104.911 178.064 215.981
52.2794 352.439 171.332
53.4381 271.3 92.7972
51.5937 209.9 231.04
104.355 141.269 170.672
107.375 179.125 258.589
102.414 329.938 91.1816
93.6373 250.773 68.2154
51.2997 324.695 106.682
79.6125 103.031 117.723
76.3342 126.127 313.084
49.0937 78.2079 73.2522
69.2584 263.586 274.957
52.5644 143.618 293.988
109.895 328.249 205.818
97.5322 40.0292 254.057
75.7965 286.235 272.231
62.6483 262.284 272.356
91.0288 263.977 276.549
51.6478 239.949 259.805
62.5081 120.614 196.452
72.5806 318.808 103.094
67.8023 231.201 154.229
73.3593 375.508 125.083
64.2204 339.093 242.456
103.025 382.396 135.079
85.564 270.005 33.9381
52.1193 295.367 168.469
75.457 371.181 112.039
63.9307 105.425 62.0011
119.272 219.028 37.3987
54.3679 261.017 50.5597
77.1704 132.212 288.212
67.6282 259.857 164.802
66.0726 315.367 172.136
50.7889 182.684 220.411
92.3624 162.674 91.0017
53.6643 217.048 132.765
103.871 320.561 82.8928
69.8444 200.989 160.5
76.1177 174.432 275.755
114.332 228.363 261.976
65.8836 366.634 208.362
70.6867 201.326 120.029
77.8553 357.404 224.607
64.2998 317.467 259.284
55.3866 103.409 363.476
60.4779 266.792 114.716
57.9462 343.256 235.322
50.6504 209.278 239.424
79.9018 75.5815 49.4641
118.08 164.032 159.829
52.0962 197.937 168.024
73.2978 187.808 65.9413
50.0563 266.687 199.314
67.8933 298.178 133.195
95.4549 134.342 257.59
61.6535 152.652 168.703
105.889 350.704 146.566
71.0464 322.738 165.407
112.395 170.966 62.4447
72.0103 273.912 273.787
84.3978 288.4 228.992
96.0515 174.494 169.177
62.9528 272.071 284.458
71.6599 197.249 59.7067
85.2837 112.565 74.2703
113.796 144.927 191.876
64.7347 257.421 172.514
71.9755 380.583 149.261
76.6037 158.737 103.985
51.9297 267.412 254.766
122.129 65.7259 242.788
99.7715 86.8427 272.515
86.9208 194.538 54.1144
80.0539 245.605 273.41
61.4361 122.627 133.394
53.9857 165.546 161.272
49.5485 247.522 173.196
97.199 176.808 117.179
53.0549 118.382 291.621
80.5615 337.537 132.7
73.2914 82.6986 194.383
91.1917 305.037 226.467
76.6655 379.258 140.24
69.714 236.165 98.6303
49.1805 223.558 238.851
52.4408 234.219 151.026
88.4195 45.0306 246.59
67.4863 269.449 161.194
49.6199 76.5668 170.942
52.8282 341.215 151.963
109.866 243.613 253.433
68.313 369.296 108.818
75.5213 249.576 219.499
53.7574 169.966 104.141
98.2189 349.423 228.317
60.3322 95.0705 197.288
79.7641 286.415 74.2003
74.0994 192.391 156.932
68.5481 93.528 217.078
81.4205 68.9444 162.035
76.9559 298.839 82.4276
54.5551 87.6715 143.432
55.0689 203.307 253.122
93.1379 135.233 186.702
67.274 98.1371 93.1961
62.8816 234.584 216.267
48.2717 109.751 145.939
107.823 332.12 240.693
67.7472 45.5338 183.256
62.9411 166.846 95.6685
54.5037 262.468 157.94
58.4376 74.4691 242.224
65.7671 299.76 166.973
114.112 164.306 244.69
115.6 240.699 258.959
74.3882 343.019 70.4609
50.6996 274.089 248.864
102.739 184.084 221.197
113.432 150.195 97.1906
86.3598 296.506 73.207
81.476 337.656 63.6896
92.8231 285.822 241.831
74.5773 267.214 113.444
90.1189 178.733 276.198
72.2498 224.271 92.7418
88.4561 343.838 156.048
99.4826 381.292 163.996
100.935 354.212 70.1603
51.805 255.461 175.274
109.768 90.194 59.4564
111.073 175.867 250.816
64.6335 119.729 66.3691
89.211 240.579 34.4367
86.6744 243.184 70.0061
69.0827 300.858 185.143
64.3492 120.586 266.936
68.6573 250.889 196.827
91.5621 152.754 105.449
79.6925 290.256 220.172
74.0228 285.94 135.04
57.6412 308.461 128.668
88.2145 178.282 263.51
93.7627 197.529 231.35
52.0416 307.081 225.309
69.6472 302.685 155.13
77.6487 332.663 123.723
59.6801 144.887 236.412
102.474 143.133 160.982
115.765 262.96 259.76
109.195 142.889 110.165
101.236 371.226 98.8517
50.81 124.697 175.881
96.5339 89.4068 243.705
113.298 328.622 53.3291
122.951 164.735 109.713
94.7903 50.5707 187.54
60.1889 96.1632 242.389
52.4652 309.722 184.514
70.3684 28.4628 206.459
118.788 142.43 236
111.229 362.759 80.4696
61.4651 106.693 199.729
123.557 278.736 286.729
126.257 146.812 124.418
69.6055 208.005 150.536
69.3219 291.53 194.099
88.0729 82.4615 271.215
117.444 168.108 196.195
82.3302 347.151 234.605
84.0577 157.474 103.962
75.9962 198.999 197.749
102.45 186.393 265.235
100.953 243.797 249.197
91.878 327.681 199.2
57.1107 166.563 268.891
81.8247 96.2524 359.405
50.8438 209.457 88.7098
87.8456 114.297 363.335
66.9032 313.299 161.012
108.902 336.918 190.467
118.324 82.09 254.783
71.0982 212.773 48.3509
101.594 100.952 132.537
104.499 174.068 120.958
114.655 307.73 74.1436
78.3575 108.349 203.552
74.437 302.986 45.0258
106.807 113.776 55.3484
73.235 330.917 157.039
122.52 196.537 67.7149
96.5554 234.039 66.5609
86.971 280.403 32.6342
79.0435 76.6992 239.83
92.6718 155.942 96.5683
52.599 171.719 117.126
54.8472 71.0775 92.527
52.0273 213.457 124.588
52.7825 214.635 106.398
67.0019 306.883 148.129
50.9389 153.726 259.057
87.0872 219.117 81.7756
75.5734 133.876 135.43
54.6701 52.0032 68.7627
60.1401 96.8928 215.305
91.2055 308.147 39.408
60.2649 372.167 129.229
50.2695 334.301 190.992
73.8322 380.883 158.218
83.5438 146.161 190.38
110.648 205.599 71.1898
88.7609 98.0403 70.8762
86.2683 83.4563 244.858
108.202 189.151 235.94
51.1452 226.277 85.3426
65.4367 57.3806 212.968
57.8114 165.189 278.448
57.6499 65.1027 83.9905
127.538 161.689 85.9849
54.7997 285.232 165.412
74.3361 225.689 209.159
104.253 260.617 64.0255
89.9193 214.597 236.678
76.1015 294.306 213.692
54.2252 213.951 223.333
104.02 141.25 143.447
57.4503 85.9173 230.944
76.3316 297.247 38.7387
102.378 155.765 91.2295
51.5893 176.007 179.381
103.607 350.697 154.942
90.3023 245.955 276.73
110.062 324.362 213.942
112.723 344.932 172.685
66.2199 272.535 169.851
58.3797 203.973 68.2292
72.1599 339.149 243.643
86.7181 283.523 235.183
63.6048 276.125 129.33
70.5346 265.108 105.775
69.4539 217.297 114.442
52.4197 197.687 154.655
57.6943 213.926 260.237
68.1087 227.837 143.591
75.069 270.639 143.645
52.7914 102.395 191.311
124.031 316.904 69.4257
70.0207 271.047 201.213
55.0394 260.462 107.329
54.6335 291.103 263.241
53.6022 360.65 165.969
64.2847 131.567 189.66
75.753 332.049 130.787
79.8793 108.88 347.35
64.3175 330.058 58.8694
64.6405 373.835 192.644
50.4064 265.602 140.723
87.5839 156.363 286.952
49.6018 268.349 219.264
96.2987 291.394 266.176
109.515 213.162 267.808
91.3105 43.3357 265.377
124.826 186.566 70.9825
79.6596 82.796 255.923
56.8074 234.172 264.69
92.4904 205.116 234.263
65.8522 330.412 249.996
79.3394 152.417 113.545
96.2929 348.441 71.4196
103.558 344.161 109.376
80.3782 371.722 109.366
103.285 268.306 249.488
77.6456 136.735 143.428
52.039 298.584 255.176
52.5676 322.842 137.94
78.4831 269.172 221.417
74.6372 150.129 125.59
98.1024 88.7997 49.4416
79.1456 146.033 198.848
55.532 289.733 146.18
82.8992 182.982 177.297
49.7562 237.791 237.417
114.018 84.7107 272.003
78.4378 122.459 124.587
96.61 108.991 281.229
64.0172 180.053 78.6936
63.2645 147.406 302.258
74.7378 364.738 205.43
59.3992 164.647 103.499
122.19 159.901 137.723
115.764 263.664 35.2108
53.0328 129.99 251.276
87.8925 210.467 41.5187
94.951 146.17 126.911
76.5548 139.875 156.863
79.9937 361.728 216.516
95.9918 296.382 235.921
70.1612 272.406 95.2846
53.9237 73.3894 236.899
107.691 381.672 162.64
79.5302 290.786 268.796
99.9471 178.159 275.534
59.5154 181.198 88.4448
98.5097 175.721 189.771
101.257 170.101 135.463
86.5505 126.66 315.377
117.238 161.721 130.37
104.772 176.443 110.445
84.2808 380.731 148.377
79.6087 192.545 62.6069
67.0586 288.725 169.635
84.8728 127.981 278.229
61.2199 157.39 285.873
66.9547 177.971 260.052
112.443 338.133 55.9607
87.5638 121.119 352.614
51.4134 270.063 119.991
52.6942 317.815 190.5
84.937 140.282 148.887
89.9438 228.424 240.372
92.4935 352.811 226.185
112.602 69.5345 229.865
76.2483 217.709 215.438
100.633 170.436 72.421
49.6795 309.205 193.194
76.5366 116.789 200.811
103.739 384.295 146.989
72.6441 65.0661 168.714
52.3365 306.635 174.722
53.4094 190.514 193.347
125.326 155.732 157.928
123.256 242.063 36.4127
63.6915 79.521 131.21
87.7824 224.366 35.8662
113.09 62.9608 271.553
93.5878 233.128 31.8558
97.8265 264.015 28.9684
78.6502 383.677 153.297
94.3408 215.782 75.2968
98.6465 338.842 235.125
121.456 336.399 223.51
103.218 144.801 188.772
78.5208 168.05 290.222
88.488 170.403 287.643
95.912 343.879 125.917
112.221 299.094 40.5848
66.9811 132.917 306.47
81.9192 175.374 76.1947
86.658 112.476 250.459
86.9794 34.4109 223.628
121.346 367.038 170.757
66.7855 285.357 271.97
81.8491 122.032 79.8753
126.461 177.639 65.4008
88.3273 177.855 156.027
48.5121 192.841 194.674
126.409 310.961 52.2475
101.333 118.986 188.525
117.756 336.296 201.712
99.2217 125.991 129.984
53.5598 327.281 164.498
67.592 88.3814 50.8151
73.602 278.686 145.676
96.8763 201.27 82.6621
68.0428 268.011 36.4594
69.8705 138.886 180.184
124.06 170.703 90.5806
93.1441 92.8849 180.345
116.028 123.869 232.087
122.764 357.543 174.103
76.0959 62.8225 157.071
74.8412 331.53 165.366
85.705 84.5885 262.074
102.322 151.112 219.162
62.9636 86.9286 88.3613
115.012 199.054 44.4391
64.8867 74.6156 185.905
80.6669 194.39 106.778
98.1289 331.619 196.915
120.22 287.288 291.023
59.0138 345.878 327.348
99.7017 115.96 234.515
104.756 300.339 35.713
101.334 353.763 221.447
77.4473 149.815 268.206
67.4754 237.162 105.26
100.81 292.398 33.8207
73.5854 245.053 207.13
79.9641 63.9523 92.1953
50.5563 340.812 158.284
59.7971 190.71 75.6481
65.1831 260.19 186.482
99.6053 163.525 273.523
53.5357 295.338 62.6099
68.6157 148.991 188.995
52.7714 323.337 245.815
51.2108 246.965 183.97
63.1832 83.6453 60.7259
78.985 248.943 226.367
70.5355 98.9054 202.287
73.5696 308.975 264.898
94.0404 368.826 203.636
102.94 217.525 273.306
49.8589 91.7537 150.183
78.1443 314.434 200.891
116.404 324.581 218.176
115.314 344.517 97.4842
92.2933 140.424 213.522
94.0664 78.2475 83.7657
73.4506 283.684 122.33
86.6549 74.2456 278.998
70.2972 120.921 199.101
60.8113 378.662 154.187
68.8939 103.426 330.362
84.2314 229.35 78.791
85.9056 82.4007 120.771
65.295 85.8495 195.529
90.2429 333.781 187.028
109.329 171.657 192.649
116.268 197.407 74.5383
95.1152 316.263 216.968
50.3334 155.617 275.936
70.8451 121.637 365.65
102.132 213.893 36.6122
69.9529 260.549 90.4159
50.3308 253.072 296.102
58.4769 253.39 299.882
78.1602 381.833 162.979
114.302 361.862 194.667
87.6494 238.539 241.033
78.5928 330.183 249.959
73.1268 317.008 257.926
117.393 143.945 107.724
127.002 169.807 74.081
78.4313 191.874 113.773
70.6899 300.122 269.388
89.3993 54.8563 231.461
56.7234 239.26 128.794
78.0467 187.189 141.787
72.8984 94.3725 238.573
74.9378 51.1164 262.968
91.7391 77.6849 233.757
79.846 123.573 290.888
77.0184 145.097 211.027
63.2801 149.849 196.69
57.2693 105.921 319.413
52.166 283.802 251.187
56.4033 333.613 242.684
101.12 108.616 247.333
88.9203 175.699 70.8899
102.383 122.287 224.414
100.661 360.178 213.961
126.677 247.784 41.9561
96.8782 114.494 311.466
59.7755 232.884 228.835
96.4719 223.321 36.7059
73.1937 288.593 34.9695
73.8139 273.46 239.272
90.8034 298.538 261.984
99.1981 348.092 120.471
56.6356 357.955 98.7371
77.1737 25.0488 211.605
79.3624 260.554 223.805
84.7956 183.311 185.132
90.0782 148.867 167.65
71.8443 40.2786 222.563
96.5532 165.495 81.8191
72.6222 122.216 305.317
85.7951 118.966 121.495
86.9082 105.535 352.555
81.1086 374.283 187.807
73.8168 98.6716 305.945
51.7788 271.397 165.774
65.5532 362.122 324.849
63.0652 74.2754 137.99
87.3389 190.511 103.373
51.0365 183.618 104.715
84.9293 230.133 236.391
101.606 106.542 174.414
96.6722 58.3828 43.5411
77.9967 226.615 42.3636
67.931 88.7778 122.939
106.523 308.932 42.0893
81.448 326.311 189.945
116.917 350.916 210.784
111.405 188.513 88.4243
50.5177 213.67 173
101.661 366.236 203.291
69.522 378.617 140.18
52.4248 273.1 144.176
69.5553 119.129 81.4919
69.6365 236.312 41.3051
126.715 256.19 42.662
69.5487 83.0329 213.646
120.492 360.534 156.847
67.7598 153.007 232.069
76.2521 239.394 81.5557
74.1984 130.156 196.563
72.0474 32.1048 184.774
82.9447 112.856 256.507
108.814 87.1594 106.452
95.2523 383.379 145.331
103.711 100.66 258.542
64.7475 379.069 174.983
75.8333 190.257 137.076
96.3368 378.566 120.168
82.4027 62.2923 181.077
103.701 203.605 77.1582
89.5497 293.972 231.784
95.7556 115.381 241.68
80.9074 113.531 337.354
108.803 366.507 206.161
122.897 161.324 205.267
87.6975 132.27 342.737
101.322 104.751 320.341
121.169 164.043 212.853
94.7662 81.9764 45.2574
74.2701 52.8669 179.313
93.471 257.826 244.894
120.007 152.267 89.0146
90.0308 177.208 174.037
59.101 367.18 117.396
120.119 333.364 213.786
106.106 146.039 212.914
119.555 370.25 147.543
57.5205 361.369 195.824
95.4383 191.093 95.1814
86.6718 134.85 220.243
104.444 99.4115 269.56
88.6 131.001 349.98
93.2978 65.0394 282.065
119.295 351.261 110.747
101.954 309.792 77.2902
83.3316 120.218 246.14
52.5232 197.656 198.969
121.682 161.397 168.726
95.1696 208.84 77.4452
119.515 275.734 59.3136
117.021 202.951 67.637
68.8824 277.301 225.744
96.3042 128.043 347.83
99.6645 288.509 239.964
49.1475 109.363 336.626
60.4021 262.856 279.433
96.0614 242.973 279.247
90.9235 185.386 60.7065
87.1275 187.13 207.672
72.8898 66.3221 186.682
71.6858 254.936 273.844
75.7511 276.651 75.7604
72.1907 241.045 127.739
100.327 105.093 63.1648
83.4653 100.588 200.518
68.8141 241.29 201.286
75.118 277.006 133.193
81.6061 184.057 275.257
55.3466 270.502 161.149
98.5223 110.459 47.2584
73.8536 75.1962 56.8685
99.7169 88.3012 117.833
91.0343 182.831 113.664
68.3574 102.756 371.408
113.765 357.765 136.143
112.242 381.495 125.036
86.233 335.621 119.001
120.552 166.566 66.2881
113.802 172.339 113.41
123.055 219.378 59.6142
127.664 303.634 60.6377
75.9673 139.043 187.271
69.2727 127.049 237.212
108.122 317.366 225.861
94.289 135.714 160.086
117.322 364.438 84.1019
86.3935 306.933 44.5082
52.8512 267.499 300.649
119.889 350.627 175.781
65.9211 133 229.118
110.937 230.692 31.7062
52.55 244.805 79.0465
106.84 140.692 199.363
101.871 161.262 261.269
66.4679 49.2532 62.4643
71.4938 138.122 250.869
91.4468 196.53 269.172
97.5496 50.6887 271.319
88.9428 38.3612 255.718
106.301 254.783 250.808
71.5074 133.912 264.35
47.8546 122.546 272.368
119.507 342.419 191.791
100.82 116.346 60.9726
73.7643 55.1957 243.219
86.5081 324.9 195.201
83.2303 255.778 233.777
95.2182 173.035 159.66
84.0636 307.233 216.027
62.0583 114.304 125.861
82.115 60.3976 221.627
106.572 327.759 84.5266
52.9536 151.678 289.134
120.915 350.827 182.583
124.972 199.899 46.4072
109.533 51.7144 47.9342
112.534 138.909 123.01
76.4805 303.797 203.552
109.749 223.214 270.567
58.7124 132.889 241.354
98.9022 41.1169 219.503
73.921 289.331 79.4797
53.726 317.654 63.497
66.7895 349.421 229.104
78.9055 69.7624 60.6199
103.346 123.855 360.628
99.1503 315.598 223.029
86.2554 137.063 264.701
104.36 167.495 162.524
77.6132 45.2713 258.353
88.64 114.618 310.037
97.7737 177.786 257.408
120.716 181.542 83.2265
91.9286 106.501 256.857
86.7185 147.663 178.008
79.5456 24.9435 194.398
58.4831 120.097 300.442
60.1636 94.5018 65.4752
96.8655 151.76 262.513
64.7781 261.743 135.797
92.5945 342.507 235.362
108.469 98.8493 49.5461
117.388 315.275 236.303
70.9733 91.3517 358.075
60.5809 324.389 250.707
52.218 245.733 70.3071
119.656 374.792 118.966
70.9849 113.642 120.702
120.461 132.945 240.596
74.8165 227.232 216.756
98.682 49.3638 240.92
105.475 142.933 121.975
48.8912 191.101 199.992
122.106 365.857 99.9215
129.719 201.082 54.2378
113.73 170.152 119.016
108.119 52.351 239.455
76.973 74.2571 73.0538
54.8629 285.975 99.9193
89.3803 78.6427 67.4139
87.1496 69.9206 193.518
82.6828 169.422 86.0323
53.6449 86.7222 244.027
100.207 184.322 56.5492
108.053 332.206 197.489
71.1229 318.532 140.924
52.2124 326.249 211.126
118.291 229.931 34.8941
105.415 236.266 276.307
118.844 147.338 200.516
76.688 112.883 301.365
81.235 52.7892 84.8499
99.3035 241.8 30.8452
67.0621 376.257 130.095
93.6334 377.804 175.99
119.352 377.273 126.759
125.034 242.564 48.1985
68.5432 196.51 142.633
83.9826 97.32 306.331
80.9574 259.895 277.91
55.1437 251.512 293.456
69.5047 263.296 302.755
103.473 322.897 247.008
102.78 311.517 255.085
67.1751 202.614 134.212
103.193 285.842 67.1873
91.4557 268.757 242.718
108.256 259.088 28.6378
97.5844 235.23 247.193
117.346 360.195 125.176
88.2665 99.8517 368.414
89.2411 227.109 75.0005
105.539 300.779 263.455
101.51 59.3523 228.64
90.169 96.9722 116.718
55.1147 311.9 164.38
94.3175 227.123 243.896
95.3912 347.325 156.899
110.038 352.775 155.043
94.9692 337.669 182.115
91.7368 172.548 250.458
99.1472 248.77 276.746
81.9556 71.3254 170.18
120.563 327.501 225.995
75.879 365.538 211.208
53.0081 348.386 163.853
110.747 350.882 219.519
107.384 238.334 32.3829
61.7536 236.503 220.121
87.6458 257.716 239.121
77.3074 65.0664 210.914
94.3647 58.0342 221.643
78.0955 147.951 147.585
69.1536 313.565 154.807
96.3173 145.388 163.221
104.138 45.0552 56.0615
104.825 303.744 235.461
74.5714 197.3 264.016
79.5211 70.205 133.019
97.7551 101.152 138.556
118.933 171.376 105.959
87.3147 90.9268 85.7043
89.9678 313.968 216.107
100.855 193.624 48.1918
111.097 152.918 87.721
109.23 163.738 74.1545
103.761 338.424 182.165
120.151 163.352 187.633
108.679 222.245 249.571
111.434 251.556 271.372
77.3397 131.939 126.765
95.423 45.2302 65.7455
70.2415 64.2816 158.633
86.4675 320.529 250.329
96.0405 257.807 276.096
105.513 162.855 243.322
52.1939 209.42 164.816
99.6683 341.944 171.413
113.872 75.2705 275.976
92.6197 137.483 143.939
73.3877 349.166 230.619
107.199 303.212 73.8176
64.7052 263.849 128.185
98.371 322.303 48.6773
125.777 203.753 61.3147
68.2705 107.776 295.995
85.0143 68.2581 228.288
120.13 327.589 235.635
72.4568 96.4754 351.719
77.1204 147.97 138.089
99.3057 140.082 206.086
110.208 172.404 202.094
62.8745 70.0646 57.5269
90.6684 328.299 53.4088
94.2358 318.272 248.518
106.617 171.592 166.814
100.669 177.946 61.233
93.5092 207.945 274.443
92.1743 243.734 68.6111
93.623 364.675 209.793
68.6825 129.715 329.607
105.138 105.649 328.194
60.0987 86.0801 77.6973
94.1382 97.8351 148.562
90.0196 148.066 156.604
121.101 358.745 106.124
121.457 167.254 99.7136
84.7232 68.6576 52.3818
100.352 79.5678 282.229
110.89 151.06 221.009
54.4389 82.2144 217.568
60.7921 246.865 130.879
106.69 183.08 100.83
101.96 241.95 63.1834
108.384 209.952 42.5574
113.84 138.21 227.785
76.9173 109.62 91.6693
96.4272 73.9101 109.602
119.388 176.497 87.7505
111.579 236.078 270.989
64.7548 121.642 363.357
96.5916 279.475 244.145
62.1747 101.371 67.3605
62.2812 282.102 212.905
116.021 165.907 179.936
128.273 213.095 54.5104
102.848 204.021 239.556
64.4147 105.673 311.791
108.028 368.852 191.955
105.241 196.161 83.1746
111.732 148.455 202.615
93.8382 109.004 354.925
84.9862 354.199 227.179
116.381 287.748 277.368
106.458 229.732 249.314
83.0346 40.1093 182.416
125.184 286.063 55.0743
127.228 156.267 89.7235
80.833 224.78 230.613
105.824 141.974 208.167
54.6301 285.179 62.9333
74.657 64.589 145.149
80.3403 49.3464 241.076
79.2295 157.343 269.372
63.8708 72.8198 226.092
119.031 368.367 161.587
74.9214 256.999 209.577
109.702 245.425 60.6947
113.807 298.992 243.565
74.616 69.5688 199.369
112.855 168.351 185.943
67.5726 54.0823 51.5887
96.1729 104.618 367.83
122.177 175.777 96.3319
98.6707 252.925 29.5017
100.87 216.231 240.754
117.724 387.669 124.516
54.6126 259.527 136.304
93.0564 188.052 214.744
87.2953 163.22 291.126
111.285 330.72 87.1284
78.8077 65.6577 72.5821
49.9599 79.8421 181.683
94.782 174.411 148.333
51.1287 297.315 248.499
82.7678 43.5297 226.447
89.3991 341.311 161.394
90.417 73.7984 106.917
57.9881 204.958 203.4
86.1222 235.622 277.147
104.946 191.265 90.426
89.1351 275.816 274.327
69.5944 139.202 264.086
87.3819 26.3694 214.825
105.944 133.21 148.91
59.6821 224.199 235.614
121.416 260.12 36.6718
101.483 370.608 191.305
74.7485 242.414 214.244
100.39 186.539 100.828
111.982 346.726 132.748
90.9261 146.779 146.162
92.117 220.249 273.997
101.091 81.5557 236.1
90.8601 62.3768 54.1265
53.8086 187.494 207.368
61.3155 57.0405 187.807
93.3936 186.08 104.617
102.6 194.068 268.977
118.317 292.768 42.2306
99.0336 229.344 276.62
53.7724 309.427 208.72
96.3374 145.171 138.498
109.741 345.934 166
77.7336 151.624 301.32
115.736 239.19 31.1611
93.8531 126.377 194.706
81.5258 111.805 306.861
93.4751 296.393 37.8479
64.6012 287.73 177.56
105.547 211.885 70.3846
120.892 160.567 123.254
75.8788 114.638 274.587
81.9879 132.596 344.412
112.093 358.568 210.856
55.2418 307.317 196.556
119.522 176.647 56.8466
112.887 260.749 253.179
124.679 330.235 70.3503
53.7836 59.7671 56.4049
110.648 312.791 254.528
63.4168 67.7016 144.825
58.0039 94.9593 360.995
86.442 84.351 147.461
123.618 344.407 82.6532
51.3444 213.073 137.422
114.108 193.094 80.4917
80.2537 129.252 353.943
98.3682 71.8907 70.0327
77.776 118.797 50.7892
82.9289 141.071 178.731
97.5175 327.657 240.727
105.467 204.212 266.774
108.092 111.758 235.204
107.404 121.371 346.17
99.5386 117.034 267.897
92.1079 66.9086 208.843
92.8742 110.711 66.2057
118.643 210.647 37.6567
89.6251 347.986 148.127
113.186 377.434 106.575
66.5984 93.9695 320.683
104.025 91.0289 105.977
61.3351 41.1317 199.792
84.8671 145.893 138.886
116.282 290.734 64.1243
124.862 179.582 76.8551
109.027 313.739 78.7034
83.2826 40.3369 275.103
89.4973 102.095 267.978
110.43 269.696 29.9985
96.9527 140.122 200.414
96.451 272.797 246.341
121.211 140.577 117.718
60.9276 256.01 120.359
51.6335 344.876 170.601
104.86 295.531 240.107
105.88 150.234 252.815
105.417 80.8382 246.735
78.7365 90.4657 117.111
90.0272 123.513 266.968
71.5632 123.957 251.41
90.4119 203.921 89.4148
56.116 159.787 229.732
59.8749 245.337 124.649
93.0376 109.402 118.405
73.5468 149.565 253.45
104.453 69.7558 100.472
85.1552 372.739 194.359
111.645 280.801 64.3889
112.396 351.483 162.695
74.4304 108.733 307.314
84.4961 121.855 199.524
58.8671 246.092 111.8
77.8421 277.101 242.316
112.162 107.054 266.252
52.1483 307.137 167.95
55.6133 186.235 203.146
118.867 183.376 267.353
119.663 124.707 248.074
117.467 252.212 31.6015
55.4006 319.543 153.025
64.5735 243.957 228.842
78.6069 42.2397 74.1943
86.2313 128.617 358.644
112.13 237.357 59.3045
63.3248 88.5759 348.196
125.092 185.863 56.7745
68.0678 197.654 149.583
76.047 109.516 372.08
58.7736 121.897 358.214
77.8078 234.593 225.781
118.062 183.198 90.7689
62.0064 92.3436 321.915
51.1762 117.75 342.824
77.6453 171.939 84.4566
80.0072 110.456 324.794
83.9276 326.142 248.038
56.8105 364.737 122.378
115.324 363.524 131.356
123.844 158.978 196.848
111.46 87.8574 245.009
115.49 178.871 97.7309
92.2055 59.253 73.3076
108.341 69.2627 47.3431
51.175 311.523 160.878
87.7115 94.8452 224.987
109.487 340.348 232.689
87.1863 146.413 256.917
123.338 290.479 48.2446
74.1935 99.6265 345.851
106.375 249.308 276.589
72.0361 92.2148 94.9747
74.1311 79.1276 123.622
116.21 305.692 243.101
98.9779 159.906 229.878
55.1903 274.054 173.374
57.5463 124.229 259.359
113.507 277.435 290.289
106.289 358.61 212.315
85.4095 290.315 39.2171
115.01 59.5549 237.221
115.968 151.635 212.241
68.9172 62.7531 48.206
106.547 93.2486 65.8176
97.5224 88.542 76.2808
120.269 187.867 77.7187
123.342 336.22 79.7603
78.4792 172.098 245.938
69.041 230.774 42.7258
91.4263 110.695 377.06
116.35 373.211 162.798
99.5262 378.887 173.213
104.776 56.9887 71.2541
78.3753 225.189 223.541
105.195 288.52 268.089
125.422 154.196 143.835
94.7014 102.912 307.419
110.518 274.705 250.295
100.948 117.077 371.575
97.8223 100.06 281.857
52.3547 328.588 173.19
57.2702 272.011 109.586
115.761 48.0857 55.7605
87.5473 112.463 201.061
73.0181 99.9776 96.9397
102.035 116.308 347.562
100.798 80.821 67.7943
112.719 319.838 51.3395
59.6068 218.991 220.957
59.6053 352.878 331.887
124.117 148.667 187.091
115.426 282.838 261.992
118.621 352.466 201.114
56.8481 39.6031 197.702
117.317 354.136 71.598
57.3577 83.9545 70.4411
52.0062 319.042 182.991
52.2583 343.578 306.978
85.369 207.721 83.1875
112.515 346.933 105.249
102.041 377.14 187.019
113.26 360.671 202.958
111.256 67.7142 90.5141
121.462 290.217 60.9063
51.2101 331.965 141.448
126.608 153.555 188.506
99.4388 274.366 30.528
128.16 234.794 42.9743
62.4225 249.45 210.65
68.4178 199.014 264.855
69.9804 270.3 234.828
94.1472 179.374 62.8867
90.4747 155.846 251.752
52.2221 351.747 298.088
53.4844 325.834 206.437
86.2357 76.0168 81.7083
72.3609 79.4857 113.482
66.728 37.9713 195.103
78.2262 222.931 86.2774
115.509 115.216 244.71
72.4975 112.483 268.294
113.356 282.941 32.5528
57.8481 82.5667 224.402
84.9905 44.6245 265.012
72.4996 107.158 274.082
105.715 76.6772 106.725
82.3583 165.354 235.02
70.4555 113.958 369.501
54.2961 236.264 176.032
102.372 69.3416 48.1775
86.4154 68.6919 69.4951
65.0039 231.518 213.021
103.599 83.1641 74.2471
114.784 147.417 231.828
54.0985 328.153 179.14
104.547 164.817 251.509
107.397 320.889 49.7451
98.4649 336.188 58.693
79.4328 303.339 253.842
57.5467 90.7016 324.433
74.3281 268.539 234.382
116.346 149.489 207.248
49.9505 221.945 105.077
73.7172 55.5148 50.7347
48.7548 343.101 298.591
