ply
format ascii 1.0
comment Created by Open3D
element vertex 593
property double x
property double y
property double z
end_header
17.2905 74.1821 169.439
36.4328 241.539 176.737
18.414 35.8014 138.312
15.7924 189.3 213.156
30.0263 51.0787 157.415
26.2444 82.2944 191.292
22.4648 36.4705 190.26
39.3901 124.79 249.451
18.2822 146.074 293.735
37.2318 230.026 205.005
21.8909 66.9634 134.156
29.7282 57.4224 164.161
21.0809 180.512 201.754
19.5843 39.9022 182.914
15.5701 40.7937 161.763
25.2574 72.096 74.6589
20.3771 57.4372 135.581
21.6035 48.2524 195.24
29.2641 99.3004 178.04
45.139 170.365 208.473
22.0051 173.777 230.41
24.9741 41.8484 131.292
34.4862 72.3725 151.962
55.5165 90.8152 132.612
39.754 33.0452 94.8282
25.5746 52.8585 128.94
36.5304 159.295 226.029
27.4477 218.225 185.838
24.6355 220.635 52.6807
37.3439 40.67 181.164
22.8002 224.231 194.355
33.2016 31.9806 187.682
24.2815 211.203 205.179
35.5039 261.563 196.035
17.624 58.7467 104.12
17.9132 49.7837 143.995
37.4356 107.544 281.772
16.0103 230.097 44.9629
45.8415 184.661 204.575
16.6458 239.495 168.279
18.8073 65.4784 182.339
23.6763 58.6135 202.784
43.9421 172.956 228.543
51.916 72.3376 107.447
40.1538 78.6409 148.528
18.7646 258.288 177.552
40.0679 205.336 228.831
39.4638 206.177 199.165
42.2371 180.447 194.969
28.7917 160.85 218.143
35.5548 25.9521 168.28
33.5518 50.3115 85.7477
16.1135 252.033 181.869
18.8194 236.337 190.972
43.7515 176.554 201.208
16.0472 218.379 37.0077
41.7566 121.889 259.27
44.5454 201.274 211.051
24.6425 73.9172 109.357
38.8456 133.658 249.864
15.9264 222.84 55.5557
46.707 82.4904 142.267
28.6256 64.5574 126.337
16.6336 119.472 273.248
20.773 43.1344 94.1072
26.7257 206.124 74.2738
17.0804 248.41 194.24
20.5662 82.2299 169.45
16.4474 204.025 31.1847
49.6843 110.364 173.444
29.5202 23.8333 176.903
26.5933 82.163 142.23
30.3808 228.798 31.8685
28.6317 20.1698 153.145
41.8 135.979 260.24
31.754 71.6388 208.45
47.4514 78.9851 96.7067
22.4414 127.971 265.128
22.3611 246.044 163.294
14.7384 63.7025 167.898
16.0232 67.1703 160.53
19.4126 230.457 32.7045
23.9007 267.832 191.293
26.3516 93.1858 162.802
38.7622 75.8189 121.32
44.9863 193.055 206.591
30.4326 91.0513 193.155
48.6304 63.4694 112.998
17.0946 196.02 207.082
38.7935 103.802 179.658
40.3484 143.9 265.994
21.6101 70.9465 190.342
33.6115 80.8029 171.361
30.8611 104.047 276.321
21.4193 24.1214 152.871
21.9975 73.1622 100.203
36.0577 71.1484 180.885
18.8491 70.3219 150.939
35.6459 214.544 209.545
42.264 129.668 277.708
38.8589 258.933 33.4212
39.3203 49.8804 189.038
29.4677 57.6166 173.435
31.3965 41.1415 175.099
23.9975 234.66 206.225
17.6738 205.77 52.2126
41.0637 73.1773 68.0065
45.9756 75.0316 201.271
31.4517 81.8908 201.379
35.1257 243.009 190.071
30.7263 167.979 234.344
14.2424 52.4502 160.592
29.5499 217.001 57.7027
35.9773 50.2137 60.716
32.5849 205.885 82.5672
44.9263 193.668 216.752
25.4923 39.6264 199.661
16.9637 180.445 229.911
32.2903 234.173 79.0188
24.6875 27.2563 189.702
16.4746 52.4987 178.483
19.0113 27.8197 169.994
17.4914 244.985 174.211
34.5248 63.8747 86.9504
43.5672 197.045 232.87
35.2611 47.5337 70.6748
17.2633 256.265 196.885
30.534 89.5124 140.256
41.844 30.3942 139.85
20.3756 228.271 181.471
21.5507 76.2613 181.025
19.3174 241.926 70.7895
24.8046 134.762 256.777
18.3767 203.192 223.728
27.4818 143.935 271.771
15.9513 25.2772 163.332
20.8204 193.009 236.199
15.6412 237.451 66.3655
14.586 45.3359 150.439
18.6409 211.665 60.2928
24.0346 199.812 65.2136
15.5614 177.674 211.278
38.6243 243.357 201.763
25.5967 140.795 263.044
32.1327 165.81 204.721
28.7611 27.3619 138.651
17.2279 65.7364 94.5205
36.0385 103.358 169.272
44.7691 261.053 49.2828
25.5767 20.2633 166.437
15.2453 34.1358 153.333
30.274 50.9683 118.086
31.8542 20.2358 160.377
51.0881 70.318 136.087
43.1318 28.1191 77.9044
23.6862 83.8413 160.149
35.5802 96.4282 146.114
25.6884 77.0475 131.703
22.7908 50.793 113.369
44.311 198.865 41.0415
37.2554 40.3249 190.665
43.696 119.771 273.813
16.4638 237.256 34.423
42.9065 35.5091 132.764
36.616 91.823 134.666
38.9038 45.4575 104.606
29.6035 206.94 194.036
42.0403 121.668 267.454
32.8752 97.742 185.562
46.8638 207.191 71.4646
41.4343 90.7621 203.224
21.5999 220.445 180.564
26.0626 225.039 203.608
16.7728 207.036 39.5877
33.5533 46.0687 127.663
36.4109 79.7661 178.242
32.72 66.24 175.861
35.1786 85.1359 129.029
32.8466 96.5016 154.943
37.6436 41.1474 90.8703
15.943 118.188 255.604
25.2921 51.562 67.2322
16.2859 214.002 70.3012
34.989 28.3528 179.524
24.5343 131.462 272.753
50.0256 96.7114 191.652
20.354 238.487 161.66
50.6883 106.73 142.228
27.3913 60.9939 154.511
41.3685 70.7043 80.3337
20.8097 163.361 222.418
21.2504 193.819 196.189
42.1839 207.831 46.6948
33.6596 73.7624 159.513
21.3826 59.0074 191.059
39.1646 115.37 262.802
39.5738 85.2579 153.337
17.3624 191.133 226.66
31.8548 195.238 31.4346
46.732 181.935 217.79
33.1222 81.7337 162.637
16.4342 55.03 186.871
38.6369 236.044 198.011
29.6746 192.648 53.2925
30.9964 27.254 106.416
33.5229 58.5697 75.5978
23.6847 79.7639 149.474
37.4026 52.4767 183.373
18.2014 270.705 174.146
25.0578 89.6861 180.691
43.1994 55.4841 202.235
39.2252 248.795 171.861
28.7229 65.1184 204.186
22.1805 239.113 200.088
31.6389 66.0563 160.091
21.8732 198.69 50.4601
33.5466 160.447 213.441
23.6232 169.39 224.601
53.4168 104.71 181.62
40.0243 60.0082 63.8519
40.7201 74.7617 141.211
40.4429 216.831 189.065
54.3249 99.0011 161.675
36.1825 31.9761 162.841
22.1006 101.063 264.722
23.3306 23.3292 175.598
18.0306 69.2072 176.548
17.6729 224.772 37.4376
37.1511 42.4862 62.1599
21.6933 71.377 142.681
40.5915 267.33 182.44
15.4289 62.541 147.233
55.9606 103.738 170.177
21.2543 231.005 21.9742
43.4189 107.991 183.158
32.3557 239.321 26.9034
33.6674 232.773 190.179
16.8841 205.078 206.55
26.4373 187.335 191.362
19.6036 199.345 37.3467
26.0379 169.806 201.884
14.8821 216.919 60.1828
32.8846 214.989 227.601
37.8712 250.578 161.402
29.5942 33.1111 195.026
20.4815 204.961 70.0355
47.4715 88.2413 183.818
33.432 45.0263 149.463
40.4844 230.225 165.837
44.1693 90.3553 152.803
37.1342 169.053 199.362
21.3696 28.107 141.729
44.174 55.0092 138.619
33.3825 273.283 184.25
32.4052 145.911 265.718
41.3512 123.476 283.863
42.0361 198.568 74.17
35.6452 104.631 265.962
33.3555 268.75 190.851
43.4831 44.9035 113.175
39.2528 234.05 183.641
36.9491 229.129 176.685
32.659 214.628 190.006
16.0332 49.7982 94.1654
19.6328 44.6009 132.498
20.4925 258.653 168.86
42.5322 115.914 281.397
19.4235 231.815 172.581
30.6465 210.939 50.9999
32.3377 38.8602 168.739
22.1928 59.2533 109.964
22.9484 214.4 215.559
17.1523 45.6897 188.616
16.382 107.318 272.053
23.8975 222.531 172.309
34.9566 32.8454 132.506
32.8063 248.946 183.87
22.1808 76.5057 156.337
15.042 236.246 55.5403
37.7685 50.9494 145.128
28.5961 177.586 194.717
41.0184 205.429 218.675
31.1746 108.827 256.046
25.0374 82.1794 176.266
34.6686 231.299 20.6187
16.014 281.062 169.083
36.7586 58.2587 147.292
17.0409 63.2494 82.0068
30.5355 59.0217 147.958
36.7274 63.4121 69.4506
47.3177 94.407 158.771
46.5454 41.7138 134.144
29.9458 179.794 241.676
34.4563 207.847 235.336
15.3191 56.3514 89.5825
40.3113 137.042 276.588
30.635 80.128 84.1099
37.1671 105.974 273.246
30.1579 213.425 20.1148
20.8485 273.226 156.256
24.6625 283.159 157.489
45.0343 72.7842 123.637
17.9097 65.4631 88.0174
17.7759 210.705 25.6172
24.02 28.557 93.3602
40.6388 267.056 171.546
22.531 205.661 23.1534
22.7503 104.348 255.448
30.4525 132.136 289.92
30.0067 218.3 219.57
20.6432 50.5547 74.3304
20.6057 184.328 238.048
31.404 110.501 282.189
39.7775 90.4591 163.854
16.1854 268.434 165.717
28.0924 75.9075 204.16
28.6696 99.9109 267.583
20.7774 121.47 283.35
50.5832 94.4755 181.033
24.9377 126.589 246.527
17.5103 109.831 253.238
26.0176 263.315 202.625
45.1451 76.1645 192.977
50.8428 92.2371 148.145
33.5334 143.808 279.096
36.5085 61.6619 207.259
36.0252 215.709 24.5752
41.2227 73.015 187.191
42.3905 81.0542 184.557
41.5083 186.163 233.501
25.996 66.1392 114.72
19.8475 121.78 264.447
38.1704 115.688 255.548
38.507 220.067 176.277
19.1722 172.896 207.135
52.8138 81.5987 137.019
33.2472 24.4114 95.8187
34.9216 198.931 238.724
14.0675 37.361 174.551
34.4706 221.619 205.539
28.0313 206.647 235.874
26.1964 136.219 279.672
50.7755 111.837 162.02
26.0999 69.1536 197.862
15.5852 214.918 29.9356
22.5849 169.263 214.29
16.9743 111.86 278.199
21.9034 29.7322 181.352
17.2486 31.0469 180.979
19.6069 262.919 195.672
39.7867 43.9842 127.787
27.2035 50.9923 203.415
46.246 187.337 225.387
26.2197 88.7274 170.894
32.4013 216.372 173.946
24.0174 76.3568 91.3435
31.892 81.4301 103.262
43.3153 57.5302 126.887
33.7459 193.579 59.6086
48.3803 188.71 219.937
31.3916 98.9152 165.033
30.4854 72.4069 168.067
46.5262 65.3243 137.463
35.9106 47.1451 77.4367
32.0715 224.126 18.8942
40.6828 63.2514 142.195
22.6704 201.659 234.771
19.0082 227.6 76.0339
40.7382 208.029 58.7223
45.0882 177.178 213.061
39.1729 88.0486 173.993
22.3276 63.568 195.762
34.0095 204.219 24.0986
15.1998 29.55 173.557
36.4323 47.5172 97.1939
18.2525 33.2594 146.732
34.224 278.169 159.438
43.658 215.007 71.6778
46.9193 88.3321 200.684
55.1605 107.986 150.771
30.59 116.095 248.502
40.459 112.125 273.73
17.9083 180.636 219.698
34.698 124.085 287.066
24.3017 103.944 275.966
35.3782 224.813 26.731
43.9254 197.074 225.12
31.8198 41.1471 159.878
40.5987 242.582 165.445
40.8516 228.526 187.054
38.0796 84.2235 93.2728
19.918 203.476 61.0714
14.9057 39.0365 181.93
36.0811 216.007 198.26
33.8216 243.4 210.604
49.0532 95.4218 171.089
39.2536 98.968 193.561
15.8178 52.6637 79.8142
43.9478 190.932 195.253
16.8213 235.107 178.8
23.0832 252.757 164.427
49.1905 49.8933 127.046
42.9591 97.8631 137.756
49.6253 84.6385 193.374
27.3492 64.6751 171.15
37.0727 255.985 167.601
29.1888 160.694 224.979
37.7309 38.7518 150.942
25.7179 192.861 43.9879
28.0246 166.322 228.046
30.4964 131.417 245.723
40.7893 81.8347 205.944
34.5662 141.636 254.762
56.6955 101.92 143
31.901 282.039 185.37
51.3937 65.5525 125.475
22.1024 117.205 246.348
40.2576 38.4057 82.0673
21.0803 287.351 174.575
19.1928 57.0226 149.779
37.8401 165.718 222.232
31.1119 242.675 159.757
16.1426 44.2355 138.788
29.1308 264.663 156.699
37.4866 186.001 190.062
40.1653 203.139 29.7577
28.0518 241.2 35.3937
39.1851 66.1669 189.227
51.4299 21.2096 100.781
45.0542 173.364 220.284
27.8103 67.0088 66.8686
17.5334 225.839 26.9637
26.968 257.763 163.377
35.5335 292.584 169.213
28.1074 266.266 173.521
16.4377 108.501 263.67
32.445 21.9455 144.692
25.2326 292.75 167.439
33.0219 74.8194 125.155
28.6365 37.4376 133.454
28.2633 59.7391 117.189
34.7208 31.7135 173.353
22.9747 247.051 48.1517
15.9565 31.886 162
23.9626 196.15 34.2033
42.584 227.534 175.138
32.3444 289.21 181.844
49.8785 98.2821 133.608
39.945 105.455 160.846
32.872 220.573 33.273
51.9053 57.6753 133.164
24.5013 198.55 27.17
37.6564 191.045 55.3785
40.2538 180.081 234.66
33.2843 38.1994 117.587
27.9827 206.506 20.6855
36.4895 67.9261 144.791
23.1388 230.612 166.163
41.5074 128.863 266.944
28.086 174.535 236.415
41.7853 59.9205 190.893
36.3134 59.1375 125.907
39.2529 223.216 192.217
39.3411 223.718 198.912
36.6222 168.585 230.693
56.2706 102.332 153.298
29.7099 54.9106 59.8944
28.1781 277.257 158.729
43.8811 232.388 78.5585
27.2871 249.418 73.8257
34.5798 252.094 210.589
26.1152 199.546 58.9848
18.9667 245.059 34.5648
39.9786 37.5298 145.154
34.9814 59.5971 93.6596
34.6222 22.5562 81.2519
46.1567 203.388 54.632
32.2629 189.63 45.3707
22.335 129.135 253.508
47.084 74.8321 90.3396
42.3417 193.413 46.0585
34.4368 286.622 163.129
22.5881 263.563 158.188
34.8862 266.558 162.437
27.1968 253.505 60.3003
38.0216 290.67 177.525
31.8651 222.835 165.878
45.4426 86.3748 128.068
32.6665 197.264 77.5783
41.7647 45.0793 142.039
18.4408 237.739 76.7211
30.8523 229.501 84.8295
34.8313 256.669 190.383
38.7831 215.144 82.3516
23.6607 272.889 184.072
35.1175 89.2944 200.355
31.0602 257.392 207.585
18.7207 210.673 45.4945
38.5741 69.2233 207.986
35.5377 176.155 236.096
42.2513 192.898 59.8273
28.4865 116.541 287.026
30.6473 45.4319 204.111
29.4458 39.3246 62.2416
25.2226 225.15 42.8779
46.6439 18.4706 97.2371
33.6231 194.436 188.47
38.3927 192.34 236.938
43.2973 61.2641 196.92
22.7379 215.232 18.8991
39.0626 26.6532 65.2107
15.0606 31.2347 90.7147
28.7177 221.156 16.0236
22.0278 28.867 78.1764
30.9643 57.7985 181.158
42.1845 104.38 150.434
36.8799 237.261 158.925
29.232 194.65 64.7158
27.792 243.668 19.9151
46.2302 81.3075 105.223
35.1991 44.8491 197.997
25.734 127.399 285.061
37.9282 51.8485 202.009
28.7554 26.4749 92.5636
26.0651 251.384 31.7136
31.1911 257.928 46.1591
44.4812 59.368 101.463
15.5051 213.573 50.6275
23.5939 235.629 21.756
27.5701 234.43 162.123
47.2059 253.737 60.7354
47.1201 200.427 65.1226
33.9755 257.014 67.0954
38.5158 173.123 231.077
35.1887 163.858 209.836
18.8252 220.827 23.1915
25.3189 223.689 84.5109
41.0308 20.0863 97.5182
25.3942 241.409 77.6346
36.9216 77.7841 208.766
26.4195 225.087 67.8977
53.6 90.2452 142.051
34.7734 249.715 37.6892
29.0349 199.727 64.6344
37.3893 43.5873 121.555
45.0069 197.326 60.296
33.7832 256.498 181.289
39.5906 279.546 185.756
46.0923 39.7537 117.067
30.0515 185.952 238.42
28.5184 232.965 18.512
27.1425 214.399 80.1306
18.5412 174.723 216.413
40.9273 70.7293 117.587
37.8759 216.327 17.9145
38.1564 81.1362 110.138
30.2301 33.7769 100.392
23.1628 247.591 206.041
44.7076 215.607 82.4636
31.5464 248.937 194.338
38.222 212.668 33.9154
34.6443 261.404 49.5922
36.237 246.257 68.8774
53.798 78.5744 125.689
37.3944 230.017 77.1309
39.1252 279.732 170.441
33.4818 62.0218 180.712
53.4901 61.3312 120.213
40.1733 57.3315 121.464
20.1454 212.065 53.9133
42.9394 19.2024 79.317
36.5154 220.99 73.9977
30.2613 229.681 161.75
39.1361 81.52 79.5009
44.8667 276.913 176.889
31.4298 248.316 53.4121
36.3279 238.269 64.5582
33.9786 252.739 202.176
37.7582 53.8399 99.604
25.8429 46.4222 169.733
36.7499 260.776 167.287
40.974 184.27 239.335
19.926 247.642 60.0687
30.4426 247.155 41.1823
21.2424 42.2994 85.4556
33.8919 196.157 67.1574
21.2084 253.848 206.354
27.6376 37.7914 53.2058
15.283 37.9804 95.373
35.2957 248.1 58.2195
39.5131 279.142 163.708
48.1574 18.5012 81.3988
18.7883 249.948 210.575
