ply
format ascii 1.0
comment Created by Open3D
element vertex 1288
property double x
property double y
property double z
end_header
49.261 219.136 84.9546
48.5302 163.455 189.849
54.4234 260.901 75.1373
39.4199 163.661 204.995
62.7452 220.584 82.5519
59.0969 285.087 43.3235
61.8764 307.231 99.2977
63.5608 259.711 82.7153
72.8164 299.571 56.6259
40.2145 232.87 51.2218
77.5362 222.8 53.382
34.4129 243.227 86.5706
36.5531 244.013 55.1424
36.6423 179.582 292.64
69.4627 65.3253 191.55
40.373 81.3184 226.269
66.681 290.716 89.4199
34.3436 252.33 81.0211
43.5788 256.541 204.381
34.9339 269.651 109.192
45.2175 164.146 230.551
70.1653 79.4284 260.1
40.0293 126.195 180.274
35.6992 162.975 223.136
75.2231 306.557 104.479
52.0212 240.995 113.923
46.9346 260.483 101.689
42.7681 247.718 212.849
34.9974 175.918 217.008
34.7878 260.587 104.208
43.8023 238.27 66.0683
75.337 215.075 110.396
37.7065 248.344 73.3672
55.5368 184.859 213.765
49.9724 270.401 69.9391
51.743 267.033 103.13
52.0661 292.035 102.4
68.276 236.304 59.528
38.5466 65.7313 219.379
48.1192 229.474 48.4735
82.4688 205.593 98.1628
48.5943 260.969 119.229
62.9385 211.532 54.385
65.9927 303.279 87.4716
43.341 96.5431 229.857
34.0365 265.926 89.8756
73.9947 261.767 102.336
59.7456 234.589 24.2257
56.5162 241.76 49.9677
50.8066 229.743 73.0425
72.781 302.586 75.0211
34.2338 261.95 70.609
59.4239 288.468 103.324
53.2666 145.286 181.959
45.5181 137.951 184.723
53.297 210.576 79.2049
56.7386 236.027 93.0286
59.856 145.238 163.415
54.647 180.56 186.99
48.9809 127.598 182.146
80.0181 212.635 96.7022
61.0152 191.127 227.212
42.7377 261.773 73.186
40.6681 293.183 74.993
59.577 241.536 33.1815
54.62 108.808 177.032
49.996 283.353 94.2926
37.6813 224.009 91.7959
55.5147 222.263 105.938
75.8192 205.733 99.2355
65.5236 256.459 62.713
91.403 256.199 56.4236
50.4329 99.8576 239.871
79.3243 208.648 53.9591
35.0652 284.892 96.1659
43.0091 255.885 81.0455
54.8873 294.28 94.8406
52.8018 237.029 37.1076
82.0218 231.741 108.099
46.0138 270.809 123.334
61.6575 42.8909 205.818
45.9979 256.614 95.0922
53.0349 293.762 60.1357
67.3271 66.6334 252.539
56.599 85.2409 197.503
60.741 266.659 39.2822
37.771 177.975 202.267
54.2688 60.7353 197.05
34.1786 231.804 83.0104
58.1621 212.096 67.5505
57.3121 213.443 56.2601
75.0047 88.5605 198.046
74.4598 296.312 91.6739
60.7853 110.914 186.536
48.3784 77.0145 288.995
58.7274 255.981 128.491
47.0202 296.561 87.6732
39.8132 73.1188 229.143
40.8247 296.014 87.8407
44.0013 167.456 223.825
63.1929 225.606 76.8083
51.3264 170.67 209.912
51.0394 263.884 110.058
35.584 63.2563 244.337
44.1624 263.285 86.6506
53.0265 275.071 87.0444
43.8263 145.282 183.843
34.3553 268.453 72.7734
40.0584 278.87 61.2827
34.098 228.981 69.781
79.4152 228.824 36.0533
37.448 262.565 63.5904
67.9571 298.269 108.676
89.7186 225.955 39.0891
80.0614 217.516 83.4565
46.6803 255.778 43.608
33.7959 263.93 80.2965
68.1708 114.078 186.527
68.9708 154.206 208.126
40.2036 173.405 218.794
41.2681 153.08 213.314
74.0815 172.544 219.098
64.9164 272.783 118.423
61.0562 264.155 109.189
59.5738 257.961 43.9881
90.3089 309.79 67.0434
53.3782 69.1594 221.295
52.4464 270.088 77.0051
74.7636 286.156 46.0196
45.4702 267.062 92.5937
36.3193 256.672 57.6536
55.4927 236.013 68.4135
50.4346 270.734 91.0141
62.0908 271.745 88.7294
42.638 284.992 111.566
64.6817 61.1563 192.022
70.6745 311.227 90.0053
35.1244 254.243 91.3074
79.4972 301.697 76.7095
45.677 240.327 4.80349
47.3752 164.631 199.73
36.5134 56.2922 236.449
77.4476 167.783 196.167
82.7586 73.5708 237.303
51.4343 261.437 127.541
36.4219 254.317 108.085
76.7015 305.961 83.7056
53.2748 69.698 250.277
54.8632 154.005 228.481
57.9712 191.915 220.212
60.1784 278.35 61.048
60.376 192.677 195.128
43.1734 171.641 200.351
57.8131 255.763 90.5904
57.4284 276.81 39.6678
72.3446 304.146 63.1861
62.7054 130.245 172.629
71.3934 278.593 46.5407
52.8568 283.938 44.6153
69.8056 265.191 59.5273
38.316 221.949 83.2475
42.8827 57.269 239.163
75.1115 278.085 53.0855
46.8085 213.909 69.9928
49.6852 36.3945 257.252
57.3385 212.328 85.7726
51.7537 286.557 50.3382
58.0038 238.585 101.212
74.1531 64.8919 232.806
57.7803 271.488 113.252
66.5264 240.678 73.312
34.7291 233.327 93.219
55.1781 298.97 63.7624
70.3517 252.766 108.654
48.3447 115.779 178.45
63.5003 164.465 218.178
47.3141 156.938 224.943
74.628 228.427 49.6925
42.9855 295.74 96.1774
65.7301 187.454 201.489
43.3929 286.276 90.2976
88.0174 316.079 74.6515
38.7689 246.404 108.642
66.447 231.143 102.523
45.8788 224.186 102.44
69.6698 226.941 73.065
45.2393 269.021 105.552
62.5627 46.7702 247.708
34.8933 244.401 65.278
78.0393 222.964 91.2138
41.9732 290.353 101.399
66.713 59.4245 230.091
63.4401 264.704 77.1499
75.3096 203.482 72.8601
65.4613 238.602 124.592
46.4267 70.9435 224.063
62.7867 44.5993 216.25
93.2677 293.001 108.584
50.4065 241.409 103.254
35.9962 69.1769 290.122
56.5331 128.196 184.13
58.154 37.1941 254.948
61.6146 28.6983 247.893
64.6786 172.466 234.518
84.6374 74.8339 245.558
57.3086 263.63 116.858
64.0441 182.731 194.331
43.6754 282.374 96.1006
81.3801 54.3405 266.248
54.5966 197.327 197.342
41.0117 230.67 85.4327
55.4985 218.605 53.4061
70.8228 208.447 68.599
35.7494 265.23 99.7455
59.6462 255.107 52.229
40.8981 256.791 49.8953
51.8633 85.1644 232.007
52.185 128.026 169.242
73.2579 261.421 80.7338
56.6485 70.3626 242.399
38.2031 221.308 70.9988
67.4186 34.3427 251.477
77.3196 94.7123 211.142
54.7801 303.717 75.8176
67.2108 174.978 182.648
66.8644 203.942 74.6648
34.3787 280.496 101.155
46.0345 250.356 106.178
65.0872 200.631 82.5486
60.7335 185.649 231.064
36.8304 270.462 95.8808
75.9614 223.731 74.0116
55.5111 91.4144 219.17
58.2569 219.12 66.6968
46.607 154.063 204.438
52.0397 217.693 62.1511
44.0298 230.817 67.6526
64.9784 301.27 74.574
66.1392 310.634 67.976
81.6182 67.547 196.024
61.3359 121.202 166.981
53.1482 77.9284 260.467
73.0722 248.389 99.4332
69.4219 43.0743 242.049
58.4995 261.204 99.5468
74.5616 44.7673 213.796
76.2981 170.256 189.942
59.1983 269.41 102.424
66.478 277.169 38.8326
51.5274 160.195 199.696
84.9876 288.14 50.8274
42.675 270.108 97.4096
44.8027 287.842 61.5646
66.3045 262.553 50.4723
50.181 222.045 53.6378
43.8678 63.4125 243.031
55.3762 213.38 96.2837
56.0201 232.629 63.617
43.1879 265.755 55.8768
47.9092 177.701 196.916
56.6294 164.867 222.496
37.0559 256.612 124.503
46.3513 184.498 218.572
52.6771 186.262 191.995
54.8586 293.641 77.9912
36.1724 171.8 224.546
44.1933 277.265 102.739
61.6 236.088 58.8245
70.9879 318.866 80.7396
68.8453 174.328 191.693
60.78 86.7013 259.293
71.9458 89.3298 209.809
66.4486 183.102 221.167
84.2878 82.3507 203.508
75.5612 217.628 78.3754
70.4213 116.972 167.416
58.5305 164.832 232.19
41.7778 195.035 210.145
77.2901 263.492 114.964
39.1791 169.522 210.385
49.0769 278.498 46.8615
54.4627 57.2112 256.22
69.7406 293.214 68.8555
42.1766 189.166 199.854
60.392 229.143 117.005
34.9303 242.962 94.8389
53.0921 131.746 191.409
68.1119 248.411 49.7217
65.908 83.8223 246.858
51.7473 122.693 163.78
51.2184 271.472 127.133
67.0258 213.946 47.2691
49.2043 288.378 57.9245
83.3341 203.022 80.3546
36.4294 276.349 66.8251
91.7876 277.786 53.3887
54.6356 268.84 42.6874
70.231 217.391 113.55
35.2681 237.107 77.0903
95.2669 301.96 104.36
78.4221 74.0697 251.651
50.9742 116.953 188.841
54.961 300.248 70.2719
64.9252 296.803 71.2481
74.1369 269.327 99.7986
44.6631 238.053 44.0301
64.2173 218.921 92.7035
70.6628 252.809 78.0915
39.0062 184.939 218.91
72.0193 224.04 116.577
55.4734 255.166 99.8493
49.9837 265.994 50.2043
85.4833 278.528 44.8235
60.4642 309.703 88.6506
64.7788 156.974 190.905
60.5352 296.563 109.194
44.7046 278.794 116.211
56.7778 284.621 49.5253
65.6373 83.6129 232.083
73.6615 63.3108 222.033
70.9455 109.099 181.696
53.1809 72.662 256.657
77.9788 230.549 28.5245
63.8985 245.185 78.8326
89.0148 79.207 217.261
72.7237 226.243 100.664
52.6439 59.1306 269.875
69.3267 314.417 75.0581
49.7113 189.096 224.504
66.1139 300.324 81.7118
84.2781 309.607 105.809
46.179 85.7215 211.027
82.5099 306.204 84.4619
70.4145 171.124 230.37
79.4635 287.081 49.1724
59.7204 57.4056 245.157
41.0687 286.753 66.1829
43.3203 170.842 190.936
43.4694 219.189 75.6148
61.1887 249.986 33.4643
63.2907 307.148 62.4544
47.9981 148.932 211.313
64.2869 177.538 204.748
67.6017 277.347 92.2837
59.9896 243.163 58.8704
60.6805 175.47 184.128
42.9898 250.41 45.3814
73.3587 294.155 83.2816
47.0775 240.632 117.887
83.4124 312.979 101.562
69.2734 109.502 170.885
58.2043 284.097 113.41
68.2636 54.6806 199.256
45.9266 169.73 209.712
62.2247 250.948 39.1661
68.6434 197.967 139.398
62.2395 150.681 198.077
83.4284 317.62 95.2518
73.7671 59.6672 193.92
42.5216 62.8237 211.822
73.8353 279.803 117.724
81.8041 35.9495 253.657
70.8463 230.87 37.6096
71.4956 186.233 219.547
72.1033 177.817 226.678
57.3139 169.946 236.151
35.3443 291.13 99.9347
79.4912 57.6539 236.057
50.8735 261.963 41.344
37.053 252.98 205.068
88.9348 219.271 34.4606
40.1 155.73 220.204
43.2668 255.654 89.7163
51.2573 42.0399 246.534
73.029 234.301 29.1989
76.6971 77.9035 197.497
41.1332 262.974 127.078
39.136 268.28 112.143
63.177 152.218 206.763
84.8629 146.613 236.88
86.5884 297.893 113.312
77.6749 231.647 91.8765
53.2386 174.516 182.879
58.8179 293.231 68.0827
66.7054 241.605 49.2283
65.2983 243.633 33.1522
79.9944 303.582 59.1877
59.6195 101.742 233.131
44.9657 276.173 80.305
53.9493 258.269 110.233
65.5275 190.173 220.623
57.4804 137.906 188.359
76.9976 71.1694 210.824
90.9243 302.461 110.401
50.0551 79.1776 222.784
45.8492 190.271 214.303
62.4925 180.717 186.045
66.2004 245.964 127.504
50.2431 227.676 110.032
55.2804 231.147 49.1863
56.9126 133.721 180.142
56.5069 229.889 92.5974
55.0231 280.957 104.502
52.1106 245.044 36.7795
43.5297 219.763 63.2369
54.5264 279.91 121.237
73.129 290.603 60.6054
48.8483 221.46 65.2298
53.238 143.491 161.749
79.8743 283.79 93.6822
82.3643 304.097 112.427
48.4487 241.707 50.797
55.4798 97.7626 209.915
39.5527 281.038 101.427
54.5031 113.774 162.795
73.8263 313.169 81.3739
50.857 218.817 97.8517
58.7532 145.611 174.507
60.0789 40.2309 213.711
78.9889 236.23 115.696
49.3624 215.521 89.9573
44.9902 173.28 231.125
61.2623 74.521 193.277
68.6857 253.44 125.083
45.6301 281.355 74.6593
39.0241 180.712 212.568
74.1351 254.343 103.893
60.1936 77.3396 251.006
37.7995 279.035 109.814
55.4568 299.617 82.7918
38.6924 51.2233 224.092
61.144 73.5025 229.298
65.724 270.595 35.8364
76.9523 315.543 100.685
44.7938 71.3919 263.954
66.3309 275.546 61.2777
45.9261 295.301 78.0697
41.8488 244.459 46.7067
65.1994 257.953 110.323
81.6786 67.5783 262.238
73.0391 150.319 220.966
79.377 240.308 73.6034
70.3016 166.766 210.296
66.1896 63.4817 237.161
75.0534 163.101 204.993
51.622 166.741 222.813
99.6034 295.995 101.476
75.7824 57.7985 226.795
54.6388 192.11 226.046
57.9116 69.6284 212.234
78.981 262.861 94.9434
47.5789 237.145 70.9339
34.7048 262.365 119.356
73.3701 276.511 76.0088
79.3767 135.112 232.597
48.2416 277.451 94.092
60.6992 222.429 98.5295
44.4972 241.286 99.1394
77.2333 255.366 32.4511
64.7471 239.659 65.985
71.0616 249.983 67.0664
65.8073 246.887 93.0889
56.1277 286.725 85.3605
60.2274 107.105 179.332
46.7148 63.6093 261.732
59.0489 128.303 195.305
54.1413 47.9035 245.392
49.3447 226.106 96.6383
67.1998 65.9602 263.24
43.6688 89.3565 223.022
69.4956 234.249 52.5874
38.1981 257.643 78.4598
49.673 273.32 57.8062
65.3471 230.1 44.8938
57.864 300.192 98.4241
37.6991 44.7506 245.727
46.4665 157.312 218.132
69.6634 230.489 116.17
37.4742 53.1767 254.533
77.2449 279.121 40.6907
89.4346 202.134 81.1772
44.8335 247.856 94.7853
61.4691 62.1245 211.283
36.7876 230.579 59.9761
74.9259 37.9905 253.557
85.9058 254.664 79.1537
58.6441 104.332 160.218
81.174 219.322 37.3972
43.9735 224.847 55.881
73.4384 201.609 79.7143
55.2071 34.6893 242.355
52.4924 278.13 53.9392
60.2833 271.395 70.8269
44.4695 221.598 88.1874
49.0863 257.18 80.277
52.855 254.954 42.1757
62.8854 193.45 86.4202
62.6636 246.243 121.96
59.9442 272.977 65.1248
56.7046 290.657 71.003
37.7608 223.52 62.4524
68.0041 304.385 94.0352
41.3733 247.465 121.062
52.5297 159.641 215.039
62.6836 130.48 163.504
69.0718 144.082 216.73
82.7136 221.628 115.141
86.4054 213.224 47.2579
65.2432 313.157 94.4492
85.725 139.614 226.238
64.8275 295.755 77.4096
50.0142 39.9361 233.552
53.4854 274.11 37.9665
50.8056 266.828 57.8967
64.4812 248.419 84.2895
45.4161 53.5553 265.872
72.6717 240.911 72.731
64.1656 37.1853 242.158
78.8131 227.387 100.044
61.1689 232.382 74.0472
44.8429 52.696 254.465
69.1253 289.223 52.5741
64.0316 135.721 181.213
43.2122 276.047 73.952
33.9167 180.379 210.36
38.9548 248.724 50.0995
62.6374 142.017 214.094
82.7269 214.113 110.426
70.8944 248.443 82.7859
43.1284 225.636 94.394
68.7412 261.688 125.555
73.6016 70.734 264.19
75.6171 44.1655 248.961
72.1016 128.019 178.847
62.8513 299.721 59.9492
59.0543 224.484 93.285
70.1946 293.557 115.207
41.806 265.082 121.976
67.2153 285.855 110.665
68.3868 135.213 169.461
75.7484 234.502 47.4872
54.5096 90.0561 207.425
82.1645 303.485 94.6037
62.5136 65.7706 267.033
57.536 289.236 54.7769
73.3395 201.474 86.3279
65.2337 61.5077 199.066
87.954 202.913 86.98
72.9164 223.553 62.4785
67.6115 190.159 214.051
32.3103 167.389 215.303
34.6832 283.027 75.3915
59.2426 264.926 129.45
61.1009 263.164 70.8231
90.2609 300.345 77.2078
78.9103 292.439 97.3037
72.417 162.878 223.433
67.9309 97.8764 227.745
54.5362 61.6837 249.803
37.3975 287.205 72.9855
73.0745 298.707 69.3156
71.1452 179.208 187.665
58.925 245.9 101.117
76.8602 226.214 115.372
49.1419 157.143 195.24
50.2788 237.704 62.0585
39.2725 62.1131 257.76
50.6624 85.7767 217.159
80.0626 289.043 62.154
60.8908 169.977 206.797
52.2201 161.555 230.579
73.7891 150.391 198.327
66.2729 285.908 62.9685
45.1683 40.7032 247.161
75.3854 218.713 36.4954
61.8983 224.087 108.316
89.0042 248.091 53.2054
68.1797 191.812 145.391
49.2173 239.965 41.5298
70.7534 37.8925 213.758
53.763 268.127 83.1382
48.126 77.979 204.689
50.3443 222.106 104.68
67.4704 89.1364 218.211
73.2044 284.789 59.3029
65.2063 268.93 47.5843
58.8865 197.343 203.317
40.2128 68.9713 238.952
61.5967 83.0875 218.635
54.7594 180.567 203.544
43.8309 66.0234 248.977
40.9062 293.242 82.4138
59.1715 265.107 56.7607
54.6103 237.019 55.8257
88.7588 318.294 85.8617
60.9288 250.221 45.4894
60.9544 206.376 72.2299
37.1676 55.6737 227.101
66.6299 235.144 79.0541
67.2857 161.714 231.441
62.5433 238.743 51.7207
86.9851 260.51 66.1957
57.828 214.807 73.1753
41.7709 233.961 99.833
87.5009 316.655 90.9871
45.8611 79.7235 231.879
53.5206 73.3565 195.184
44.2454 178.56 226.762
58.0854 199.096 209.972
65.1635 168.98 207.886
60.1463 276.269 91.0015
36.5504 269.358 57.7529
42.0344 45.2216 238.134
61.8048 307.428 72.4203
64.501 253.366 53.5515
74.4996 208.35 57.5608
42.2062 236.438 108.999
79.0797 244.68 92.4185
84.1087 244.442 44.1297
43.1538 42.6927 221.912
66.0742 237.361 33.9055
45.7162 271.721 48.3146
54.4662 229.143 41.8546
47.5156 56.7052 253.106
70.0952 275.978 55.81
47.4174 247.35 41.8164
64.4108 51.3465 266.516
43.6708 82.6783 217.985
47.4452 254.299 125.343
72.967 232.63 101.583
51.5435 117 170.94
37.8272 269.43 68.0685
59.3623 243.624 70.4319
63.3239 289.901 108.268
83.2982 310.933 94.3419
61.5796 244.726 42.0523
90.0754 54.2708 235.444
47.4592 48.0517 262.783
66.0018 37.5043 210.963
36.6443 159.652 213.52
37.424 48.1423 286.184
79.1782 267.469 37.6801
49.3745 186.69 198.358
61.4281 190.566 215.561
75.6889 238.872 121.774
59.3002 76.0472 219.281
58.3129 243.407 64.9743
51.7805 276.112 108.73
52.4466 144.318 214.913
45.6541 248.203 113.644
73.4434 218.611 68.6599
68.2483 302.583 60.4172
61.6405 161.314 199.503
52.6946 45.2967 269.058
75.8777 296.974 115.484
67.9186 88.7035 225.618
52.1217 253.397 70.8174
56.786 179.988 229.299
49.7805 43.0769 214.455
61.3072 313.865 84.2676
73.1949 213.841 46.7587
53.6116 254.231 80.3186
60.087 96.6784 222.509
54.5491 185.585 231.4
54.0489 135.388 163.918
86.2287 265.38 47.9793
51.2417 99.4792 225.849
48.7088 89.5011 225.666
53.7635 224.036 59.7446
42.7797 275.054 56.5342
66.8659 308.074 105.092
33.3363 276.43 90.8881
61.3661 90.5318 213.78
34.3727 274.285 72.1142
50.0196 176.745 231.722
61.9345 52.3899 202.51
37.8033 257.938 94.7116
59.2195 301.801 104.531
74.1512 57.3854 200.538
77.2034 158.98 189.755
70.4314 311.382 99.7242
61.1221 145.637 168.844
73.7595 56.0011 272.815
67.6642 317.079 84.2801
62.0756 277.486 98.477
46.8148 95.4987 215.754
59.3606 216.106 101.865
47.277 289.422 68.2474
68.6862 158.69 203.027
63.1808 44.714 199.231
45.9068 185.378 227.915
39.8391 46.7801 232.659
56.7783 262.805 65.3945
69.3485 65.8677 273.292
83.5327 231.418 28.4153
62.1756 205.18 89.3293
85.3962 303.254 76.7107
55.0362 218.903 80.2682
80.0833 60.0639 195.13
77.9719 219.348 47.5561
77.8172 152.771 204.269
50.7828 66.8119 205.729
50.2434 43.4332 227.47
66.4844 205.065 93.0435
88.37 135.551 234.44
35.3001 286.007 86.6586
68.6845 76.8406 230.36
42.941 155.192 208.572
90.0169 277.098 70.1177
67.5474 269.686 78.987
67.9973 270.101 70.9127
81.9338 276.81 89.9942
52.3348 215.901 68.2501
59.423 90.9556 228.535
71.6996 257.974 46.495
67.8446 286.821 70.4678
50.5437 285.35 80.9055
59.0986 278.798 69.9575
75.8546 70.5452 200.971
76.3518 209.528 108.145
59.1328 174.005 231.347
66.378 280.781 67.3322
61.7541 151.271 187.053
66.9224 175.16 213.534
65.1963 103.378 233.124
57.7311 248.243 50.6839
47.046 261.418 45.6816
49.4196 269.198 42.3024
68.5834 317.548 94.2753
46.716 196.354 207.028
74.0049 218.313 96.063
76.3866 72.1949 191.676
78.9311 207.347 61.593
63.7708 209.274 66.5215
61.6476 249.044 58.2371
73.6164 237.707 108.821
90.207 87.8965 221.512
37.6137 233.161 98.329
43.7537 73.4917 207.064
74.4622 84.3307 236.639
71.1104 75.0336 194.458
81.1853 277.302 64.8471
58.4879 192.798 210.69
73.5166 50.8336 262.167
87.5972 236.405 32.8405
54.3174 139.73 157.741
56.3592 213.257 61.4948
55.9921 25.4793 243.678
75.107 54.232 232.951
71.8461 48.3883 269.896
53.6302 86.7228 267.412
53.3685 280.75 59.7401
59.7594 58.8032 270.762
78.875 233.464 66.6505
57.3558 250.696 86.3551
58.9713 85.828 205.588
55.2179 264.445 39.746
86.8087 298.44 60.8807
69.125 46.5656 234.315
54.5521 171.804 202.847
67.3247 293.625 59.0997
73.4286 270.926 37.0294
46.0965 36.2889 241.463
46.8196 250.818 89.5488
65.6481 207.815 61.0972
49.5214 227.952 42.2238
59.7534 46.9391 256.015
40.4395 283.974 87.0514
65.0684 234.239 93.3981
60.8748 252.349 124.49
78.1809 203.923 78.8914
83.2674 234.288 115.547
71.8317 73.0713 235.289
68.036 247.206 34.8424
68.3779 214.779 57.8469
39.7485 249.83 102.406
67.54 267.148 120.464
71.5072 61.9294 249.001
60.0952 261.637 51.4726
65.9206 275.349 46.9289
66.2009 94.612 242.406
78.6404 321.223 90.0273
36.7407 276.932 82.1615
46.7232 64.5907 253.431
78.2734 264.608 65.8131
48.4988 279.077 121.139
42.6965 268.149 117.534
38.9617 66.1053 229.442
80.5767 230.309 85.7156
68.1201 109.133 177.202
90.9964 245.782 113.177
74.3614 79.5719 224.388
82.4768 261.978 79.9434
87.6544 43.3945 229.001
83.9306 246.888 109.817
47.7513 197.272 216.324
52.4268 89.8911 238.549
50.9268 249.745 100.907
86.2194 76.2658 224.509
75.6441 288.899 109.993
77.8982 171.069 205.691
57.5167 94.3735 243.193
43.0989 36.3366 236.435
78.238 303.536 91.0856
54.6107 261.989 89.3281
47.0274 181.926 291.128
77.3832 321.765 81.2736
47.7539 249.656 74.5139
64.4239 258.476 127.887
74.6411 65.7575 258.203
56.9927 52.4216 239.632
78.729 274.432 47.8333
63.3734 71.2025 258.965
49.3318 32.6787 239.03
39.7707 245.851 116.307
57.736 291.301 88.1427
52.2507 239.939 121.934
84.7935 208.834 58.8843
42.6245 185.924 212.698
79.6283 64.9675 204.87
79.7187 232.061 76.9744
59.1175 233.936 45.0696
40.737 256.405 99.2687
76.6485 275.35 125.332
97.3359 269.666 71.2656
47.5724 65.8633 218.779
52.3087 48.3123 203.531
69.2605 283.446 97.2791
55.1128 225.022 98.6141
51.8647 181.611 232.7
54.0267 66.3805 234.278
73.5579 182.429 193.138
70.3954 77.3435 240.849
60.1848 234.062 39.3904
62.9417 99.0926 214.86
61.5626 54.4487 227.105
64.0506 237.259 111.09
60.8744 265.547 64.565
65.152 58.3844 219.684
70.7778 155.346 227.905
43.5135 271.414 81.4843
93.8637 309.462 99.0894
71.1587 204.148 93.6677
58.4473 204.833 76.5912
74.1327 260.022 54.9369
82.3921 294.213 114.31
89.4964 259.936 105.421
38.7054 253.093 60.6875
49.0401 296.216 81.1307
75.3683 78.621 204.689
63.7776 258.877 37.3148
50.2584 69.4415 268.437
46.2204 50.1468 223.679
85.7813 205.254 74.862
69.3221 44.4344 263.615
46.0071 192.007 193.165
83.3739 253.312 45.8254
78.7071 257.65 109.089
54.6347 248.279 43.7078
74.3799 163.563 214.446
81.2546 226.232 112.708
66.7576 59.5224 264.401
56.9371 164.96 216.063
70.237 305.96 109.078
36.9113 245.917 99.2572
68.8764 241.228 86.6639
87.7391 260.287 36.0865
48.7535 57.8812 226.929
64.4543 46.6399 262.189
59.7005 55.3212 193.977
59.2316 285.087 61.8926
64.0555 192.244 205.822
74.6007 229.844 64.6893
64.5312 93.4412 254.998
49.2667 141.028 171.856
68.5652 92.416 205.559
64.5362 228.077 36.0465
78.6624 245.008 67.1063
86.0951 94.0655 230.003
47.0965 64.7258 214.145
63.6857 57.7573 253.153
68.0139 268.894 65.3116
41.418 239.447 49.4947
52.7446 43.8077 219.89
68.7038 255.935 39.525
51.1194 189.204 214.958
53.4005 155.462 190.059
72.0062 222.146 33.4684
69.8151 273.446 120.727
64.7307 91.0706 197.808
68.2239 57.7707 213.992
73.4759 62.4473 267.126
47.0967 232.283 111.874
82.1269 300.825 87.262
63.2674 143.514 222.696
83.84 270.806 40.7934
87.4811 281.302 92.3906
47.3816 47.0894 250.038
51.2343 199.489 201.801
56.0324 224.732 53.6462
58.5854 224.876 70.9145
60.5287 155.551 225.814
83.8701 79.5837 210.817
40.4784 40.3361 297.164
60.5136 64.1522 193.219
72.1929 180 221.878
59.1932 146.273 227.32
58.4978 66.5685 256.895
51.6301 82.0578 209.971
48.4467 283.574 109.912
60.1322 294.771 56.5424
68.3947 223.666 43.1844
87.3237 318.039 80.705
60.5016 237.957 122.051
87.5218 303.655 63.0856
56.1503 51.8964 217.521
72.9583 251.982 41.4042
44.5015 185.213 207.015
56.8912 163.105 179.457
35.7029 273.272 102.611
55.4963 33.5997 229.286
65.249 157.573 225.349
47.8887 248.103 120.946
50.6848 279.651 115.274
77.4576 253.546 47.0758
46.4674 184.04 192.299
70.8213 245.854 120.052
71.6999 172.072 203.486
76.9082 151.628 213.731
68.8469 266.123 40.2934
56.2408 150.38 202.361
55.7118 150.325 224.472
81.7351 146.217 230.581
76.198 268.539 85.2257
50.4869 285.739 101.877
72.5131 183.07 199.868
36.4792 52.8752 246.048
62.9736 166.342 182.472
47.3262 258.238 209.785
43.1381 57.0373 256.995
52.596 92.4978 248.644
69.3366 263.983 89.8041
73.8503 286.071 78.9689
81.2413 279.256 117.015
59.1794 233.724 106.35
81.5267 237.192 41.7965
61.4064 219.038 45.4485
59.4597 163.546 206.947
36.4624 294.2 87.2712
55.1538 71.177 229.024
65.1563 217.573 103.806
82.8081 261.347 121.184
43.1474 253.687 128.086
72.517 275.944 84.9737
50.1921 58.8334 203.274
69.1544 234.701 87.2603
57.0052 77.0846 205.947
59.5721 249.623 75.8995
68.2234 257.953 97.9305
57.3898 101.163 227.521
54.6034 131.463 160.247
75.6679 232.242 55.6454
77.6594 280.188 61.0615
80.7759 161.031 211.258
53.8131 198.385 213.987
69.6732 268.328 125.946
47.894 77.2869 211.393
54.6385 228.55 116.386
62.1472 146.647 207.795
81.7325 267.319 72.6356
56.0677 303.206 90.1734
46.5075 292.567 72.2598
70.1634 89.6671 239.948
81.022 61.1946 257.55
62.189 209.555 93.5657
49.3917 180.111 201.352
45.236 45.9014 244.165
74.3802 98.9555 241.115
39.083 31.2238 227.217
50.5024 166.776 234.79
59.0193 50.282 266.185
47.6604 252.717 213.441
53.3083 157.693 183.527
56.9291 219.583 48.359
64.8456 93.9431 235.344
44.2638 227.271 73.7924
56.4293 42.6809 208.076
96.8843 284.88 59.8241
82.9817 47.3172 251.563
96.8385 291.286 94.0468
70.2104 146.864 210.8
33.1758 53.4452 249.941
45.2878 34.0513 251.76
45.6269 199.248 203.237
81.8183 165.44 198.392
104.33 272.856 53.4572
72.1833 129.152 187.277
67.5947 53.8297 246.536
50.7889 251.342 45.4382
73.3617 239.041 34.6676
47.5323 67.9414 236.099
37.8312 236.227 66.7587
66.5772 245.822 61.8308
43.1072 65.4629 284.005
55.5279 65.3855 263.353
51.4533 295.972 72.7504
78.2342 309.819 79.2751
54.1886 31.1228 248.561
76.2646 55.0447 218.256
83.6068 56.172 201.698
49.2101 48.9917 240.48
74.3761 310.233 66.2667
65.1104 282.362 115.011
56.6242 162.424 197.44
82.1346 321.376 76.797
86.8782 211.277 52.6157
72.6003 303.407 85.1751
81.7825 279.483 131.582
77.7364 240.512 55.5186
64.801 219.98 50.4425
43.9277 75.3738 213.057
75.4198 50.2915 246.04
71.2468 50.0113 253.285
58.2482 304.439 83.2348
77.5184 314.323 76.2674
79.8252 204.223 86.7795
67.6625 249.965 40.1758
52.1245 49.0981 223.424
69.4102 103.844 246.139
37.2696 235.879 57.4644
58.4274 223.634 45.2547
59.4414 169.012 212.749
58.7704 157.038 205.152
46.6717 268.355 80.4127
56.9339 43.2359 248.579
71.7879 239.279 66.1321
68.8633 100.089 210.778
39.3923 184.518 206.763
69.2438 211.317 96.4718
76.7444 252.413 51.4242
69.7276 163.534 198.756
78.1274 237.317 37.5302
84.1838 57.4511 260.713
64.5433 42.826 264.801
92.2025 230.366 55.5941
58.3358 68.3944 199.12
84.9021 225.675 82.8527
35.5393 253.294 68.1371
58.7154 232.82 112.312
57.9636 125.789 190.669
62.8161 181.79 230.247
95.8593 311.227 81.2607
63.8928 52.1758 255.295
87.4442 211.404 103.981
92.6493 215.512 58.1523
85.3479 235.242 57.7805
56.7932 234.091 118.285
83.6385 291.985 57.5959
69.3745 134.53 175.138
53.3819 59.0846 208.709
42.8629 44.6417 251.434
61.842 305.341 93.2108
57.4078 232.073 35.8559
95.645 261.407 96.0833
78.4378 91.2166 244.635
80.0195 86.8009 238.371
39.0599 174.261 229.065
96.5041 306.064 86.4881
82.5389 257.285 33.5099
85.7873 241.712 95.915
53.6748 176.626 227.989
49.1938 166.895 184.413
82.0507 52.7525 242.883
51.0584 260.765 57.7464
73.3997 244.381 62.2102
72.446 243.511 30.2419
78.5118 208.543 68.7745
52.6241 38.4501 222.715
78.4923 43.943 257.971
59.9473 36.1252 223.992
46.3035 232.522 104.779
44.9106 284.831 104.971
55.2611 155.128 209.584
74.3058 319.013 93.3632
78.4099 316.446 66.8141
53.8664 264.766 131.188
57.3113 103.35 167.622
95.0561 275.189 78.0023
82.6493 139.475 239.488
55.9909 45.8912 258.043
60.9547 275.682 120.085
94.7508 261.283 49.8884
85.3457 214.847 40.2555
54.0794 99.1903 234.17
59.5808 34.5496 247.975
67.924 229.238 56.0252
60.3249 63.7005 238.84
55.9347 57.2575 204.495
64.1568 76.2936 208.561
62.7343 211.361 99.5364
75.5099 257.062 73.159
79.0154 249.623 82.9031
66.5627 46.3805 255.332
74.4387 73.5649 270.118
82.5467 298.156 58.0416
74.389 170.774 209.473
49.2713 164.35 218.849
97.3301 270.816 48.5498
91.1429 311.454 93.2486
58.3421 62.3469 198.513
79.6205 309.495 104.079
78.8236 237.518 30.748
75.1535 178.296 202.266
62.5259 46.2605 229.846
57.6392 79.7119 194.242
40.8418 180.336 222.774
37.676 240.02 98.8215
91.371 271.984 58.5266
57.8836 81.0883 234.839
73.9294 83.6219 245.899
62.0669 158.161 180.678
65.0348 187.502 189.03
61.5912 225.589 88.2471
73.7632 168.757 227.139
84.48 203.975 91.915
50.3194 245.023 69.1869
65.2285 68.0267 195.718
54.5694 146.448 196.131
78.398 71.9608 217.682
73.2484 247.042 88.1869
53.2297 284.738 66.6536
57.6026 309.461 75.8675
51.341 290.318 71.0175
82.9712 246.418 121.746
75.7832 50.6099 199.731
66.6897 137.428 188.986
64.5521 177.558 230.877
79.9517 63.6322 219.333
49.1515 46.0266 258.993
77.2753 285.021 73.3547
67.6812 296.485 95.1128
50.7503 49.7865 234.467
70.6602 271.442 59.5158
74.9812 260.756 124.509
72.2193 41.3457 259.467
66.576 173.727 198.105
94.3095 295.359 81.8167
82.6985 73.3706 199.706
80.821 51.3064 257.58
83.8846 264.174 61.2703
77.2061 303.876 111.475
67.8097 36.6399 220.873
64.6591 101.414 250.54
56.9605 169.398 179.064
58.1409 84.6309 229.723
78.7582 61.84 265.849
50.0505 175.904 190.041
77.5541 267.097 121.205
75.3203 217.75 122.475
63.5931 169.365 177.768
84.0987 225.506 28.7753
82.8323 215.793 74.0289
55.6867 76.0816 211.051
71.6778 68.4766 198.465
84.1186 304.324 60.8311
88.6269 251.768 43.6935
55.7109 50.1235 227.303
59.3499 91.6475 254.382
76.8353 41.878 241.651
85.0552 267.706 94.9732
48.9664 96.2352 233.479
60.4091 150.699 228.892
69.8205 54.7287 262.09
86.094 247.309 115.016
67.7284 49.04 221.922
80.3623 219.31 31.0439
59.5488 155.924 213.067
87.8322 254.171 34.1985
76.7907 313.418 69.7242
43.547 185.65 222.372
63.5705 193.219 199.44
58.189 232.624 55.6125
62.0831 54.6016 236.192
73.186 267.761 71.4323
54.8113 108.009 170.601
66.9223 77.3485 200.551
59.135 138.207 160.495
90.2594 223.567 101.1
67.3171 239.547 98.8857
78.4623 292.693 74.4041
84.6391 273.697 50.376
87.4716 54.6544 212.584
82.2069 273.715 108.793
76.0785 252.535 59.6356
85.5891 86.5426 213.126
81.6834 48.9596 262.151
73.8498 37.5843 208.866
84.0873 225.167 72.9536
69.3042 244.045 57.2959
72.581 250.948 33.8062
45.5662 61.9674 232.016
91.5258 272.691 48.0447
54.2616 246.271 126.355
63.3074 194.969 156.071
60.1358 289.588 94.499
89.3385 268.336 40.4473
88.9207 207.806 97.6645
88.5514 230.512 47.8461
60.7099 56.9524 198.491
49.3695 36.1092 247.363
80.3131 270.696 89.9817
50.906 50.7488 256.683
46.6213 154.622 212.653
42.711 244.83 194.406
70.2448 289.166 95.8389
78.7524 77.0226 223.148
67.2398 182.659 229.091
87.6287 217.173 74.6856
84.8971 293.436 91.8496
58.8355 78.3282 224.545
74.8481 300.604 108.077
63.0768 238.631 17.5207
37.0676 265.502 133.095
73.1867 85.5556 219.896
79.523 82.73 218.917
42.6228 173.856 224.505
64.3126 261.957 93.9658
81.8102 55.9584 219.091
78.5503 261.813 36.8848
69.9357 219.87 93.0855
66.6106 229.617 85.6476
90.6693 215.736 96.9363
52.6996 252.443 124.948
68.4336 221.031 38.2026
82.3643 50.4027 214.455
73.9902 54.9469 245.237
83.4854 259.588 108.095
68.6791 290.206 108.256
55.4771 50.2644 212.716
55.6386 40.4675 258.835
89.7633 229.971 78.2093
43.3718 27.2758 227.814
76.651 157.631 220.703
73.616 248.204 107.889
57.3591 252.651 41.5574
66.6363 243.962 113.859
59.713 71.2673 253.839
68.7223 50.9745 274.973
62.858 94.0022 205.707
41.425 281.942 81.7696
73.3494 98.17 234.431
51.3786 158.548 221.165
44.0497 50.0119 234.909
52.0544 293.496 66.4364
80.6459 278.162 53.3604
68.8777 277.378 106.697
84.0098 82.2187 249.877
94.466 209.967 78.3581
67.4599 32.7585 229.871
98.5251 303.383 97.8503
67.2907 264.527 34.0572
83.8749 240.799 117.672
80.8131 284.808 117.687
47.8666 158.182 186.866
98.112 217.172 65.2282
77.9465 62.993 211.365
39.2574 228.884 4.06262
66.9341 96.425 248.586
76.3769 81.9263 214.824
82.7797 222.136 95.8286
64.649 95.4038 211.317
89.2404 259.54 87.5115
89.325 207.143 91.2544
76.5363 64.0022 194.015
80.5871 237.958 83.0694
92.4404 240.191 104.835
55.9323 77.5339 229.572
70.4681 167.815 194.96
77.2293 96.2776 247.409
53.5323 157.622 203.773
83.1386 273.902 122.576
71.6991 152.129 191.871
75.6155 92.7643 225.648
73.1591 248.184 55.1295
47.7838 239.237 93.6327
82.5387 65.5897 226.451
53.7688 95.6706 225.154
83.5895 249.536 33.5618
