ply
format ascii 1.0
comment Created by Open3D
element vertex 1072
property double x
property double y
property double z
end_header
49.3703 128.246 280.681
45.1607 120.831 271.812
72.253 40.9552 317.58
89.0478 160.856 21.6484
39.5655 147.838 261.262
43.1415 128.639 72.7563
81.3718 240.444 110.309
54.6174 114.32 70.6365
64.4166 235.641 129.286
56.2303 67.0586 260.856
77.2793 163.223 63.941
66.4859 209.863 90.6185
62.7209 42.596 319.117
59.2647 115.85 80.9209
74.9696 297.631 150.77
106.947 284.134 137.174
80.8404 280.893 153.441
56.2129 194.612 89.1598
59.6292 264.036 142.862
84.0739 258.217 149.673
62.8927 301.406 155.803
80.8319 187.081 37.5781
52.4953 137.877 220.903
38.9466 139.972 119.263
49.8774 172.391 235.24
65.7156 171.515 54.8976
61.3007 158.05 141.774
42.9398 130.091 94.5485
84.4766 180.873 60.6715
88.7416 189.507 59.0097
68.682 313.187 141.25
56.0676 149.426 110.49
97.8326 142.547 87.644
83.8004 300.761 141.925
97.7789 179.832 18.5022
88.1269 151.708 29.1276
65.8687 187.075 238.835
84.7765 219.492 93.4295
65.2828 151.644 117.431
67.9308 248.867 100.668
56.8548 93.968 283.209
41.5262 137.716 75.8522
73.6789 190.386 124.91
70.4724 77.8422 297.191
96.9068 284.061 174.178
58.0146 268.127 110.462
52.7071 298.023 164.699
83.0404 38.1454 300.809
54.6385 141.859 140.996
75.759 261.34 176.168
80.4111 71.5257 320.854
86.8681 317.518 143.752
68.5289 199.644 38.6871
62.8684 78.4727 258.72
39.2155 151.689 235.734
84.7938 145.717 138.712
90.2187 204.566 56.1137
46.5799 56.1904 304.428
42.7756 160.159 273.68
73.5886 147.306 39.2336
87.4929 293.466 147.472
89.2647 263.653 100.138
76.2924 179.281 134.593
53.3014 155.092 133.971
95.7095 151.815 28.9463
73.5459 165.937 215.133
57.2407 141.132 127.563
85.849 179.841 21.2086
110.231 234.735 67.447
73.5116 144.722 282.762
49.5577 267.32 157.966
83.4529 43.6578 267.83
49.4192 260.919 117.914
65.6401 310.532 150.021
59.0467 132.802 223.918
58.9999 144.901 53.0047
75.2339 207.011 65.3895
76.9208 76.6174 314.872
46.3623 251.647 118.322
65.898 297.91 168.33
69.2089 186.801 41.9103
77.7441 142.929 99.5073
71.6644 289.868 141.617
53.087 298.024 102.693
69.3318 52.9137 261.707
101.5 141.655 223.609
51.689 319.792 117.609
61.9232 311.311 125.214
71.9043 91.9698 288.353
53.3602 287.957 150.019
92.6689 170.272 20.9815
53.1312 195.63 75.0964
45.0388 60.9607 290.584
77.0929 175.145 72.8016
91.3615 273.512 175.952
53.1417 43.8318 301.857
79.9421 255.017 159.288
57.5722 37.6005 294.414
46.4313 133.268 103.283
79.2417 259.131 100.538
81.1089 203.745 59.3309
65.5333 114.569 71.687
65.0305 210.894 52.777
86.9685 302.861 158.512
63.7582 144.841 78.2004
48.3808 148.394 105.601
84.1921 308.656 150.438
60.0389 154.954 282.631
75.8326 303.719 138.655
68.2245 286.468 193.084
95.3931 185.007 96.6849
37.6589 140.061 255.093
53.3824 145.829 74.5091
59.5436 289.668 102.89
87.9635 73.1943 259.447
66.7008 237.916 117.338
80.9728 153.813 26.7204
58.1067 95.7245 294.596
86.9815 64.97 271.799
83.2214 183.607 85.4901
65.6485 285.661 102.866
74.554 33.9078 310.213
74.0508 243.398 104.009
36.1485 157.253 242.046
61.184 78.9135 316.541
85.6985 237.198 119.579
62.3577 278.136 98.6124
87.6013 92.9626 257.371
74.5618 166.901 126.283
70.0898 274.253 156.592
51.8269 167.082 106.632
85.3108 33.8951 283.439
49.7307 161.433 220.087
68.2711 115.057 81.5316
51.7199 279.667 99.1276
91.503 152.559 119.751
50.8088 164.615 272.615
46.4999 157.113 85.5464
55.653 199.667 49.2409
39.8178 131.797 250.38
108.546 298.056 134.051
53.8013 114.368 237.244
79.9277 250.881 103.116
84.3854 280.51 97.0138
102.806 253.418 115.588
50.9516 45.4009 294.128
60.0761 232.222 148.655
47.8601 108.812 258.406
72.1956 214.286 81.2226
86.8323 270.836 151.225
71.8964 107.173 239.743
59.5328 202.986 71.3668
67.2725 245.245 110.638
70.0922 176.826 21.8258
79.2362 138 111.441
74.5967 177.543 44.1749
52.5235 121.612 239.539
87.8077 127.554 136.57
75.1494 83.5713 308.263
72.7685 206.763 57.2216
69.3557 161.407 274.738
85.676 157.302 272.498
62.7349 60.3014 254.316
85.2178 189.542 237.295
59.3799 185.154 49.5861
34.8148 142 245.768
70.217 197.787 65.2079
72.6786 290.981 182.827
62.783 131.012 294.222
102.37 171.235 99.6825
65.005 167.461 270.334
60.3801 301.793 99.8561
71.052 133.281 222.099
65.759 139.625 220.291
95.9098 224.859 68.9248
98.7065 160.205 39.6818
53.6083 119.477 89.1983
84.6949 174.402 120.223
63.903 87.2704 272.044
83.7273 38.9444 277.079
67.1225 161.904 43.0929
81.3506 285.375 177.511
48.9868 76.1566 311.998
76.4795 156.505 49.0817
53.601 91.1263 289.995
91.5879 202.582 103.171
50.0813 151.263 93.4774
91.5606 144.726 65.7888
67.1061 184.951 251.988
37.6141 243.313 146.477
71.2711 257.388 102.652
91.1817 298.858 110.997
77.9023 235.185 133.904
62.1291 268.441 135.906
51.3627 110.084 248.066
78.409 147.567 217.73
52.6773 193.794 128.332
57.1104 83.3954 309.644
73.4833 302.786 161.311
54.7278 116.748 61.0285
60.6572 252.338 110.616
78.1284 110.533 93.3045
107.838 227.018 60.4078
41.4738 289.051 105.389
81.1434 120.302 52.2145
56.9638 85.5885 273.088
85.6048 248.289 146.647
57.6371 168.863 271.191
70.5031 80.85 262.363
99.8875 90.3852 273.293
57.4236 250.31 160.497
39.2529 282.241 167.996
65.5903 145.507 87.3602
45.2302 173.734 88.0488
85.5871 144.737 34.8218
68.7879 60.0031 317.71
49.9815 173.091 80.564
47.2614 282.521 153.153
84.4207 244.127 136.583
42.415 130.751 258.357
60.3866 183.722 97.3614
69.0427 193.982 57.8623
74.319 29.2076 298.686
54.2291 45.9678 318.171
40.9869 166.878 222.634
60.3147 118.956 232.839
62.2084 285.199 139.657
84.283 60.4243 305.692
56.7422 251.882 131.296
76.615 289.444 102.432
87.3917 224.488 86.5458
66.3502 120.263 295.273
94.8728 164.895 80.4194
46.5586 122.692 81.2678
85.9317 187.683 223.79
60.4164 252.098 168.248
56.0397 257.092 112.533
52.9073 125.319 57.5148
55.1704 73.5905 317.832
107.658 193.031 96.9952
97.0552 210.524 101.639
68.6779 137.353 291.104
96.5576 260.09 125.605
51.8222 154.683 101.786
60.2583 173.015 120.242
57.8037 131.183 56.2796
75.9178 193.173 33.5897
92.7546 71.3981 294.341
91.0828 156.861 91.0652
63.0689 191.07 43.403
54.52 158.968 53.0704
72.3922 295.83 175.494
82.2921 156.452 135.293
79.3811 159.815 272.57
91.0438 150.491 151.347
77.3494 138.974 140.154
72.6669 187.895 63.6101
68.076 128.626 56.3201
46.6505 175.267 61.7987
102.977 135.583 92.1598
83.5927 199.55 43.2841
73.4657 151.872 118.113
73.3683 151.803 102.076
66.9166 181.774 226.729
105.319 126.786 255.76
90.6199 187.425 24.2026
46.7801 173.183 226.405
73.2712 268.52 100.972
95.0363 303.746 147.981
115.725 228.701 76.921
78.4986 99.8544 275.559
72.076 280.872 149.823
104.996 166.368 132.815
57.8642 155.743 219.538
64.0637 121.616 59.973
61.548 140.115 291.312
40.2511 116.875 260.3
110.275 311.496 170.008
55.5032 75.4564 276.138
78.1057 263.519 143.472
41.8537 69.5266 305.912
104.622 107.883 255.725
84.2631 172.51 20.9981
56.8034 48.4073 280.268
72.4178 25.4199 283.688
89.4599 195.377 92.1971
65.463 283.037 186.826
44.5273 125.24 247.001
89.5185 181.919 125.31
70.3948 237.279 134.754
57.4128 34.6969 285.012
46.5344 274.86 163.334
82.3385 126.482 46.4725
41.2924 129.23 240.372
66.1836 164.532 216.855
79.1023 149.921 33.1688
46.9517 242.71 125.624
68.3699 72.4029 319.133
86.4622 125.056 296.305
54.5812 281.331 163.934
95.1711 167.068 124.63
66.1041 184.76 28.4701
40.9592 49.1881 280.982
66.0488 33.9533 309.049
57.5864 165.634 220.613
43.0408 130.056 61.0311
98.1346 302.096 117.34
37.6654 143.313 273.578
85.2376 304.749 113.425
95.5923 159.223 116.359
54.8222 188.509 67.6963
60.0653 310.725 106.758
97.1319 314.954 141.866
68.7349 316.915 130.444
104.697 163.855 105.387
59.308 241.867 133.819
89.8474 52.6968 290.253
67.5538 115.529 231.677
103.823 104.314 297.784
97.0453 170.29 53.4497
72.2603 300.686 104.299
78.2029 113.804 226.074
47.7287 141.769 264.799
89.9811 242.544 128.825
91.0628 168.539 109.485
35.6445 150.016 248.786
85.4076 258.162 103.045
76.274 120.973 62.9976
71.9558 134.837 100.274
95.5548 276.722 148.443
90.4529 176.088 265.666
103.302 168.75 79.3336
58.972 312.716 116.017
39.007 151.891 70.3906
79.0702 129.37 218.607
79.354 204.661 51.0028
103.691 311.263 176.106
42.0575 175.565 238.983
102.304 158.949 112.714
92.1338 176.947 25.5913
112.977 222.199 91.6397
75.6241 133.36 84.1316
59.4624 186.275 127.156
45.8924 53.5738 296.583
47.0215 124.366 56.5238
53.7237 41.4341 282.573
76.9059 239.391 151.789
81.5033 77.1801 258.018
50.2953 272.612 93.538
93.3562 174.551 117.496
83.1421 163.393 54.8067
106.855 207.698 92.1491
73.7098 132.932 292.442
72.7077 88.9792 303.668
77.4889 40.8836 261.697
93.4303 206.01 93.0648
81.8763 263.064 167.761
46.1407 248.231 140.067
96.7129 151.342 36.3625
57.1895 256.543 122.83
62.8264 31.9697 280.094
89.7931 213.699 94.0386
70.7215 231.789 121.31
64.0457 243.017 158.206
104.788 276.788 130.347
76.5259 310.195 148.494
72.3207 172.225 138.531
56.2165 67.1258 323.133
83.3535 136.466 39.248
66.5644 183.663 75.8196
43.5681 166.033 267.188
66.1199 146.347 59.5381
38.5198 154.766 55.2984
95.2533 248.756 111.42
61.0983 205.034 82.6764
72.6159 193.027 115.201
66.0301 166.232 128.125
79.5353 180.031 117.582
98.8356 300.644 158.633
48.8747 87.3017 281.662
96.1177 263.533 113.608
82.8448 123.815 66.5815
74.2385 186.637 228.362
96.2304 276.745 167.631
56.9537 146.17 219.387
89.8841 180.58 214.608
104.969 158.656 82.2784
84.6866 174.583 258.924
66.3971 28.7442 287.442
74.3887 163.267 97.1067
72.3964 279.629 171.733
49.4362 151.556 220.916
64.6931 254.833 143.376
41.8466 73.6266 285.359
109.304 304.792 174.396
63.2411 149.115 287.626
57.6016 172.16 105.307
82.9211 187.205 24.8506
101.264 221.48 62.5327
44.1232 113.596 251.869
51.2882 260.103 161.531
72.6366 98.3296 251.536
92.4433 256.883 119.077
59.1692 205.074 89.5637
115.421 130.632 240.44
49.1842 143.775 53.2658
71.2824 137.563 61.1692
76.0179 306.296 111.257
105.112 165.695 70.3585
83.7125 147.42 102.683
35.5713 169.897 232.717
47.7649 263.531 147.707
63.6845 100.113 252.772
83.7062 53.9905 264.818
82.0842 77.2835 307.711
40.4628 163.616 116.586
69.7984 123.038 224.948
92.3487 135.385 64.7733
41.4211 128.89 277.861
71.5057 161.507 33.4426
63.6033 174.602 219.444
65.3781 148.074 219.039
81.1051 163.433 89.8554
88.2657 166.87 271.979
108.227 116.511 298.201
51.868 289.708 158.298
80.7772 150.244 117.249
81.8139 294.793 108.114
42.1254 121.259 253.59
62.7408 180.486 131.651
66.7833 174.438 92.1687
80.6908 188.066 227.813
61.4023 114.293 63.4917
86.6937 164.669 259.533
68.7099 29.2855 273.165
131.55 144.417 253.149
61.8313 203.208 97.267
60.3111 283.596 172.156
54.4364 138.862 286.472
78.2895 98.4046 266.973
103.684 149.799 89.476
88.6295 131.026 60.2711
59.5047 57.6 277.386
98.7828 307.931 128.481
51.0918 135.141 53.0501
67.1354 127.905 226.55
43.4838 151.478 268.271
46.5335 122.325 91.8268
115.771 184.238 107.215
102.888 267.38 120.691
87.9016 246.546 108.528
52.8191 158.734 108.947
47.0843 275.667 142.526
45.3728 77.3729 303.752
80.7234 312.401 116.241
54.2339 256.551 168.469
39.7331 127.633 269.345
71.9242 105.199 269.032
101.972 182.042 95.2265
62.8886 174.679 265.062
83.6601 28.7167 275.465
56.2163 175.5 265.472
88.759 171.583 211.593
58.565 56.123 260.711
93.057 279.207 158.597
73.9971 188.749 235.308
76.1836 320.159 137.197
84.6968 110.102 293.497
82.8688 163.018 72.3447
81.6957 169.827 28.5449
47.8116 149.759 59.3776
78.7999 155.99 59.3908
88.397 134.365 52.5556
58.984 162.416 275.745
79.8114 204.674 95.2794
49.2188 242.756 133.703
96.7322 187.483 28.5032
75.0324 118.656 83.6961
71.738 35.3795 266.55
63.8032 174.739 48.2139
89.2761 279.18 142.56
66.542 202.539 80.0352
98.0707 171.694 86.7578
84.8541 227.814 78.8349
87.3997 217.927 80.5804
91.2479 92.6906 274.723
87.3155 320.849 123.208
36.6854 158.347 258.785
49.6888 122.072 73.942
104.217 151.977 71.1958
76.9548 319.414 128.786
94.2095 78.8172 270.01
57.4665 171.06 133.095
128.291 102.644 284.467
89.7668 156.174 102.18
51.4826 171.538 95.4209
93.3442 162.07 28.5266
71.4574 179.885 220.909
52.4375 108.73 295.134
100.387 100.174 253.318
86.6299 176.76 94.1612
40.2745 137.58 66.8044
85.0764 119.977 224.26
76.3588 131.51 50.1899
76.651 277.829 163.478
81.5044 98.559 251.526
104.914 310.688 134.85
97.2533 91.5966 284.526
98.4641 177.842 29.5211
80.8843 155.473 99.6686
89.8834 154.67 139.261
116.497 231.623 68.8359
43.1311 86.1077 292.958
111.895 123.937 292.289
99.9199 174.118 117.373
84.2263 87.4735 294.115
44.9957 135.496 56.1325
77.5716 180.596 18.7416
92.4845 145.918 97.4109
62.2594 89.572 304.891
78.0833 159.585 32.5773
97.6676 154.495 145.066
63.247 193.609 101.396
95.7578 120.568 296.836
82.3736 212.059 83.4038
105.838 175.189 47.5642
86.7781 80.267 271.353
80.0556 184.978 266.64
48.4802 105.727 267.441
66.7257 196.727 109.017
47.6248 251.855 158.136
47.6692 117.945 278.991
38.384 252.458 134.165
73.8389 111.074 233.055
58.3385 39.6027 274.438
109.679 199.618 103.794
77.3724 59.588 250.014
54.065 297.313 154.72
48.4722 122.167 64.8603
57.5284 178.496 227.785
77.807 302.452 129.286
109.845 302.536 164.512
54.2917 50.7036 286.947
68.905 281.729 139.107
91.9684 151.34 52.8178
74.8662 173.559 262.963
58.8698 243.1 112.139
90.0915 172.136 84.6271
78.9958 181.963 220.649
66.5055 306.013 104.842
47.9663 67.4216 317.526
110.719 152.429 143.129
66.4612 103.632 280.61
79.8777 108.228 237.765
63.2432 277.022 138.49
98.0189 182.744 217.356
68.4457 278.16 196.05
60.9007 150.535 140.135
102.762 149.705 110.062
102.421 303.195 138.945
119.005 100.387 271.628
72.4765 168.352 58.6979
82.9043 122.289 75.1227
134.18 158.054 241.6
104.49 124.366 230.815
57.9661 33.7171 307.092
114.866 188.499 100.409
68.9151 259.25 139.168
52.6488 39.9437 311.318
88.507 235.137 81.3256
87.0157 137.576 289.499
57.6856 166.308 112.804
58.258 49.1195 272.112
71.1014 173.327 215.792
88.877 281.691 128.711
77.3364 317.476 121.71
57.1693 278.675 149.264
52.8093 171.16 223.805
75.7334 146.785 83.7774
72.456 155.031 133.825
77.9005 47.9134 319.186
55.6577 238.015 119.383
95.4505 194.732 95.5336
130.447 181.576 109.969
93.6734 255.874 103.414
73.3936 235.711 127.048
91.2891 134.221 140.712
84.7414 181.226 258.342
61.7117 178.702 250.137
53.8816 178.65 94.7653
93.0898 286.32 136.448
65.2762 192.56 121.781
83.47 135.912 73.9796
71.013 136.671 112.543
53.9532 127.672 228.597
41.3971 134.804 274.397
66.8818 83.0109 312.008
88.0789 260.437 158.304
64.3146 273.91 169.444
96.9652 119.812 286.147
64.6745 135.597 57.5514
43.4048 140.224 279.87
76.2345 168.321 29.7593
84.099 238.479 74.5898
98.5267 269.754 99.0459
55.1126 179.12 83.1516
67.0565 154.75 221.025
68.5348 310.673 109.125
46.3166 156.614 249.36
70.3677 315.801 122.61
45.5821 68.6039 282.975
91.8799 49.8106 309.248
85.5011 126.408 220.572
100.376 165.827 27.8351
85.9752 99.2141 284.413
98.4726 143.284 134.463
92.0081 149.266 109.031
90.7021 154.1 217.32
68.2036 174.646 262.359
59.1844 188.204 91.1147
67.921 141.745 101.72
58.5862 74.5385 264.595
43.3121 130.484 127.282
48.6523 62.3913 283.455
63.0665 129.114 232.561
38.8133 124.204 262.382
71.9758 313.314 115.609
59.3412 174.943 99.4355
58.558 253.899 177.226
79.4416 141.62 219.71
88.002 178.674 73.811
76.7166 236.958 118.016
117.69 120.129 296.017
57.6937 248.161 150.051
120.326 110.776 263.06
59.6013 103.107 248.137
110.284 140.295 232.717
81.2016 164.731 130.301
78.3924 85.5601 264.028
98.2245 172.246 33.4409
81.0757 34.286 267.397
69.1861 294.718 101.556
75.3619 172.598 65.1228
56.4704 103.838 283.12
54.4092 183.707 252.163
69.0785 49.3064 323.397
97.3927 172.893 210.537
80.7574 51.872 256.505
54.3407 258.158 147.071
72.4374 181.795 71.7889
82.8212 290.172 130.501
66.1646 233.089 152.923
94.906 249.592 143.789
104.426 291.792 154.948
90.6254 220.417 73.9264
106.488 119.488 235.78
103.594 157.63 65.2013
70.7789 177.488 65.8762
107.623 144.142 137.677
69.7206 142.035 115.93
45.488 305.671 95.7146
102.771 300.959 150.181
83.3467 322.753 129.411
48.1946 178.646 243.826
72.977 237.001 110.683
111.723 163.481 141.391
72.3342 170.386 47.7245
66.8244 190.137 91.9148
90.869 193.418 49.1163
91.3255 266.069 168.924
76.2733 115.82 72.5144
109.287 88.151 271.974
73.2819 182.919 84.4255
100.029 212.933 92.608
90.1835 164.917 52.4439
81.7128 269.097 101.892
42.6406 157.228 226.853
48.8259 120.837 285.662
68.6157 178.789 122.897
38.438 137.371 240.522
90.1172 38.7354 294.277
65.3232 64.7589 323.889
39.0463 134.446 132.451
88.5245 111.203 234.678
121.042 157.211 271.547
45.7246 111.881 265.713
97.3847 88.0088 263.48
119.946 112.109 300.058
104.588 278.53 111.714
51.316 156.017 280.694
69.3386 151.696 280.945
106.457 287.176 165.342
57.0986 55.2578 321.264
95.9023 65.5522 273.98
72.6294 281.134 103.68
81.1819 201.969 83.4708
89.4912 286.563 178.852
107.004 76.9453 293.032
84.4511 237.303 144.677
57.2083 176.1 73.5271
85.5202 120.746 130.09
73.6337 87.0157 280.139
69.1127 154.166 88.9304
76.2834 48.9986 255.265
48.7321 129.949 233.996
64.2689 38.3569 267.074
60.5417 105.388 241.766
43.0003 141.115 232.423
82.7839 161.813 27.544
79.4432 185.597 130.787
72.6153 169.991 35.0454
82.6649 84.6051 300.582
104.531 182.581 216.576
68.9543 181.746 47.9928
105.639 69.6275 286.598
94.9941 293.547 178.873
108.553 179.228 98.9965
69.3152 101.199 242.747
90.0792 142.091 82.1812
73.0868 205.901 73.7877
78.6437 147.857 54.1008
110.146 94.0126 268.34
59.113 182.07 233.265
46.0695 84.5716 299.12
65.0757 183.728 63.0575
89.9009 135.895 43.0562
87.9625 293.229 160.263
93.1284 161.756 45.1187
96.7019 107.534 247.735
67.1162 270.226 103.642
107.93 273.337 123.836
64.0637 270.612 179.192
51.4023 57.2417 282.808
78.264 139.178 89.5587
69.9913 60.5492 250.49
87.3427 200.907 48.7418
64.7386 28.6527 296.398
89.44 61.0856 257.789
105.196 154.142 118.567
52.024 306.988 101.854
76.2818 195.456 77.6351
60.6663 266.863 103.011
65.4326 172.579 37.1606
98.7012 183.125 49.8089
87.4089 312.423 120.502
95.4522 152.935 44.7556
90.5606 46.0674 316.045
104.388 293.599 123.988
68.7064 184.325 114.25
85.3651 273.165 176.716
65.3633 157.242 277.809
92.768 273.172 132.443
50.8345 114.142 285.242
86.4622 146.97 93.019
86.3458 193.743 35.4378
82.7746 197.317 93.7461
81.9485 46.8086 306.53
100.489 196.385 48.0967
81.9713 192.007 72.5069
65.5328 177.39 111.37
39.0858 73.3982 221.499
87.1739 166.041 68.9424
38.2987 167.452 250.083
89.538 148.475 84.9145
107.421 281.93 118.163
56.0784 147.804 285.507
90.3013 172.997 131.571
52.124 178.345 259.95
73.7716 208.139 34.7962
82.2135 146.398 89.3298
58.3902 66.8042 272.279
47.9162 134.548 226.576
42.377 171.661 260.661
92.398 188.646 228.712
75.4965 184.459 254.572
77.386 137.382 131.982
92.6226 314.401 153.819
91.4305 197.153 62.6619
77.9703 80.4324 288.863
98.4872 261.064 103.207
67.4767 42.8188 272.071
97.4159 81.8799 294.258
68.8923 220.218 74.8712
60.1402 147.707 65.6234
90.7588 129.62 71.3058
64.9955 101.447 271.172
95.8459 132.092 219.951
102.458 145.611 65.8368
72.2612 143.495 219.46
48.2157 178.44 252.516
105.512 255.904 142.19
75.0448 158.4 215.693
107.865 200.071 93.4956
98.8136 188.716 55.687
80.4098 169.482 217.293
47.201 51.5276 313.736
44.6373 147.557 250.66
91.6217 139.294 294.842
40.9128 173.722 252.898
81.3054 253.859 136.567
40.0301 173.646 108.557
109.027 264.978 113.435
77.7715 24.6512 279.039
43.1142 62.003 311.403
51.5055 102.661 273.772
104.163 89.2813 287.476
98.4208 144.4 278.511
93.4247 115.129 231.424
106.761 184.533 32.4352
89.397 291.123 108.926
79.3591 159.343 122.656
70.1624 120.708 63.1707
91.6551 48.9243 279.401
35.0631 137.844 96.0827
98.7266 188.182 40.4743
101.341 300.093 126.779
105.511 187.265 43.6394
101.755 162.062 139.521
76.6318 26.2611 292.333
107.546 285.731 125.962
56.3652 121.985 292.758
85.275 96.5892 262.675
91.4109 191.442 31.3391
60.5718 60.7416 269.943
73.7334 119.965 297.75
43.0648 134.424 263.774
90.9654 119.226 225.774
59.5937 174.622 223.656
81.1297 61.679 318.715
98.7292 146.036 115.663
39.7502 140.267 267.233
71.0426 53.6527 315.617
86.7349 320.456 135.138
58.9535 153.855 72.678
98.7087 140.572 282.692
55.4208 169.478 67.7646
80.1917 267.844 174.994
52.0874 154.261 63.7065
88.2906 73.668 306.649
45.9235 83.2528 287.045
59.1226 99.3048 264.528
74.1453 111.092 285.932
47.4063 111.754 274.828
57.5913 101.438 274.355
103.571 62.5796 282.998
83.9141 288.077 166.674
76.0509 169.157 267.774
108.147 115.401 246.914
90.5748 147.461 37.9216
87.0759 147.916 218.447
51.3983 146.185 274.154
89.472 105.36 293.22
125.604 152.901 228.414
76.1481 143.135 74.9941
47.5385 245.2 151.661
89.9761 186.776 89.5111
82.4558 101.525 241.812
73.7369 166.512 272.867
112.294 176.099 263.343
101.478 166.318 36.5474
58.2061 151.449 77.9402
107.836 187.79 103.356
50.3689 92.5483 300.238
99.571 293.379 115.294
77.7748 116.998 292.541
112.133 92.2835 293.437
56.7706 183.996 242.875
97.0806 199.262 56.028
54.7868 50.4686 266.513
129.636 158.644 232.361
96.6843 121.819 224.049
45.268 159.614 61.3078
99.2206 97.906 296.588
87.2376 143.616 283.813
100.481 135.48 289.758
95.0638 150.809 274.269
94.6953 106.4 298.948
96.8691 249.736 128.96
86.0742 198.114 65.1292
120.047 172.666 223.369
61.9984 158.865 121.424
89.1293 132.891 123.866
111.785 166.348 135.425
76.2007 74.113 250.773
118.545 99.8446 294.798
89.0583 270.812 101.506
71.1365 153.112 73.3631
61.1797 174.288 109.42
89.5229 284.422 104.975
82.5283 161.001 117.052
78.6024 135.352 289.964
83.0608 240.959 154.908
96.8459 77.2632 276.009
90.231 107.659 247.285
43.2798 149.59 226.649
66.3241 57.2519 325.503
77.9772 141.308 120.185
80.9078 64.4735 252.204
101.966 275.484 104.242
91.2925 185.241 272.469
99.7262 151.038 123.18
73.455 159.805 42.204
91.0055 316.042 128.684
46.1862 52.241 289.818
51.1132 163.963 92.6865
135.029 114.347 285.412
56.5101 130.675 133.972
66.2598 167.474 115.691
95.2299 285.68 110.713
81.4215 138.693 286.181
106.388 259.122 106.716
84.7786 123.751 59.7266
77.1077 167.187 50.9374
95.2539 167.028 68.0927
72.7372 95.9738 258.192
116.267 173.339 246.791
72.3724 114.825 68.7999
39.1958 158.284 264.81
54.8378 77.8482 267.687
90.3852 267.655 160.764
67.2227 176.177 253.404
59.4957 242.913 124.592
92.3154 96.2278 294.006
106.771 289.977 147.282
94.3349 140.902 55.513
82.4763 137.523 83.2259
79.3135 137.268 225.353
101.336 113.485 245.855
51.4947 57.9118 319.328
106.366 216.629 70.7516
71.7792 179.661 258.861
100.323 183.092 33.8504
98.1072 167.42 45.1396
88.0841 140.194 218.493
39.487 165.251 244.101
59.8756 97.7224 258.759
92.7451 155.647 129.301
93.6484 55.0485 282.009
91.9447 229.864 74.5875
96.8667 315.96 133.932
87.8445 42.3223 284.893
82.9259 29.9817 298.123
92.2805 306.062 120.768
80.616 177.303 32.7488
61.6185 278.47 183.577
66.1587 32.8512 300.57
99.887 159.226 30.4586
100.229 145.751 151.013
91.3971 99.7186 252.299
87.1564 166.29 127.13
92.5247 60.3848 307.464
54.9167 182.153 237.406
105.184 81.4229 286.792
86.7604 133.988 220.77
130.123 160.512 249.952
72.0193 100.857 263.131
91.7454 93.8122 286.643
100.573 142.371 126.574
91.4552 295.696 137.203
75.937 100.957 283.574
80.9979 160.257 105.75
97.1959 281.564 102.328
92.3012 184.725 221.894
90.1373 115.228 294.793
87.5538 164.64 212.518
103.432 220.058 91.6117
109.707 101.815 307.048
92.3558 68.2977 263.146
85.6329 96.1256 271.088
79.5155 139.214 43.3063
83.9865 102.882 289.942
42.9919 155.223 253.063
91.1152 92.897 265.644
83.2969 55.9077 318.587
48.5308 72.4435 278.205
72.258 191.066 246.674
90.497 109.614 240.907
116.274 147.727 231.646
102.512 187.74 257.229
114.123 100.673 262.915
106.079 174.544 219.743
106.767 174.902 30.2101
79.6932 102.533 247.182
89.7912 276.73 104.53
40.7828 175.475 244.982
73.9389 152.534 217.232
101.837 175.318 270.072
50.3543 132.965 288.627
116.214 181.771 227.081
93.7702 144.983 41.5483
67.1778 175.643 100.439
88.9033 174.615 62.6038
98.8947 56.9021 289.382
72.7436 215.989 97.2633
50.0386 261.591 178.232
89.7511 143.368 48.3016
108.016 183.595 226.621
117.317 124.345 247.187
93.1064 157.251 65.9032
92.7713 178.185 53.9106
114.292 159.353 85.951
90.5611 145.872 124.709
91.0239 194.958 38.7702
48.4497 145.972 254.617
93.5495 159.361 215.255
115.148 293.781 163.645
101.861 286.161 116.071
97.4455 202.459 100.356
111.645 169.064 102.655
103.309 169.096 49.1924
100.654 114.866 238.92
41.519 83.8472 309.377
92.5828 151.33 297.148
102.452 111.479 298.669
81.1341 163.364 213.3
102.36 177.032 54.962
83.6053 113.994 228.7
76.8975 178.696 27.1818
124.187 164.395 272.736
85.13 69.775 313.165
87.9794 144.805 275.006
98.7417 170.295 257.954
107.38 225.424 86.974
99.12 119.347 254.862
91.4176 52.7786 272.695
84.4384 82.4302 266.239
87.9421 191.652 42.5303
107.953 175.54 39.9418
44.5636 237.272 158.968
79.7185 185.705 245.509
100.428 198.013 93.9492
111.274 163.539 123.537
85.5308 101.631 247.192
75.1321 182.696 278.709
74.9099 53.9161 319.061
69.6246 149.553 123.092
85.9137 128.118 288.224
124.871 130.345 259.308
116.588 132.998 229.902
113.876 107.929 299.196
90.9063 182.223 251.813
48.4763 239.803 161.425
83.5509 115.981 291.401
106.11 301.661 158.102
90.0381 185.138 241.051
92.19 146.036 219.537
95.1714 60.236 284.527
56.5519 176.644 110.74
70.0648 97.7101 269.12
60.2944 80.4708 268.13
83.7646 195.348 50.129
78.4314 153.158 215.343
99.0201 191.136 101.603
63.3915 178.478 103.806
125.334 133.337 248.886
46.6728 136.31 285.663
95.8732 314.001 121.102
75.5778 201.899 122.873
68.7158 177.548 51.699
113.884 164.59 212.848
80.6316 196.435 65.3098
82.9127 29.5205 292.516
80.4108 126.16 292.195
97.1645 185.983 236.719
86.3596 45.5969 275.463
91.0308 126.629 220.352
77.9451 213.018 97.9154
89.2479 148.059 43.3286
69.5543 182.407 279.265
72.887 184.464 102.312
132.505 146.967 237.505
104.494 266.031 103.503
