ply
format ascii 1.0
comment Created by Open3D
element vertex 1383
property double x
property double y
property double z
end_header
43.9983 10.5444 141.459
51.2879 255.066 232.32
22.8608 213.828 136.062
51.2157 123.719 226.792
54.8301 68.5727 104.795
26.2441 165.338 190.636
23.1933 226.014 165.909
27.677 256.177 218.16
71.051 72.0098 176.361
37.4972 99.6716 65.9686
23.4824 190.479 223.31
54.2345 66.399 124.47
36.2741 285.975 95.1526
52.0196 76.8612 86.3242
38.1658 111.196 185.722
31.5631 246.114 62.823
49.6518 303.991 126.285
25.1758 232.483 115.075
65.091 133.948 40.6342
25.6124 194.918 161.879
44.7752 151.822 133.326
52.8806 102.128 111.279
31.7538 290.543 113.582
42.8146 185.357 113.941
50.4688 41.1852 125.068
24.8005 234.843 76.2083
35.5628 127.569 139.185
24.2495 166.649 110.691
34.2464 258.618 68.5631
23.8096 259.921 184.512
54.4272 263.403 102.707
42.216 298.29 165.935
42.4707 303.278 124.175
32.8352 141.489 94.0312
23.3608 191.906 116.524
65.6832 118.242 103.698
61.596 285.208 71.6169
56.7305 104.306 215.925
67.0206 309.493 133.03
39.8726 91.9157 76.7654
29.2464 185.688 245.693
26.8085 146.194 223.603
35.7572 111.591 162.355
26.2675 267.759 139.497
33.437 267.419 217.219
25.1163 268.854 117.135
43.0072 162.205 136.422
26.0888 273.529 193.366
64.0235 66.2543 159.948
57.6927 296.39 95.3748
23.2465 112.802 82.1972
49.0174 147.886 106.192
27.0677 127.561 154.113
32.607 294.163 130.491
41.8214 45.5353 156.868
23.7289 197.102 108.338
23.7845 177.619 225.807
42.3555 148.758 238.039
65.0846 287.086 82.6998
26.4205 249.615 223.725
49.0474 292.869 91.2386
22.7472 138.114 189.183
50.4392 217.993 70.5776
25.7129 186.73 103.94
23.4326 200.922 232.929
51.2413 83.8157 99.0273
39.1677 159.708 241.74
25.2187 217.964 215.86
46.4993 84.7231 149.203
31.929 279.909 88.7252
33.4338 191.066 61.076
56.8438 146.887 251.233
20.2024 38.9461 259.757
43.1643 173.058 136.895
78.0256 75.6949 168.127
27.1068 253.595 136.995
25.7028 204.886 164.779
48.1245 140.34 237.63
29.6425 283.12 191.78
25.5191 235.777 124.262
45.5001 157.254 143.893
48.5578 209.274 76.0182
40.4661 103.194 87.2175
22.5874 214.901 166.76
53.0291 260.574 119.13
35.411 109.999 72.8015
37.8897 212.158 255.734
24.4052 202.189 133.926
59.4694 215.479 200.881
77.3292 139.759 254.316
25.6197 281.072 135.831
27.0249 240.893 131.069
42.7632 20.4022 161.272
65.0176 175.047 242.696
42.8189 227.339 38.7197
26.5455 216.374 87.2671
40.8931 50.9382 138.033
58.1335 120.527 231.413
44.7799 212.878 125.059
56.4807 128.18 123.665
23.7269 231.889 157.845
64.7863 99.1288 221.917
49.9291 94.8516 119.955
26.3739 228.613 82.3297
71.3397 113.289 190.07
41.8603 192.011 255.722
33.8078 139.536 225.989
53.8621 302.242 150.055
41.1531 148.289 47.2875
23.6723 194.787 170.877
43.047 215.747 35.7364
24.2123 15.7976 136.438
24.0727 236.918 231.975
72.7734 111.025 200.557
49.32 208.829 149.713
47.3073 107.974 195.248
37.5355 31.2357 122.32
27.2824 244.404 121.843
62.611 125.05 192.03
54.4994 176.978 63.0012
22.5844 212.827 155.672
44.9408 163.564 90.0056
79.4452 298.397 142.933
40.2923 287.525 202.307
60.4954 267.288 54.4112
24.2571 239.725 102.641
54.3473 65.2837 136.328
55.8076 133.774 114.235
46.1269 240.857 38.7411
22.3196 194.964 210.953
78.8384 95.7776 128.342
59.3035 61.9863 145.451
26.7052 149.362 103.805
50.6044 101.064 87.6241
22.4835 115.646 117.589
44.3291 92.8472 179.098
24.4471 184.392 195.686
67.8337 209.284 37.3618
51.4639 24.7433 123.466
32.1967 67.3773 128.717
56.7351 207.565 258.442
73.9126 129.018 250.76
31.6241 236.279 56.9718
72.1665 67.455 165.297
59.2667 186.678 56.6296
23.8216 214.909 175.363
44.1725 215.978 105.868
26.0831 287.028 162.02
52.9561 183.153 256.592
50.8479 89.8135 179.561
51.1112 172.028 252.349
56.4551 238.532 178.704
31.5856 163.657 144.873
51.2082 300.561 105.776
30.2184 278.026 173.818
78.4021 172.474 255.799
43.954 173.529 120.393
51.9359 68.2139 147.468
24.0434 155.389 191.159
54.7918 302.95 167.534
25.3426 25.6012 156.312
35.1727 295.098 142.483
25.9367 240.955 113.244
35.5134 307.186 260.505
52.2666 164.186 199.199
51.6829 144.661 187.674
27.42 135.161 149.905
26.459 261.032 128.628
24.3734 262.415 210.251
23.5225 226.056 216.04
20.1943 78.3858 86.3728
51.7528 224.952 32.2559
56.769 223.738 252.917
43.2117 98.7422 172.938
23.2276 205.773 223.589
44.4069 195.111 132.456
37.7616 120.36 108.008
67.4264 63.2599 149.564
25.522 130.825 171.076
64.2177 139.234 218.126
37.1413 298.141 158.339
40.9129 257.07 232.234
80.1542 272.504 184.329
71.4106 66.2776 140.116
31.8752 114.254 66.194
47.0452 186.826 169.094
26.7258 50.392 280.526
66.2775 112.122 154.526
28.9921 311.845 248.31
41.6586 205.685 97.3665
62.5474 71.1844 175.962
68.0932 76.7321 185.964
36.1786 122.343 149.272
50.2526 300.437 182.506
26.751 256.014 108.929
27.6234 287.792 151.242
47.3391 266.229 224.821
57.1967 243.525 71.2507
24.873 232.36 131.921
35.8825 161.633 69.1272
21.6907 186.919 178.143
27.3453 55.5805 96.9153
51.7275 235.228 35.9817
57.1142 133.271 243.978
42.2166 146.903 61.5331
41.7186 107.013 176.196
52.2597 252.997 126.474
56.4478 141.976 76.8378
37.3967 248.153 55.9192
26.3895 195.675 100.331
22.8133 235.98 174.08
68.3169 248.55 204.442
31.7851 160.038 237.194
43.1638 202.998 118.86
45.5202 233.208 112.389
32.6578 179.605 73.4297
42.9648 127.534 222.574
78.7637 110.014 220.051
27.4255 280.691 157.128
30.5929 174.795 245.092
40.8861 177.17 251.602
41.6356 297.096 147.324
22.7027 186.995 215.967
48.2815 114.121 74.2905
24.0883 227.285 184.309
72.4933 79.5701 193.625
37.2103 61.3133 112.361
54.8817 128.389 134.902
44.2482 93.1099 164.257
22.0621 56.537 291.731
53.5755 276.29 58.2555
28.0782 257.177 120.387
47.2018 150.671 150.31
47.4551 266.506 56.6631
45.1382 223.179 116.287
28.8108 37.7662 158.741
23.9146 212.677 191.622
76.5862 96.9421 74.1017
27.0669 122.022 169.106
63.078 143.976 49.5164
53.4251 267.016 50.3365
44.6888 300.641 134.456
62.0497 278.039 63.4601
45.0515 187.134 136.585
33.7813 158.919 76.5071
33.8015 249.985 234.516
25.1375 192.684 239.374
33.5782 115.625 153.233
28.1 43.2376 150.429
36.2467 117.395 205.698
80.6176 96.2461 206.699
33.6341 189.585 70.1208
23.2978 174.29 194.944
77.5692 82.001 130.967
27.6862 224.182 89.6375
25.3238 221.346 130.48
38.6091 297.862 133.563
20.5834 82.0967 122.697
50.3963 122.405 86.3931
34.901 274.62 81.7777
55.7552 297.225 185.999
36.5837 3.40372 250.141
37.9146 73.2321 90.3313
24.6805 136.748 197.034
23.5714 186.03 170.945
39.6322 86.6328 69.1709
52.4738 208.503 160.533
40.5375 188.701 154.556
49.037 192.894 80.5713
25.9588 252.21 188.983
25.3751 185.721 161.553
29.8529 94.1125 53.245
72.7854 75.6557 87.8564
28.8873 205.93 247.42
38.3876 117.066 91.4273
60.2121 141.138 66.456
22.4985 221.65 155.365
23.1959 63.1013 92.5507
24.5462 244.877 94.0028
41.4318 14.375 130.697
39.5918 235.981 44.7509
22.3827 137.966 178.476
57.5142 34.5676 125.63
40.8364 268.844 67.172
23.7239 203.878 209.247
25.1189 23.9037 130.569
23.7256 145.47 184.74
44.2152 116.584 68.4128
57.9293 264.302 93.0298
25.2753 222.618 174.181
29.5026 203.209 76.586
44.3238 116.933 53.0404
77.8824 153.834 258.428
79.35 84.6429 93.2209
38.5938 277.179 212.244
23.2468 195.795 182.297
22.3185 64.7932 79.5097
44.146 158.589 109.182
72.7089 114.092 65.7137
24.2558 151.327 171.675
35.8182 59.7478 93.8978
47.1974 286.583 72.0199
25.0452 237.696 87.8103
58.8861 184.15 259.625
24.0489 245.712 157.942
21.941 207.782 178.632
19.3548 106.247 86.0935
38.4059 10.7569 152.338
32.1867 293.016 168.723
47.0365 283.043 206.802
36.7708 48.4961 148.745
79.3504 193.761 260.292
72.5972 172.696 266.129
59.386 79.1791 178.811
32.8362 276.881 104.609
42.9968 194.097 122.01
53.8687 72.4002 49.3748
44.043 298.259 180.222
59.9027 211.786 183.346
48.7716 218.219 83.4587
71.0323 111.795 82.8675
26.7171 48.973 254.727
68.9154 130.049 212.329
48.279 108.661 54.5387
30.4282 194.406 249.007
58.0711 290.916 190.66
25.2949 180.038 144.169
24.9536 170.677 232.483
26.4799 230.4 68.7379
28.0666 200.666 92.4981
27.334 269.005 105.932
50.2272 108.897 80.1306
29.1913 228.798 243.016
48.8863 303.773 115.793
43.5756 33.2074 164.863
34.2332 289.194 177.471
35.8066 124.681 95.6954
75.41 243.141 240.097
24.5886 245.705 137.027
54.2918 76.2845 177.445
66.8644 84.3675 199.456
36.428 226.921 249.871
80.8696 85.0529 149.132
59.0906 301.097 105.212
37.7673 171.427 246.351
24.9029 267.533 202.814
30.5684 284.516 169.472
78.5006 87.3292 198.267
24.6073 74.3937 128.982
50.8519 197.664 257.527
54.1516 249.129 77.1773
27.4084 149.138 160.393
42.5911 40.8925 122.732
45.4453 306.563 258.561
60.7879 134.386 251.816
63.7029 151.479 259.081
26.6124 209.665 93.1393
53.2449 247.832 40.5371
32.6809 117.371 196.654
52.6325 236.866 76.3503
37.2091 268.482 75.4389
35.6144 201.185 254.567
40.1756 279.718 84.591
76.6309 97.3523 164.521
68.9418 274.861 88.9224
51.9675 23.7489 158.83
72.9257 283.492 101.13
20.6043 91.2217 122.013
26.77 191.594 154.967
24.087 194.679 198.686
48.5074 115.632 123.161
30.5716 165.421 83.3001
25.2265 132.215 181.31
26.4569 132.192 212.874
25.1376 267.914 127.68
25.6726 167.937 125.247
62.8966 233.175 53.0372
30.383 200.073 141.679
56.1083 122.816 163.08
57.2558 284.569 199.94
28.6667 125.783 85.8574
56.6078 247.323 238.003
79.3468 299.311 130.54
29.2915 126.657 161.798
24.3736 124.853 178.233
31.6185 123.961 210.874
49.4686 97.5947 65.4032
41.4289 219.511 255.278
24.4432 243.556 186.453
24.0511 170.284 205.068
37.9343 298.284 111.571
25.7813 167.392 174.293
28.3997 208.952 81.7149
35.5129 136.706 130.88
63.4161 120.283 122.768
53.6098 206.631 64.8939
78.1425 106.694 206.544
26.715 224.663 102.35
46.3199 212.767 256.843
66.9283 132.85 256.774
24.1788 222.379 190.904
34.8389 152.606 80.9186
57.2569 190.775 224.61
55.0482 84.293 68.0025
38.701 85.7987 92.725
40.7915 181.514 103.039
26.1714 173.314 147.867
36.3369 291.146 104.657
41.284 138.035 229.102
29.6991 225.893 61.1158
40.1085 98.3973 103.129
24.0326 32.061 148.162
24.0016 119.413 88.2956
33.8856 30.1244 163.159
33.9343 224.741 52.9274
61.8756 60.2836 127.836
23.723 221.653 224.29
66.4175 106.715 230.854
60.0808 83.1805 188.154
22.8074 73.3639 112.02
46.9115 150.363 161.648
39.6859 110.269 115.692
42.559 235.925 245.079
76.3862 68.0253 124.014
40.9606 292.396 175.453
26.7483 252.005 127.539
26.6758 275.741 140.356
42.8174 201.625 256.527
41.5393 169.121 98.5814
26.8542 215.906 99.7813
66.4243 234.283 219.493
23.0794 226.125 199.02
46.543 225.979 105.795
80.6336 79.8159 177.053
50.3374 87.7265 167.587
38.8679 109.865 100.498
43.4345 101.25 152.447
62.9208 144.83 227.088
36.4298 45.9396 129.031
27.0993 168.388 90.1822
64.8938 147.186 40.5626
36.2408 129.602 220.869
51.796 227 71.5451
26.3396 137.853 164.239
43.8594 183.782 124.376
45.7364 101.3 187.969
28.7268 246.502 75.4317
44.4252 84.0653 169.885
38.8175 169.555 50.5749
50.3456 90.8147 186.163
68.6506 126.593 51.8298
25.4603 208.945 215.889
47.9066 233.606 124.141
57.9802 228.997 166.975
37.1499 78.4039 61.6733
20.6714 106.387 121.603
63.5765 185.513 242.475
41.0396 92.3311 86.7822
49.1383 161.133 251.401
52.9344 233.43 246.785
57.3337 150.873 66.9207
42.8398 97.255 158.342
32.3903 214.221 61.8329
27.487 154.243 229.862
35.9627 296.957 120.344
22.4959 187.251 203.078
30.5432 126.364 103.517
26.1414 250.572 88.4974
58.5309 198.813 217.791
76.4165 117.339 230.349
41.1748 112.716 152.084
58.093 40.9463 134.779
48.0827 174.356 80.495
24.2263 244.172 177.127
64.8765 231.49 249.328
27.7406 219.259 77.1666
39.0904 221.435 154.517
35.5054 211.258 53.5634
24.2782 249.4 102.453
54.8459 152.355 196.589
31.3252 294.552 151.035
64.7024 137.72 230.424
75.6925 286.298 148.008
25.4717 154.277 183.252
21.9763 203.055 192.424
33.4538 83.7655 55.6983
29.8264 143.798 152.083
38.8278 160.89 56.6141
26.0482 139.726 206.867
61.6027 116.678 145.044
40.3288 78.4877 78.147
42.7475 160.543 152.529
67.535 229.699 227.063
57.2649 16.68 140.946
26.4259 33.2975 134.915
52.2802 254.245 90.1483
76.548 285.161 130.156
27.9472 247.25 231.549
41.7322 169.002 110.442
60.6427 205.413 27.1514
28.365 261.133 81.315
53.0867 193.13 203.333
20.7349 81.514 72.2836
36.3029 238.821 51.3137
56.3986 311.566 262.11
46.819 73.6996 141.364
25.1394 152.586 210.839
20.0274 101.64 110.865
57.2674 251.279 167.016
23.36 253.583 207.616
56.5464 301.531 176.059
38.6048 319.095 269.497
22.8162 236.8 150.162
47.5155 165.651 190.662
41.6479 136.86 50.3718
47.1691 211.674 135.724
55.5437 247.534 133.046
42.4101 255.201 53.434
33.0264 173.254 129.585
57.3654 222.31 213.714
50.6358 258.206 47.0754
39.6688 98.296 120.297
50.1356 130.958 148.196
53.8608 215.244 256.346
52.1728 143.904 243.727
66.5428 162.317 37.4839
60.1988 303.276 114.48
45.3528 151.782 122.197
47.6038 236.354 96.6333
35.1498 149.68 231.842
22.9643 176.919 177.466
47.2974 299.767 151.197
75.54 291.969 116.754
24.8943 230.82 96.8197
29.5919 217.921 247.42
51.4022 165.328 74.4261
24.9526 168.651 182.168
71.4682 66.7979 115.48
75.0836 81.2494 80.4351
26.4549 254.8 82.7922
24.7691 244.548 146.295
23.1775 178.028 204.386
52.1509 90.9895 70.9405
48.1036 88.5246 137.922
24.1546 121.198 101.628
40.1456 106.017 159.74
47.1203 47.494 150.197
24.2728 172.537 158.207
58.0644 260.224 81.912
44.1451 126.76 50.0617
45.1776 161.348 31.3467
64.7694 195.231 264.464
30.7259 284.605 106.99
49.3539 132.308 232.292
27.4339 185.404 150.243
60.8354 127.941 98.9401
49.5403 246.373 103.32
30.8824 172.207 136.632
42.2217 114.487 140.517
61.3125 267.606 156.67
74.4121 185.797 269.14
56.0786 73.1309 94.644
34.5876 90.1219 63.162
23.5139 66.1928 107.06
40.7304 262.124 60.1916
55.105 113.784 223.599
66.7079 300.617 163.689
27.1737 141.762 114.359
25.1632 271.316 178.903
69.095 292.031 94.4917
64.3637 184.064 264.477
45.9609 132.515 84.4128
21.1642 143.565 201.439
57.7316 267.572 129.542
49.9916 79.086 169.53
64.9646 100.36 51.0793
46.4087 225.635 251.712
25.2647 208.082 202.976
69.4061 275.029 205.615
20.9726 88.0527 56.6817
49.3497 188.009 73.692
21.1595 252.512 154.949
36.1063 187.989 251.785
58.0155 196.42 261.132
25.1026 177.212 216.441
42.1826 189.78 40.1925
78.4896 102.896 225.503
32.8618 57.7837 115.926
41.6877 292.396 98.1667
55.545 255.575 140.835
26.7531 263.074 103.74
44.1744 287.483 85.2222
54.4789 137.347 180.616
84.7549 238.514 233.242
40.3067 148.518 70.8344
60.0924 306.151 130.047
37.0236 110.661 83.8606
33.4527 176.031 144.361
52.8709 15.3397 148.594
56.6353 259.763 152.573
24.9848 163.482 99.4805
23.1481 249.505 214.263
52.2984 94.6183 103.614
26.5877 159.856 177.808
60.0396 27.2935 151.659
51.4905 101.664 200.983
35.9736 190.716 52.3719
56.1361 183.079 228.19
48.6679 90.377 89.9643
38.0991 75.7085 100.275
36.4304 69.7558 70.8375
62.3302 63.5047 134.153
33.0105 280.489 199.362
49.8875 246.552 86.368
30.1353 15.79 157.582
54.5158 303.944 158.323
26.4163 180.322 96.0869
27.7411 260.021 170.105
23.2371 18.5695 147.267
23.0849 241.628 195.855
56.6287 205.283 199.517
61.7522 306.072 141.127
47.4151 276.668 214.473
47.4437 180.416 162.054
68.667 142.202 259.839
32.0883 292.07 160.338
24.7552 261.897 94.9301
76.7268 98.0425 152.723
57.4855 226.892 199.103
36.6141 145.061 86.4593
57.1288 205.69 223.743
43.7851 172.592 35.8106
43.062 210.517 113.848
52.5208 169.867 205.349
50.9735 94.8521 131.323
23.76 234.474 165.265
24.6745 194.02 190.041
64.2961 120.127 242.721
28.698 120.804 115.643
45.2658 220.692 90.713
44.3236 107.839 148.391
43.9802 297.36 107.331
30.4402 175.213 81.1653
60.3977 216.146 30.1684
40.5616 88.5452 110.456
45.2927 171.441 149.409
49.5864 139.754 137.534
42.559 248.551 46.7694
23.8355 221.783 140.128
73.3521 87.9141 204.923
25.0277 223.003 111.538
42.425 309.191 249.278
57.9679 130.267 187.051
48.4728 295.943 192.13
48.3809 236.961 83.9393
63.5691 221.331 50.0224
44.3158 114.108 204.004
26.5557 176.363 239.531
44.5306 84.0146 159.811
46.009 203.244 30.4596
65.0695 173.709 266.526
69.4422 216.67 260.676
34.2845 311.7 242.041
35.5939 201.815 54.1781
60.7689 214.631 227.721
56.4729 247.632 151.384
21.8707 113.297 100.837
50.8104 113.805 96.6924
70.3716 278.381 109.174
42.9975 154.57 39.1036
36.695 130.233 129.529
49.8821 97.2413 191.867
64.4149 269.17 220.794
39.4932 179.907 51.7001
78.8354 182.942 258.97
64.768 272.672 133.355
41.768 140.575 77.4955
60.468 292.35 85.6904
66.9717 255.632 59.8164
31.4682 195.191 75.8134
22.555 206.215 185.362
74.6722 306.461 130.091
60.1157 96.567 211.518
25.6011 251.918 176.334
52.7368 85.1459 79.325
55.1937 81.7079 47.5794
77.5268 74.7496 156.039
39.1962 81.0432 121.638
56.6072 134.907 92.2998
50.3898 301.704 138.354
34.1307 110.586 175.147
46.0116 241.43 110.742
39.8241 166.913 61.3755
50.84 288.709 79.4009
50.5314 246.031 117.212
46.133 171.934 168.271
24.633 240.489 217.064
30.551 59.2613 79.3485
53.5272 193.139 64.6318
33.6443 175.613 65.2548
32.175 169.321 73.0175
49.876 101.582 58.0804
59.8276 255.487 43.7943
29.4672 195.445 85.3056
43.3952 93.9268 146.412
50.1447 214.469 28.5222
66.6098 115.05 182.479
48.2807 300.808 166.474
28.6546 282.496 143.553
49.47 7.73234 224.587
25.1603 273.393 131.892
24.5297 239.575 158.923
19.0032 88.3487 96.318
41.93 180.548 43.2582
57.7147 224.989 58.9241
47.0015 108.822 206.082
70.9436 264.452 64.721
27.1325 266.016 152.673
30.9161 116.203 169.838
64.0247 222.179 229.922
46.4075 187.303 88.4938
49.1612 253.063 112.036
30.9599 252.318 70.6203
62.2013 23.4772 135.939
40.8798 102.89 167.16
60.5003 168.335 229.953
44.5189 163.353 246.881
77.0591 91.0858 98.8623
28.4568 219.787 68.6974
24.8784 199.369 217.948
60.1348 238.464 246.912
37.4644 245.854 242.37
36.9717 40.3044 160.913
56.5366 99.6205 50.4287
24.3595 126.856 191.567
45.7181 122.01 215.942
23.6746 146.562 194.265
45.301 126.289 67.452
53.9824 201.468 189.252
45.7793 149.797 92.3187
33.8594 182.75 61.1857
26.0828 206.585 100.879
61.7449 263.524 166.352
47.5622 68.9953 57.0258
57.383 212.013 216.363
55.0644 162.658 64.7433
24.2937 163.992 202.052
48.8026 120.56 43.4795
49.1327 133.11 37.9891
38.4365 318.363 48.0104
63.6173 170.289 49.0867
59.9955 150.611 57.1721
80.8187 222.54 255.972
62.6489 167.756 237.017
23.4098 168.223 212.691
64.9929 133.51 56.3497
32.3997 207.447 68.0809
30.6465 318.968 235.022
31.7037 298.828 246.504
29.6767 276.191 185.311
22.0059 150.631 202.301
27.9919 290.701 141.239
65.8576 305.388 147.261
66.732 199.318 42.1234
58.0798 241.149 162.41
66.3021 180.991 35.0758
30.9083 43.8839 139.039
48.6767 155.341 188.627
67.8213 113.111 136.75
62.4375 195.076 237.479
53.7095 216.28 157.572
55.2058 286.737 68.0814
43.7562 118.387 130.699
24.0053 163.347 227.397
64.5046 271.475 93.6995
30.7482 9.16928 145.467
22.9121 36.911 249.328
60.805 85.7664 199.177
56.9351 211.018 58.2436
29.4988 139.822 216.393
42.4142 171.924 44.0335
59.5113 224.087 191.172
23.4448 129.259 199.949
61.7067 232.796 37.5982
22.8526 201.727 199.857
27.0457 189.794 92.9953
65.3571 129.936 202.356
34.8119 20.3112 124.091
50.4767 15.8858 131.191
27.5239 276.192 112.836
78.145 85.645 172.2
50.5076 109.964 126.577
62.0299 66.176 110.652
51.1383 232.776 133.477
77.1907 73.3004 134.912
32.9907 179.605 155.899
49.9861 289.979 197.771
64.4046 127.058 72.9275
44.3668 13.5899 155.799
68.5792 304.022 155.974
48.4809 170.973 28.2676
73.3995 268.686 217.793
66.8014 113.617 236.313
78.9082 167.381 262.49
64.7402 220.624 257.908
20.5638 85.0868 108.911
23.793 229.643 206.022
53.6337 152.731 73.8512
51.7818 112.8 107.723
64.1805 255.052 69.072
64.8592 125.092 88.8697
59.747 121.019 133.185
56.9611 116.405 154.708
76.4571 72.4904 145.711
52.5461 93.7793 96.1847
67.2647 112.643 174.336
40.4284 119.02 212.344
23.3183 317.688 252.492
70.0551 110.128 104.708
25.7244 243.504 82.2182
71.559 121.532 56.0563
49.187 202.042 159.331
50.6929 96.2337 79.4474
27.0747 118.613 176.854
50.9644 116.43 214.827
42.9762 130.896 58.4626
32.2395 274.018 210.686
24.5885 241.327 167.988
25.1312 126.57 205.053
23.3649 180.012 189.048
23.762 146.731 176.842
74.4558 114.648 214.515
46.5471 172.295 178.767
25.581 259.258 200.926
51.0169 83.4358 109.052
24.8163 263.081 146.496
77.7209 104.405 193.983
28.9629 271.605 96.6607
41.3056 160.45 47.0084
37.2701 93.2508 130.664
20.4695 272.866 142.55
23.865 233.234 215.978
34.4419 171.401 56.159
63.8281 209.467 262.052
54.052 73.7709 167.425
28.7739 155.73 92.637
60.7812 274.9 212.686
28.5393 107.976 129.964
26.2669 202.363 173.041
48.0149 181.399 180.783
45.8927 154.927 169.298
48.9851 243.878 94.1706
71.1742 236.046 246.748
34.5841 199.684 60.2585
25.1756 251.956 199.098
46.4909 229.453 99.1694
47.9638 227.797 86.2983
66.3891 120.268 81.2096
69.4961 203.149 267.853
59.6042 123.524 178.983
22.7923 252.911 144.816
26.7927 214.066 107.058
38.3395 74.8866 129.493
23.9148 157.416 220.777
61.4051 160.705 222.504
27.778 67.8894 65.4142
27.8737 273.893 205.132
68.157 118.363 46.0268
56.0285 305.409 138.237
66.1208 153.789 30.6886
58.1409 188.638 25.6196
29.9629 98.7257 93.5301
68.1435 230.792 44.888
32.8525 10.9573 134.304
48.7368 113.029 135.523
60.7622 26.932 128.483
71.6455 255.539 197.621
30.0978 282.642 180.717
26.4062 275.557 167.167
60.4934 201.274 53.6487
52.111 141.471 99.0099
54.744 176.439 24.6845
79.7754 282.677 170.394
72.4554 111.445 55.0783
72.9553 283.969 89.2575
48.1747 197.586 152.608
30.2027 78.864 134.866
26.2533 232.907 144.818
70.4792 290.319 189.484
55.2741 91.6341 191.649
37.7188 118.326 138.944
69.0328 188.161 42.5013
51.7265 157.689 26.5305
71.2676 88.5504 73.304
25.4425 213.576 114.267
36.0078 66.3978 80.7931
43.5332 137.781 64.2267
40.3305 311.106 268.325
29.3187 299.385 234.869
54.2409 87.9092 119.065
34.0738 104.911 132.083
24.2561 227.897 238.204
50.6191 200.707 76.929
68.2048 112.664 116.04
51.6013 106.219 96.6788
56.6257 92.2198 200.658
25.5765 233.039 191.038
27.5738 250.061 114.136
45.5782 192.586 30.6523
41.2371 318.634 235.721
27.4648 92.6383 134.278
51.5304 80.4875 131.53
23.9675 215.211 207.236
50.1519 189.355 185.097
25.777 206.411 109.258
26.2166 241.599 209.136
27.1258 262.971 113.103
27.8578 288.429 129.36
73.758 103.143 170.064
39.3833 211.193 44.7534
47.5839 96.5125 138.299
56.4055 203.933 209.221
34.5983 122.618 80.9581
25.439 65.6753 121.323
54.2443 200.122 176.45
22.2107 216.909 183.119
20.3117 109.561 105.948
53.2693 200.952 25.3487
59.1814 153.997 26.8061
60.833 110.582 44.2274
61.2669 93.823 204.953
39.3692 153.671 59.6671
72.1849 102.764 225.504
47.2282 160.368 181.235
72.5401 108.573 129.715
23.9247 242.629 202.773
49.0745 190.425 161.271
62.9194 153.897 228.069
59.0991 69.8509 168.341
73.0773 103.363 160.157
35.2551 260.882 225.655
44.9439 207.979 88.5811
56.5883 319.128 243.813
32.3916 266.557 79.478
66.8114 127.321 29.7518
56.7258 196.058 56.2372
80.3621 91.9586 147.032
66.0739 73.1868 83.1928
61.1998 318.646 252.72
65.6808 195.445 33.1774
49.0769 72.2534 132.509
39.3455 141.315 106.114
62.944 123.062 39.1597
67.9576 267.623 173.862
56.2234 230.893 66.4456
72.6467 280.106 160.919
47.4599 223.741 129.907
31.2127 270.119 89.5292
26.7828 75.9169 56.748
33.0875 117.59 125.646
25.686 113.088 59.3784
67.5251 178.103 41.5238
41.808 193.465 93.535
23.4424 156.057 198.091
50.3809 84.5161 87.7528
65.6172 276.74 117.512
59.9117 165.532 260.833
56.3355 262.669 136.274
34.3297 289.753 185.63
22.4801 101.137 55.7225
61.3726 236.886 201.732
37.8855 222.246 44.5076
58.3726 134.566 80.7147
29.6644 210.563 141.228
77.0011 148.514 249.964
28.0708 163.685 155.363
55.4327 305.159 121.633
48.5888 107.741 67.2823
71.6199 120.813 211.247
69.3112 266.998 182.084
75.4777 306.075 148.703
53.3259 74.5169 158.423
73.8825 104.219 112.892
49.4177 131.372 155.723
47.0429 182.698 254.564
67.1982 248.166 47.6486
79.4848 299.935 162.418
63.966 178.339 49.3453
63.8623 244.471 40.8695
59.4205 253.375 175.456
44.7426 193.259 189.545
59.4544 166.73 55.54
55.7732 192.306 233.152
24.6044 85.1488 128.288
44.0469 319.664 35.7806
39.4938 185.114 190.839
24.5229 235.318 204.648
38.4953 67.3046 103.936
39.9214 69.5814 111.611
80.9066 89.6985 184.723
78.2298 93.5583 175.57
49.4069 103.546 130.853
49.9725 163.06 82.2819
49.2742 242.553 123.51
53.5601 184.119 211.078
60.2134 78.0953 74.8068
52.2152 181.925 69.017
28.4186 284.502 117.164
62.0761 208.896 50.0475
60.2792 302.359 151.794
60.5963 139.437 31.9605
70.6447 154.195 244.352
51.8366 221.435 138.422
61.8829 235.545 211.021
27.1089 224.022 121.616
53.7318 32.5613 161.904
50.1456 296.453 98.8362
46.5842 200.436 146.274
63.0913 160.254 231.851
66.8739 266.396 78.8635
26.1287 269.575 158.808
48.9046 102.861 72.8434
71.5191 285.24 196.764
28.9255 238.309 236.915
49.361 84.7608 119.322
67.7808 133.295 221.498
64.6445 66.5886 97.0584
29.6693 184.976 81.9965
38.3556 203.507 46.6305
70.7724 106.628 94.3669
80.3762 82.8931 117.244
22.7959 165.978 150.532
27.344 279.093 127.27
70.6734 140.471 236.991
24.5549 260.992 139.205
29.5554 268.332 167.071
44.9878 276.569 71.4783
52.0759 89.9536 108.702
23.3348 166.771 219.306
74.1389 120.369 222.607
53.0504 172.421 212.702
69.75 187.818 247.647
27.6297 180.158 122.263
55.2799 147.206 200.433
68.9606 210.317 243.582
50.7071 101.472 122.797
62.7361 154.216 209.15
64.3149 286.047 194.977
42.5518 21.7679 208.536
71.5269 104.601 151.049
56.5206 174.021 228.738
46.9221 131.462 74.5406
73.3515 95.9657 214.069
73.8619 285.377 111.311
19.7635 97.9198 73.4173
44.6482 33.8898 265.163
68.9947 281.204 127.22
24.4402 222.351 205.253
70.4981 65.2344 129.717
67.1295 278.761 135.506
67.3151 124.775 63.1412
59.3898 228.706 178.643
28.6993 239.364 67.4162
58.2607 180.859 236.898
64.4626 303.996 121.843
51.9837 82.809 182.772
63.8934 273.005 124.36
43.1295 293.554 189.928
50.2912 195.935 168.58
24.8784 234.522 180.89
48.6463 144.689 170.405
79.453 268.819 212.925
84.767 286.014 180.912
59.7638 271.166 103.626
65.1398 246.869 195.039
22.2056 303.803 240.653
63.4065 188.741 48.9217
77 75.7823 94.8487
26.1033 255.907 152.326
53.4836 109.848 44.693
23.972 211.567 239.748
24.3851 188.542 230.457
24.5119 256.486 96.822
50.3964 255.991 104.498
46.854 198.568 86.1761
66.74 217.527 41.5748
42.3128 181.339 94.5667
72.7478 189.86 253.467
71.5835 70.9749 96.9739
80.8747 298.247 152.436
64.2887 243.058 243.878
50.1837 150.81 83.4758
69.7 65.4515 106.596
78.2869 237.956 244.607
41.0298 56.5194 47.5832
24.0197 214.377 198.206
48.8653 314.685 242.784
23.7719 225.86 231.204
68.2537 279.322 72.732
78.0981 267.461 189.821
79.0446 97.8794 190.625
78.2451 177.632 265.851
62.7928 259.486 177.028
23.4222 102.017 128.041
52.0826 124.271 145.185
51.2733 141.756 119.554
59.167 241.269 64.0314
25.1372 159.189 109.373
46.2695 75.5642 152.794
71.2036 278.178 80.7086
48.6564 184.391 197.344
70.2394 271.068 70.8027
54.9526 92.9732 59.8402
43.1093 122.272 61.4574
43.4318 249.198 236.776
75.2925 129.897 242.173
62.1419 156.598 50.8877
65.7433 61.7209 120.171
41.1444 112.705 195.727
41.4255 24.0941 257.087
55.1034 126.284 37.2465
20.5308 193.34 154.897
66.8015 123.423 250.209
63.0686 86.438 65.0017
51.6064 48.6667 135.702
57.1194 167.214 219.495
73.1047 224.282 257.777
36.0327 319.89 32.4224
22.5816 260.888 165.897
34.8963 19.9479 220.017
40.8139 131.903 116.511
25.1013 220.632 147.329
76.4951 97.1395 92.9116
59.9529 204.185 238.689
24.5293 290.716 241.351
47.4077 82.6171 48.0573
71.3989 273.18 166.327
43.388 132.884 96.7965
68.3855 258.012 53.1211
70.1334 301.633 114.532
26.4786 182.223 183.984
26.6421 148.703 136.291
52.5054 142.465 30.2171
74.0031 261.614 193.963
29.8538 161.491 164.599
72.2635 130.32 231.558
24.9024 233.048 139.087
69.0797 121.382 67.2793
69.2132 242.716 212.056
65.9775 270.387 163.436
25.7735 264.797 191.873
34.2654 135.882 139.14
34.1922 133.78 121.647
32.1206 141.849 143.028
22.9892 147.848 216.704
28.8101 196.158 125.351
78.1291 109.114 135.118
79.6805 204.795 254.303
75.2676 103.497 87.2805
53.9171 187.381 217.862
55.5331 66.4703 114.524
49.7235 11.2243 210.932
69.1441 100.809 58.4866
62.824 272.263 146.297
46.4743 188.274 148.654
71.2898 299.796 175.988
42.402 201.238 39.3844
52.8072 130.45 171.516
21.4362 110.75 69.3922
59.0093 237.754 190.415
60.0005 126.783 110.414
71.3064 248.739 239.552
64.1144 245.256 57.2419
24.4566 196.684 148.823
31.2081 119.542 160.783
27.0002 156.856 157.578
82.9739 228.434 238.363
75.9854 103.443 185.2
48.4723 175.675 192.414
25.2875 211.065 145.945
73.1506 282.953 137.683
27.4932 281.873 122.365
75.885 254.697 204.713
38.3158 193.25 46.4334
30.4869 274.273 153.048
83.5038 289.64 172.44
51.5839 179.135 204.15
26.0795 175.239 91.7539
72.1924 307.168 140.211
23.0578 185.24 210.408
66.642 160.354 240.912
37.2991 21.3056 228.062
49.5774 80.2 159.853
35.4424 180.198 55.292
62.6125 213.584 236.542
54.563 44.502 149.338
53.0814 317.267 268.762
70.7712 154.331 263.961
29.0784 205.269 156.435
29.8342 205.341 122.307
40.5963 195.872 105.243
67.0734 254.393 32.1065
73.3672 66.8236 151.776
70.4179 279.213 151.41
57.2498 211.393 167.087
79.1811 260.135 217.446
66.7976 270.265 61.8186
68.4183 293.366 182.675
26.3614 203.943 149.141
76.6285 115.481 237.448
67.8731 118.939 196.655
46.7598 79.2836 143.261
23.6583 161.747 164.402
83.0431 221.401 246.334
56.8176 228.32 158.004
69.4579 279.814 144.648
53.8227 220.265 150.473
52.2501 108.618 217.228
65.4051 140.902 208.009
70.1489 161.572 265.213
27.2543 272.876 147.316
52.857 100.591 97.5086
76.2545 75.0844 104.212
62.8902 138.733 200.334
74.3821 245.356 216.635
46.5758 160.861 174.225
85.7744 250.644 213.759
29.0048 151.382 129.312
25.8503 137.363 120.109
36.8643 287.746 196.06
68.7507 259.885 223.782
44.7143 182.683 34.5878
82.0241 79.2529 103.349
61.6602 145.624 199.383
73.05 101.923 100.064
27.0137 63.2941 113.61
39.5136 143.428 100.748
73.007 111.451 73.3198
23.0463 213.634 228.185
22.6262 247.56 168.837
80.7159 278.993 179.759
59.0917 203.031 231.263
78.263 94.9976 138.282
74.149 299.127 118.566
65.851 84.7352 86.523
64.1547 31.2107 140.437
45.2183 203.86 138.294
77.5742 88.6837 138.094
69.1294 125.761 221.815
70.9904 199.557 249.892
45.1728 90.662 151.03
57.3681 161.652 211.681
78.6572 93.7835 196.082
65.0119 299.528 108.13
38.8706 30.3246 247.782
23.5291 159.685 206.78
53.2105 104.207 209.324
76.4459 280.414 199.05
63.62 248.948 239.013
79.0242 237.18 221.026
54.5149 231.95 150.206
34.2909 236.789 240.603
63.0294 224.742 29.9397
80.8798 285.867 190.885
29.23 28.4847 256.704
78.5862 212.739 247.872
42.611 160.482 159.486
63.7379 150.501 220.507
32.9068 1.69108 286.921
72.8386 140.802 243.237
48.2113 241.393 237.154
50.5721 144.2 176.598
77.4046 69.5093 158.38
76.7128 90.1801 81.1967
50.0876 75.8224 102.898
32.9351 41.3125 243.588
40.4041 31.2608 222.477
83.3197 273.79 202.972
28.3171 319.968 268.276
84.9626 272.378 192.957
25.8421 233.042 225.803
52.8002 121.669 102.06
56.164 156.499 251.17
65.9325 146.318 238.621
63.7395 181.643 28.3958
67.6168 171.348 27.3941
78.966 76.0189 112.342
40.4203 52.4088 257.392
66.6676 274.072 155.634
25.7659 261.283 154.471
75.2784 283.174 122.23
72.3634 278.841 172.553
27.5156 117.608 187.237
75.9065 160.89 249.927
77.7495 99.744 143.801
49.7322 34.0138 143.032
52.3452 224.904 144.323
24.7518 247.96 204.468
63.9518 200.762 245.373
48.0836 177.263 86.9265
63.4006 255.367 232.798
62.2736 175.43 25.3178
77.6066 96.3411 117.478
65.3179 111.324 165.339
79.1185 230.358 249.669
46.6065 142.501 36.7888
74.4399 198.256 267.426
60.6845 166.926 25.1007
52.38 4.41107 259.823
48.2556 27.1791 210.97
25.9757 144.093 129.284
80.7872 295.617 176.539
58.9774 247.796 187.059
76.2887 93.0128 86.1277
54.0863 240.701 141.057
78.9228 88.7793 121.87
23.3307 320.273 240.094
64.2947 151.13 214.054
72.7089 177.244 251.319
60.0625 36.1458 151.401
56.7955 186.879 38.4989
76.3673 293.246 127.029
70.494 220.74 239.194
84.5263 255.639 206.743
40.5065 223.303 198.377
68.8565 168.38 248.217
65.2121 259.807 190.316
30.7718 11.9501 150.257
80.6523 206.686 261.982
26.3983 231.79 106.204
46.637 99.4149 145.13
77.926 289.646 138.325
63.118 252.002 188.356
28.3256 213.759 230.097
36.0214 26.4654 222.825
34.5668 213.543 129.076
74.9337 102.684 177.259
23.8497 81.7376 113.458
77.3895 286.031 161.579
63.4056 151.075 234.085
74.0082 126.392 235.287
50.3097 107.703 137.972
76.6548 229.78 231.36
64.5395 295.711 180.485
68.3339 120.492 204.366
35.9799 28.2036 141.257
54.3136 76.4517 115.892
64.0343 299.346 174.758
38.7731 7.24524 241.572
44.3432 216.381 94.834
30.7913 44.5773 264.855
49.5637 273.942 66.9946
75.8459 91.2355 107.625
41.5799 217.561 137.21
78.43 74.8714 123.483
79.1517 253.328 231.718
58.9974 320.477 263.717
74.4193 86.1081 186.077
75.9865 103.738 77.6258
36.2464 263.28 75.6894
71.1451 251.8 226.253
79.5199 264.436 197.411
78.4188 78.6034 147.948
73.9181 105.146 65.1306
39.6847 201.651 151.896
38.8571 233.204 126.13
85.0919 280.906 188.806
37.4877 26.1935 149.977
40.3267 222.063 140.872
85.2579 241.868 220.713
59.038 109.565 55.0269
59.763 267.266 144.88
26.5949 159.979 136.477
65.3613 112.952 129.984
58.176 262.651 223.444
41.2482 5.67567 257.89
70.3845 94.7284 56.2043
50.3587 40.0243 282.847
56.9452 11.0989 224.397
49.6756 277.956 73.6354
45.244 217.524 200.756
43.436 173.852 156.447
84.8686 256.151 221.905
