ply
format ascii 1.0
comment Created by Open3D
element vertex 1474
property double x
property double y
property double z
end_header
21.912 109.528 152.794
53.4274 248.642 150.527
28.4046 96.8113 84.6028
45.9306 267.266 267.657
45.5395 39.536 77.0156
25.4249 240.252 129.736
35.3756 269.517 256.042
54.2754 134.665 126.923
34.775 275.516 270.63
23.6527 264.993 237.095
30.3872 37.0974 36.9627
29.5574 264.441 249.073
38.5445 249.436 249.989
22.837 199.707 69.3829
69.5813 263.637 264.864
36.3537 269.174 214.608
52.9484 173.136 43.3029
28.1683 52.0684 40.3758
32.0637 291.001 208.511
27.6041 230.832 135.607
47.0261 123.17 131.059
26.1765 122.958 257.079
34.3421 226.044 70.342
66.7817 263.47 186.375
29.1134 299.521 223.015
41.1921 99.8747 55.5753
34.9005 297.575 229.114
47.9112 226.261 28.3435
43.74 234.159 62.6819
58.2849 183.762 101.318
33.7232 298.198 240.111
42.5535 274.593 76.5596
31.0167 71.2401 100.899
22.0519 125.243 166.275
28.6513 48.5772 188.219
35.8821 288.869 79.5538
35.7774 209.561 134.155
36.5523 46.0607 81.0167
45.3897 142.605 131.35
52.2765 69.0718 150.813
37.4034 168.318 81.6753
32.042 226.033 46.0778
32.6608 101.354 100.936
26.9454 24.9909 193.137
43.423 57.6557 146.887
38.1758 145.356 137.843
25.8957 213.554 135.651
30.7941 51.04 202.182
58.2449 280.158 85.9931
43.7633 46.1368 34.3743
45.2959 178.641 21.0226
22.6265 70.522 122.866
41.5032 287.467 233.7
44.6918 31.0002 203.657
39.0245 276.994 216.792
32.36 81.1361 111.179
60.9059 252.431 269.339
37.3517 236.392 128.869
45.4244 255.712 84.0587
34.7972 69.8766 136.285
28.6877 89.5279 109.771
32.2005 77.8279 68.9784
37.7624 89.7994 54.7297
37.6774 122.815 159.793
26.3178 258.729 84.3078
48.5763 282.307 69.9648
45.6347 46.6465 84.8051
23.6248 271.314 244.384
43.5696 237.182 147.955
44.499 108.978 96.0661
30.5106 205.524 82.9761
36.8416 214.152 92.7127
45.6592 213.757 72.9217
35.6586 220.906 156.846
59.1007 77.7286 56.444
30.4642 129.929 120.05
22.611 249.236 141.78
46.0382 249.395 240.822
42.042 49.4212 140.457
21.8667 228.761 150.65
20.8359 185.521 75.6983
61.1062 269.82 179.839
46.5977 206.826 100.846
28.6135 236.262 300.136
54.8372 296.726 232.343
32.2217 223.087 60.1785
50.3583 165.679 57.2582
23.2455 32.9425 193.176
62.9155 216.552 76.9523
41.2464 282.794 274.804
34.5079 235.984 152.165
36.878 228.756 169.238
41.5217 266.852 67.2524
26.938 181.713 61.2837
52.4719 46.1779 80.7329
34.326 46.55 40.6565
73.7883 202.171 47.4428
63.3319 262.639 94.1925
23.5252 118.958 136.238
34.5376 282.328 76.9933
55.2437 101.649 47.4464
42.0691 259.924 71.6578
35.0372 240.009 297.136
20.9185 59.9394 210.429
51.561 292.32 84.0267
35.6357 249.267 151.639
40.8816 272.818 65.3162
48.3127 50.4009 141.299
28.458 249.346 127.241
65.652 262.863 175.859
58.9605 247.059 263.058
45.9597 118.392 68.1187
41.7149 245.895 86.7825
18.9891 52.4516 219.625
28.1886 203.196 62.3703
57.1799 192.501 25.1971
45.0954 88.9105 50.027
30.1317 221.082 166.66
45.2435 116.959 176.986
49.2236 261.093 177.433
25.7091 220.274 156.951
48.8038 211.801 135.19
52.4785 208.895 21.0716
36.9652 298.347 209.62
49.1084 259.236 73.5055
22.2442 141.832 172.965
26.9795 255.533 247.752
33.6727 172.004 85.1052
44.7274 283.346 74.7455
59.3172 259.162 74.324
39.0807 91.4511 100.263
26.8502 218.064 60.5496
46.6673 277.432 98.6058
22.7512 135.766 162.613
60.8376 263.541 82.7432
38.2701 228.771 157.338
46.2053 92.1242 100.338
56.9934 61.7089 86.8511
28.0479 55.4857 130.295
73.482 199.128 106.099
41.2871 296.14 88.0504
34.7345 278.14 227.124
73.9473 48.0074 129.644
30.8385 70.4968 116.66
40.5578 250.962 122.829
50.4365 290.268 257.017
47.507 62.276 117.492
43.7569 256.964 102.532
37.1188 135.272 182.678
48.0258 42.9501 191.685
70.6263 82.2765 106.658
34.2912 129.387 140.848
56.6878 223.607 75.3383
38.6457 53.7406 33.0675
26.6121 81.765 88.2322
42.2293 40.96 116.684
20.1917 209.222 59.1158
36.0918 122.644 146.459
40.7704 60.7766 81.493
51.8818 65.7215 199.576
49.8731 272.473 196.463
39.9925 205.753 139.816
41.6137 102.923 77.0606
26.3101 259.373 258.758
60.9537 268.349 219.171
51.4916 273.992 187.001
36.4511 32.9942 194.518
30.3516 228.521 157.101
27.9438 197.941 86.5007
30.365 270.583 219.687
42.8631 278.152 232.957
34.3505 177.542 52.5089
30.1627 248.11 240.567
46.6165 255.271 190.954
26.5267 119.852 143.284
53.6932 286.57 80.0081
46.1915 247.216 122.56
20.6306 178.644 82.703
41.135 134.284 145.809
29.2709 263.548 268.086
24.1795 225.504 166.971
57.2196 275.21 78.3104
50.9494 256.169 146.73
44.0517 305.282 269.204
30.9798 256.748 133.267
35.2312 264.904 81.2266
70.3535 191.98 57.2293
53.7605 256.983 78.3733
40.9 185.613 59.7099
48.3323 286.298 276.299
39.9001 116.82 179.396
65.0541 232.588 90.9446
48.5168 274.89 74.4935
52.1499 248.759 269.429
36.0952 44.6179 30.3735
40.6556 257.187 150.461
36.6908 120.504 131.278
27.7034 288.837 224.862
47.9614 198.035 25.2363
27.0707 278.921 254.813
32.3006 275.306 93.8851
55.0574 209.43 136.228
26.2601 41.81 198.259
40.3754 256.991 130.99
55.4484 105.351 82.6045
32.1168 241.397 250.735
44.7317 44.5642 235.343
28.302 206.122 135.458
45.9459 266.911 82.5983
23.7432 132.177 129.973
49.8818 283.691 87.0866
37.6429 253.028 300.304
65.6944 254.699 263.561
44.7644 259.528 273.037
54.6756 131.451 169.772
27.5217 266.851 80.0628
43.5481 226.518 54.1774
59.1632 209.903 23.6338
58.3156 108.288 110.515
41.4018 62.9808 227.549
47.1368 217.408 166.921
45.0928 280.605 226.997
58.3355 170.431 75.373
60.1926 265.192 101.071
26.9697 127.253 143.288
66.7321 238.621 65.0692
52.5899 115.609 61.8296
37.7434 50.8918 212.93
32.0227 180.396 42.3621
65.6202 46.8873 116.472
35.8575 105.352 68.5802
35.1653 53.5785 131.077
48.6341 255.898 96.8407
23.652 185.701 35.777
21.3302 126.677 126.416
18.6464 23.7328 203.529
26.4669 121.479 170.428
59.5657 108.455 68.3294
53.8358 262.985 278.845
48.3995 219.719 96.1675
44.5922 243.243 260.187
31.5672 197.743 93.7945
27.3871 211.125 143.87
22.3664 50.6912 186.948
34.1413 34.3216 207.668
41.0862 88.7902 80.4886
29.0071 85.8315 68.1301
57.1876 47.8394 142.002
46.618 98.9815 89.7883
43.8737 286.865 101.37
34.6419 217.26 72.8957
47.8436 291.988 248.292
52.4367 87.7363 44.036
62.6287 273.78 86.9534
49.9134 305.831 263.227
75.2281 188.486 64.899
34.7957 183.119 34.4505
49.7561 239.82 157.555
51.9808 271.725 226.996
36.2894 172.337 74.2493
31.6248 285.426 82.8016
58.9394 283.11 77.8385
19.0698 39.3151 209.171
60.3521 218.265 24.6241
42.9587 108.22 143.389
30.353 121.022 131.741
32.1433 108.802 144.607
57.4321 262.495 173.663
36.5501 40.0112 197.225
54.2402 87.3589 81.9634
44.7783 226.88 74.6418
30.9593 285.383 218.163
61.8225 264.61 235.907
29.0416 128.614 181.723
21.1406 25.6881 194.635
20.679 243.486 136.874
43.3907 129.996 121.737
33.307 63.898 103.994
24.7328 135.277 176.403
72.1743 190.439 82.5012
53.3783 284.49 241.175
54.453 181.472 49.2269
25.4528 28.4073 201.974
51.8861 66.8909 85.4566
31.3975 246.16 157.09
51.2741 55.4548 120.39
26.0832 133.835 139.91
62.626 273.121 77.8409
48.3561 191.855 25.1785
33.5216 96.2268 112.714
37.3824 117.268 167.008
43.6656 199.829 62.6508
31.5204 256.045 147.137
33.8495 293.1 275.691
24.5175 42.8346 42.5111
36.39 250.595 268.346
42.0241 205.117 153.792
64.9771 174.219 85.0413
34.5087 278.484 250.733
47.7125 174.012 54.8085
47.2925 36.6601 214.441
59.6214 294.506 256.16
49.6911 245.291 227.223
50.7909 49.9797 71.0114
45.2376 235.585 156.901
41.0684 294.305 279.009
43.934 125.101 161.915
54.3349 301.543 244.587
72.5627 43.298 112.39
29.5042 295.384 216.74
30.2608 120.259 161.874
30.8715 61.6287 134.645
55.1393 267.444 95.2569
49.1719 195.523 61.348
73.3366 204.19 58.4077
67.231 223.587 85.7054
56.8073 90.2563 67.2829
28.4649 203.638 143.563
34.8606 204.972 147.481
24.6951 211.793 75.6227
28.0237 86.0149 94.6948
26.2358 82.4014 121.312
29.0153 74.3307 109.608
40.6535 307.641 216.113
49.2962 74.428 142.13
25.681 291.205 236.838
27.3336 56.8527 214.68
23.8805 242.886 146.165
33.253 241.669 168.067
26.2612 236.988 162.328
57.0656 229.919 47.6113
27.6886 78.5444 95.073
30.1549 296.217 267.116
23.6373 281.056 243.608
41.5549 210.644 99.1229
23.671 230.407 160.264
63.6742 288.971 235.084
68.2854 53.6371 110.919
52.3746 264.81 247.642
51.7346 92.2805 39.5174
29.3512 71.2399 216.598
36.4719 138.563 125.228
21.8043 52.3138 28.5709
43.4976 180.174 55.432
23.1469 59.012 229.58
35.8895 242.317 257.834
50.9942 97.9987 99.8725
28.9212 193.468 62.5996
53.4516 181.751 34.409
26.3621 61.6607 198.733
39.8532 141.998 170.197
40.2042 270.899 233.07
25.2029 175.326 88.9335
46.4661 255.616 129.564
33.8446 223.54 79.5595
47.1887 271.415 274.188
22.6504 241.392 161.416
43.0168 291.445 80.9481
33.033 271.051 103.787
40.1822 185.604 26.9585
56.6357 177.104 95.2966
51.7973 252.726 193.254
24.7622 223.535 151.088
64.0363 61.9868 146.106
40.4677 100.299 92.9453
50.5383 228.994 77.06
64.4139 215.868 102.929
49.3945 229.573 152.213
42.8904 217.466 94.6458
27.5007 74.6244 100.321
28.6167 34.9286 224.633
26.3622 92.747 66.548
41.6398 286.576 256.831
37.5456 285.334 90.1644
28.8706 196.162 41.7144
27.7829 218.271 38.5076
38.4998 93.788 68.4961
60.5786 91.0947 59.3684
64.7736 196.479 107.871
28.8306 66.5342 204.626
63.2322 226.46 31.1253
45.1804 82.4019 44.9856
48.2096 282.236 242.798
54.1785 91.4683 118.5
63.0756 85.905 138.381
46.6734 274.804 242.777
73.925 72.2627 144.208
32.6259 232.303 130.525
56.1555 56.0874 200.405
26.7254 265.389 258.459
43.3553 85.4705 140.996
39.4534 272.186 278.381
40.3475 294.854 225.266
36.3267 54.744 235.912
37.8278 298.54 249.921
32.3081 68.5496 86.3563
34.7598 77.6674 83.3334
35.5382 258.919 142.972
36.7362 202.785 34.6428
55.259 277.878 278.005
50.7041 238.14 50.0498
55.008 292.033 285.339
47.7053 241.904 236.524
55.0552 109.856 99.6365
29.0798 286.878 262.79
40.4421 67.0111 197.805
55.4109 281.474 101.209
55.5588 265.282 214.488
52.0077 289.235 94.6813
18.7074 54.5987 203.288
42.1631 67.7517 88.0222
45.9193 89.4857 43.7398
37.2464 126.41 117.952
76.1047 217.395 98.5215
53.7358 188.488 56.2757
21.0711 123.563 131.811
61.6165 262.894 276.313
51.0133 243.662 126.609
39.4792 305.59 259.67
44.4691 265.671 260.997
43.6625 257.134 218.132
35.931 45.862 186.957
41.4863 301.414 275.135
42.9549 299.689 215.889
29.3436 114.204 142.829
41.9909 280.464 243.855
48.0801 300.243 246.25
21.5339 174.831 74.558
41.6647 54.4658 100.835
56.1011 298.406 239.412
45.764 58.7498 130.227
61.3214 224.846 97.3264
60.8225 261.268 200.277
34.8471 254.051 89.449
29.0322 277.28 80.1852
51.1775 119.852 82.1284
31.4924 49.2728 209.089
56.7623 240.265 52.4143
31.0216 278.979 87.2725
49.1674 103.466 115.087
66.298 274.192 254.765
78.6843 204.812 59.5044
52.8416 266.238 77.1511
59.1609 285.493 277.086
41.702 177.281 64.1516
62.5077 73.7816 218.642
58.6616 164.693 55.2529
41.7696 57.2079 198.723
32.502 112.77 129.317
28.8513 187.333 72.3564
35.3344 222.264 30.3023
25.3193 67.4925 136.228
52.0388 229.592 48.027
59.8192 276.718 93.2994
53.9168 248.92 80.5504
54.8845 78.0468 214.396
23.5371 209.781 40.8535
40.2903 288.036 73.4355
56.9259 39.9843 130.778
38.3942 142.432 131.585
55.542 268.565 282.536
30.2693 182.548 81.2389
54.8007 171.855 80.7377
35.2563 293.269 255.327
23.3396 36.2942 222.048
54.0258 39.3547 103.131
45.9687 96.7522 120.524
29.7434 251.252 254.185
39.3972 135.72 153.411
45.3559 222.164 68.6297
56.6344 248.368 233.229
65.0583 86.8005 57.4905
47.308 225.553 89.6057
34.4986 28.973 201.444
51.8644 141.603 130.265
27.6507 79.3438 128.345
37.7147 112.735 77.0132
34.206 298.353 92.6411
28.3169 63.5483 212.804
44.6241 300.43 257.289
40.9387 263.783 276.799
40.6732 251.758 215.635
37.4847 48.7378 226
70.6273 275.948 242.957
52.4219 66.0558 132.849
52.9781 57.3241 146.074
43.7674 95.645 43.8641
64.3163 80.8694 50.875
58.2085 275.168 216.98
68.0054 69.6536 105.857
21.2539 44.1655 225.887
30.9437 229.855 55.118
64.2598 105.756 73.198
39.8233 262.15 235.058
25.3188 225.58 140.932
40.1525 66.7216 116.991
26.8728 273.162 93.9441
59.7354 88.396 44.4998
64.293 46.2315 132.798
30.054 248.108 301.265
45.9363 83.949 76.3803
31.681 136.281 156.682
56.4385 87.4885 138.005
20.7521 65.458 217.889
49.9992 174.431 87.6635
44.8294 119.971 79.7092
44.1825 244.131 143.394
55.03 52.2274 145.288
51.3416 272.306 214.185
79.3107 51.4057 122.424
47.4109 140.479 139.099
53.305 86.9797 70.8761
54.9226 244.402 249.553
24.7133 224.041 45.4978
56.3344 95.2214 81.8096
22.0724 220.356 64.0952
48.4518 289.285 75.1268
34.8772 49.6025 194.917
43.1451 128.997 178.624
52.8985 251.621 164.849
39.2081 290.457 204.974
25.0911 264.861 226.181
62.5876 248.627 249.039
22.0635 277.247 238.224
26.3832 128.11 159.325
69.3821 182.04 33.9425
43.7395 21.1248 212.014
42.0225 261.829 184.643
50.0881 272.304 68.2181
26.0947 66.3212 225.226
51.9527 252.048 137.31
46.9981 59.6137 85.2213
52.9857 23.7723 198.187
55.5478 58.0358 73.1381
43.2346 287.963 91.1005
40.7901 105.841 107.847
43.2433 295.168 249.917
39.9238 168.005 55.4627
73.6899 58.6869 110.373
52.8549 80.1048 67.1267
61.5844 46.6625 223.523
31.4944 215.826 80.7696
82.43 195.831 59.558
36.1446 259.989 224.601
64.5262 249.327 243.507
43.2794 247.313 94.6885
33.5317 124.309 155.525
31.4821 260.085 97.7927
34.3376 264.668 92.8308
49.5628 106.959 48.4455
31.2393 108.456 135.401
35.1191 232.703 53.4337
36.9641 84.0477 74.5865
48.9583 61.8208 145.675
71.2867 232.934 79.1332
22.9528 62.4317 205.107
51.6933 279.439 235.235
36.23 65.1744 124
42.4077 41.0061 208.829
25.2014 70.032 129.197
37.2736 297.603 201.833
29.6541 185.077 90.6778
35.7351 256.625 127.893
28.2008 252.631 88.5884
33.2111 94.4895 77.9438
55.599 278.301 268.907
45.2634 168.704 78.162
31.2879 146.435 181.471
33.1618 131.301 159.174
49.3659 269.626 93.8407
38.3399 244.295 242.313
37.0233 228.55 135.799
36.9049 39.5182 231.55
31.172 235.729 172.267
54.5247 292.245 227.337
36.3823 254.232 219.753
49.8064 298.216 214.152
43.4853 80.9343 57.1196
50.3418 261.463 196.582
38.1238 223.196 88.6914
41.1315 236.87 169.54
44.9196 88.2741 64.6683
50.0908 97.8713 76.6154
34.7499 165.554 72.6149
39.7406 233.193 43.1506
24.6981 271.155 232.443
48.9634 195.995 102.774
55.0055 303.674 254.445
36.8672 18.5072 211.026
46.1221 278.702 270.057
48.5347 71.1904 131.723
24.4867 268.59 251.221
53.8658 233.641 82.656
60.1872 92.8187 129.257
43.1023 65.9341 147.226
28.9755 104.252 71.2351
42.6501 47.8393 207.784
31.8893 288.37 90.7529
54.2008 95.6823 44.0712
54.7166 116.783 71.0832
64.4205 259.491 88.4747
49.5563 226.706 162.403
19.4725 45.4033 208.695
39.6757 280.312 69.8365
37.4515 241.653 121.894
39.8039 283.639 281.732
49.3483 109.755 108.466
31.8558 141.016 168.574
45.8113 234.891 51.6063
35.6145 118.569 140.118
60.8719 101.933 49.1975
28.1018 137.985 132.364
46.6285 210.577 155.278
70.3556 291.368 279.941
26.5273 258.072 229.507
47.009 137.255 161.082
38.3371 100.63 118.212
53.332 76.9911 207.929
57.5899 86.4654 126.403
57.8644 237.386 42.3628
66.4734 186.447 81.9159
59.1494 80.3992 67.0474
35.9641 36.1018 226.984
44.7946 250.284 269.934
27.4063 98.6654 71.8934
56.7536 48.166 68.8709
40.5211 42.1644 190.723
71.9767 255.685 245.386
30.0285 168.399 67.8967
58.9865 274.055 283.077
44.2841 48.1668 111.785
49.2043 302.433 273.799
19.5665 38.2982 195.736
52.559 29.2724 188.578
28.0746 45.6816 231.511
25.7407 20.1393 204.269
66.9677 209.553 63.0136
29.6675 70.8255 123.661
37.0571 65.211 220.052
30.1023 187.157 49.7816
44.3042 259.689 264.301
30.7702 185.121 57.4897
64.7418 91.9328 66.6064
29.3172 57.8605 186.869
49.4421 245.412 167.618
37.6474 195.129 60.8186
47.2881 235.021 164.424
42.9018 178.853 30.1904
38.806 240.972 250.106
33.8248 69.9508 205.796
26.2476 192.313 49.9045
48.3202 293.396 92.636
44.1743 270.191 184.519
65.9383 67.7064 81.3043
32.9168 39.7405 220.762
24.9565 218.462 140.361
26.6087 249.082 246.304
45.2941 72.545 68.0806
47.0055 291.569 281.377
22.9758 235.146 146.107
54.1467 298.273 256.068
63.9308 79.5544 90.3567
70.9096 177.046 88.9185
45.2857 307.286 257.771
49.3086 272.379 284.025
24.156 151.285 174.084
23.565 41.3241 31.8885
36.119 284.282 270.786
33.7556 269.808 276.024
26.7836 231.981 169.822
40.6867 141.31 148.521
44.7354 239.979 298.369
60.5176 52.3494 229.107
42.3657 97.5643 84.0626
39.8361 53.9997 107.303
74.2523 199.384 40.0031
45.761 76.2494 220.172
25.4544 258.82 241.348
59.8482 208.355 92.1348
47.5358 85.9573 124.357
58.0212 49.2811 205.559
47.4183 89.9611 111.914
23.4878 178.524 68.0518
51.6335 61.2216 110.527
28.7107 249.784 261.865
45.5242 226.411 167.859
37.6476 256.451 270.061
25.1625 153.189 158.527
21.1433 231.295 143.016
33.7756 62.6126 196.965
48.6316 186.643 25.164
35.2914 172.184 57.2258
30.6064 113.148 78.2209
55.9104 255.741 95.8081
32.5166 272.618 70.816
54.1485 244.771 136.915
35.5466 37.2445 94.235
44.8842 274.069 250.95
45.3598 247.253 249.637
56.4887 61.428 231.274
56.3688 191.397 102.938
72.518 74.154 103.474
58.6432 186.477 48.4063
23.233 195.776 39.6388
36.6491 278.288 85.7418
41.5136 223.812 140.763
54.3788 39.991 223.929
57.9554 251.609 225.312
51.5798 112.76 77.6248
56.038 271.041 260.855
47.0135 66.9073 95.0284
26.4985 202.514 34.9726
87.039 195.159 61.149
31.3454 86.3228 80.4731
38.3698 51.201 113.917
48.9857 106.457 81.5292
27.4979 275.467 238.737
41.3072 139.218 127.593
24.4989 235.802 152.149
62.0479 178.715 97.8483
56.2419 67.4807 136.149
50.5511 269.044 88.5865
40.5906 30.3578 223.473
48.322 289.577 225.98
66.9125 211.934 83.5055
51.4404 59.7232 129.028
60.2906 182.651 65.4105
41.1671 114.397 147.432
41.1236 249.606 77.1413
53.634 78.1903 88.2908
33.293 111.683 83.7364
55.0752 35.8903 213.86
39.6713 73.1334 101.568
54.8621 269.468 253.273
32.361 84.6605 131.846
35.1703 187.323 57.4812
56.3661 170.177 88.2246
48.0498 126.871 176.505
22.4764 41.6766 221.45
46.9868 291.198 82.6288
42.0017 118.534 141.293
76.5654 206.579 105.511
38.8191 198.262 25.1641
56.9849 212.655 86.903
62.2218 74.8526 74.2743
61.3442 206.225 85.1327
26.4212 175.484 78.4385
44.4347 240.133 126.944
30.8462 135.801 139.65
41.6949 87.7439 134.275
40.1865 138.719 141.159
65.5348 100.484 68.9899
24.5265 48.7146 15.5715
54.0258 257.9 157.222
27.6182 177.602 71.4022
44.0459 267.709 73.1859
50.8389 23.769 210.099
31.0435 175.237 63.7736
43.1244 259.28 255.117
49.483 96.5106 43.1313
47.4133 89.2009 136.206
49.8807 280.249 215.37
54.2528 249.658 95.924
28.4095 269.911 240.744
42.7981 230.506 86.9656
22.3379 30.4688 217.01
50.5327 67.7768 74.5914
32.9171 116.82 175.466
34.0474 65.7784 226.752
41.3208 232.764 165.899
30.4821 39.5202 212.19
50.1951 258.184 274.989
40.0202 153.736 168.568
48.8418 100.583 46.5298
58.245 76.9025 130.31
42.2129 67.6918 133.869
33.2343 90.0942 116.732
50.5089 30.3554 221.187
52.968 64.3682 142.823
27.001 103.086 81.4159
21.7794 263.089 245.399
63.6445 278.42 227.469
50.3907 271.244 179.68
49.8251 109.085 58.8868
43.0144 256.831 158.744
67.8834 267.52 237.276
27.2624 140.425 171.947
30.1261 294.044 95.3362
67.9742 204.976 31.0558
34.3791 287.7 98.4321
27.055 220.744 147.493
55.8583 255.443 219.644
36.3658 208.143 71.4063
34.5557 104.902 94.7572
41.0831 146.224 159.436
60.6998 59.2927 79.7569
66.2933 252.822 193.727
41.6584 225.065 66.3414
61.133 201.591 28.0038
26.3169 214.279 68.6309
67.8622 98.3082 92.2303
35.8369 43.3057 216.459
31.1476 210.64 42.6417
49.6086 222.612 298.742
59.3308 289.138 244.972
39.2142 227.995 75.5402
67.728 77.7071 137.021
26.0258 226.062 55.3789
44.3054 219.883 155.222
51.8472 220.063 26.0227
71.836 285.539 235.78
56.2529 267.159 236.46
35.3397 75.017 218.766
54.8744 279.78 72.7352
29.3742 179.087 87.8214
39.0315 59.3676 117.116
38.5711 250.729 161.737
32.3201 245.517 260.667
25.4637 68.015 213.964
32.2955 208.794 91.4528
27.0072 247.688 137.485
45.5827 274.585 224.779
56.4312 112.081 80.9238
60.9139 270.854 248.488
37.7132 233.231 67.3901
59.7154 55.6604 112.054
35.0626 249.417 91.141
65.2511 209.272 24.4576
33.7399 283.514 211.081
59.0367 60.3725 102.48
71.6337 227.571 35.1392
20.7366 222.929 56.494
64.3591 197.595 84.9277
72.7662 177.663 54.0205
68.3462 257.975 195.359
48.1926 132.308 169.732
46.687 19.3564 195.575
49.202 271.564 261.901
33.0176 293.245 88.1078
46.2085 94.9438 55.525
66.2799 42.5215 124.826
55.8694 244.06 255.17
28.8512 270.751 263.447
58.3512 295.196 279.791
48.76 47.7933 212.689
47.7875 259.516 251.362
58.8902 296.401 263.616
46.6702 65.0165 194.883
45.1918 82.8779 82.4753
31.0137 228.844 300.428
41.5389 54.7929 123.518
67.5205 185.915 65.3873
43.9537 304.299 210.506
30.0997 278.783 103.337
64.7361 69.8473 129.314
77.0816 211.66 61.8729
20.0816 51.6434 229.572
53.1979 56.8136 91.0102
35.9859 224.306 299.945
41.5738 125.173 182.012
36.3875 189.253 94.2738
45.3146 241.744 163.433
58.8818 93.0311 51.9773
48.0089 55.0649 108.164
58.0208 282.42 231.175
49.499 259.235 214.042
54.2226 106.859 67.9174
73.3205 97.1008 98.396
65.5096 94.4644 100.237
47.5504 175.002 68.759
32.0048 56.0744 110.57
48.996 76.9805 61.2164
61.877 52.5056 215.992
82.969 231.217 81.0938
33.9141 289.831 220.501
35.9535 84.8816 97.343
58.2408 293.58 249.153
61.3657 73.9024 136.949
41.7157 43.7791 123.242
37.3418 201.566 98.7948
72.8003 281.333 250.694
35.8499 246.264 230.441
57.249 255.107 171.647
45.5557 204.836 146.069
29.1938 268.163 87.9032
49.3743 99.2438 108.802
53.1737 226.993 94.7842
38.2777 60.1108 232.815
33.4544 212.032 65.1344
48.471 265.878 237.19
36.8085 217.772 131.564
30.1956 225.704 162.312
46.9836 267.492 255.664
47.9555 258.691 242.146
21.2505 45.7706 217.983
36.9183 48.8851 122.612
75.5305 184.348 85.7457
45.5109 97.3242 127.528
40.4944 235.288 140.992
61.4701 201.146 73.1298
50.9078 278.167 224.36
52.3269 256.53 245.76
46.9024 216.643 17.358
22.848 68.4276 114.821
59.887 96.7088 88.9738
51.7486 84.3885 139.34
42.7318 246.138 220.466
35.9332 74.5449 94.792
43.6317 110.238 74.3717
39.6924 32.1925 210.325
65.0613 261.558 229.174
38.4062 82.6538 146.029
45.3692 241.983 131.627
44.4412 64.2657 100.766
24.781 123.816 176.338
33.5324 67.94 110.403
23.6791 202.119 84.6531
33.5312 265.729 72.3198
36.3895 108.294 61.1227
35.2165 254.405 246.688
33.9025 111.971 69.5937
39.803 89.3071 47.8435
69.0509 254.195 239.256
56.3389 238.349 149.496
40.7112 85.0912 128.815
60.0807 255.001 195.197
72.3158 198.368 85.3278
61.8105 190.669 32.3057
68.0211 284.125 231.495
30.4055 32.5159 190.04
35.0818 121.146 124.336
56.301 82.672 50.6393
71.3745 192.666 50.033
48.582 81.5977 51.9886
48.9693 91.1629 83.9428
74.3077 69.2528 113.863
62.6496 274.514 239.589
44.3602 29.8346 184.813
19.6098 209.892 43.6078
37.8695 253.338 240.899
37.5399 249.559 221.971
43.7795 49.6347 191.214
51.637 244.683 261.049
50.3093 300.593 261.033
44.4888 109.549 131.071
42.5807 90.4967 123.761
51.4062 236.36 40.0807
73.5948 56.1794 104.318
28.7626 195.074 55.2625
73.968 283.639 243.41
63.9876 249.071 188.842
32.6558 62.6878 84.0485
36.7827 178.304 94.0068
27.4724 79.2182 112.151
56.9414 243.745 162.301
40.7575 236.151 55.7121
46.9865 109.278 66.9387
47.537 238.772 82.5645
71.0236 271.901 254.373
44.0354 58.1813 237.004
56.0535 79.5188 144.738
35.1657 274.481 76.2186
53.5855 109.251 89.3455
52.5133 50.3518 105.256
35.326 47.1913 233.472
40.4819 149.456 180.021
62.149 285.465 252.779
55.6174 279.453 262.961
62.632 277.571 278.203
29.2499 60.067 192.422
49.1353 247.514 301.888
46.23 250.759 127.609
51.4123 208.736 79.5793
55.6582 232.187 55.1857
41.0465 298.534 239.89
23.8563 49.5201 212.802
40.0012 269.829 106.335
63.3968 72.2601 144.37
57.504 96.6735 107.552
48.5572 237.381 143.625
35.6081 242.774 143.209
63.8398 196.554 63.5347
53.5408 137.92 174.321
74.3648 229.398 94.6046
34.9828 301.549 265.654
25.0638 43.4884 21.0016
38.9711 261.547 215.361
68.4856 258.733 233.693
28.9788 298.654 212.688
59.1393 223.73 28.3354
31.2031 296.54 246.126
35.5004 25.2556 191.634
37.1227 214.521 160.027
41.3079 228.258 150.361
55.9882 106.152 59.5301
60.7973 85.7469 54.6067
34.9856 237.074 138.829
39.4242 95.6668 125.601
72.0517 86.6851 100.381
43.4975 266.496 111.869
47.6317 254.405 256.206
60.488 108.097 52.5009
67.3228 190.466 29.8382
31.3979 196.29 75.2686
30.5002 85.3443 102.875
37.8677 47.3409 129.424
47.9466 294.25 232.298
26.5566 194.318 79.8039
51.4345 217.422 137.133
50.3952 249.726 219.601
44.8448 297.694 222.711
48.1131 277.482 111.41
30.3352 251.51 227.848
41.7692 251.909 165.318
70.7459 256.181 187.39
37.462 272.779 98.2625
26.0683 213.049 83.9461
38.1614 90.8201 120.494
67.6584 285.33 250.65
36.0709 53.1514 38.0915
69.2039 233.996 71.3102
50.3158 235.022 55.5757
35.8196 57.1894 222.748
37.6497 224 56.0031
36.4475 131.02 147.29
43.0672 203.318 25.445
37.1711 93.1963 82.9859
69.0332 87.3144 113.423
47.3476 187.835 51.2663
65.1213 105.5 95.8516
72.3614 95.6247 126.865
39.1805 145.643 142.84
72.7645 60.3599 100.788
64.1123 181.015 41.5323
36.4319 87.9215 127.528
33.928 85.3549 140.214
50.3675 246.618 251.91
39.9095 100.731 49.1547
69.8722 265.584 273.27
45.0478 55.0832 194.431
38.1427 139.381 175.829
68.0413 176.88 72.2232
27.5098 61.4908 117.059
30.2882 137.197 165.456
27.7336 94.4832 97.4091
59.7646 261.869 270.906
61.9266 239.915 56.9384
47.9469 295.609 241.901
47.3494 201.896 139.074
69.6534 213.146 90.1365
34.4586 297.021 260.781
68.4563 181.613 77.2264
80.6429 211.665 101.068
76.7176 267.613 253.597
77.2542 234.322 76.1503
54.8296 265.853 269.991
38.9485 287.781 216.03
32.6146 45.3555 115.895
58.2431 303.617 277.745
39.529 46.8789 117.552
34.1144 246.093 163.195
75.1757 196.812 78.9691
21.0207 202.099 52.9712
43.1046 237.382 131.648
35.131 121.406 182.867
55.2266 38.3295 115.005
69.3642 222.874 29.3492
70.4899 273.973 229.926
37.6846 72.5764 210.99
51.6186 209.482 99.9488
57.2124 285.288 91.1836
68.7916 168.537 46.7866
60.8534 207.067 77.6792
49.6166 286.202 283.25
30.6026 49.5953 22.9161
55.1354 101.816 118.137
54.7854 45.5606 136.442
26.8247 187.191 44.302
43.4922 25.8775 215.871
42.2777 191.963 34.6776
49.7167 246.929 132.739
60.6798 300.835 272.653
61.5692 40.2259 112.78
50.8383 188.48 101.126
45.7847 229.316 67.1317
39.4257 112.056 86.2318
81.8471 204.244 37.113
66.5844 187.477 99.6675
60.2387 106.779 92.6694
57.378 47.2521 130.517
44.1783 266.003 211.029
79.204 169.955 45.0271
51.8655 185.882 66.5632
47.0015 71.6514 200.672
58.1602 228.756 27.7027
56.9719 253.892 199.943
42.9527 86.9068 95.8222
61.2833 291.545 270.483
56.4163 278.36 236.367
73.7599 221.114 72.9185
66.753 300.453 256.548
53.2737 49.211 120.963
42.5686 109.262 58.5415
27.8531 87.4526 73.5888
56.6288 262.398 90.4221
40.4638 37.2862 214.019
60.2144 95.2475 44.9978
31.1019 219.233 64.2508
47.8371 299.137 280.757
49.2359 39.6693 117.462
52.7898 22.1938 203.84
24.8133 283.047 234.02
42.5474 45.636 135.166
42.7817 179.031 88.7572
30.5528 74.1848 136.597
73.9928 54.4492 121.227
81.0511 91.2092 102.252
38.8608 17.8066 203.39
42.8472 258.446 140.651
30.8828 43.9417 196.775
41.3254 76.1464 87.6414
36.2114 99.8612 87.0547
48.7016 299.86 253.805
30.4105 227.497 148.425
75.3329 270.399 237.484
38.0401 112.995 62.05
23.8796 220.197 40.3547
60.4976 68.3931 144.98
73.2837 277.093 232.848
58.7285 66.36 81.5261
66.8592 87.9349 88.2527
66.2623 96.3813 62.5473
58.6461 62.85 143.71
42.6913 220.644 133.938
49.3512 239.267 136.975
55.9277 42.0351 122.158
44.5379 25.1652 192.278
71.0903 78.1396 88.5934
31.4845 90.2629 89.5217
58.76 299.495 249.156
54.5446 285.773 276.539
62.4184 94.5333 76.5488
45.3128 100.057 71.4483
49.1988 277.918 283.396
48.6361 165.227 71.1424
44.5087 266.982 104.49
50.8369 208.3 88.1368
50.0536 190.294 37.2105
69.3833 85.8996 80.3619
22.6159 18.612 209.087
23.0164 24.8765 209.302
48.0005 260.524 154.551
75.5799 290.919 273.1
35.76 61.0258 75.4682
62.1155 261.416 224.04
57.4199 284.358 285.94
50.019 46.7885 132.081
66.3463 203.33 65.7008
57.2903 274.724 188.493
31.8615 275.119 258.454
62.5246 65.1592 137.634
33.906 253.322 78.4584
32.2558 225.388 141.358
45.1665 41.7255 225.063
56.1802 69.4797 142.985
70.9491 295.854 262.366
61.9864 269.745 194.898
50.4003 95.3585 125.744
40.4952 250.746 144.78
65.0872 182.668 95.037
81.1355 203.687 51.2464
39.6433 62.9134 101.699
42.1402 193.808 25.6106
77.3051 287.626 265.474
37.6818 212.01 85.5108
72.3782 188.5 106.858
35.6262 213.821 32.681
58.8462 216.004 69.2201
61.516 50.9012 142.585
32.4885 164.875 83.3492
76.0272 172.68 96.9031
27.2105 95.4528 93.2281
70.3305 64.4344 143.376
30.5686 220.262 140.118
50.5154 280.821 265.919
39.8253 280.511 267.896
33.9822 280.89 275.517
100.973 211.968 70.8622
90.2099 228.549 52.2096
70.4665 188.336 42.2987
49.7356 57.3299 230.16
24.4711 88.4314 85.0311
76.4022 205.844 32.4394
43.4121 252.53 92.529
84.273 202.503 58.5866
60.2404 109.683 60.8872
62.1912 60.0954 94.0843
53.9138 272.234 243.071
54.5226 300.684 283.391
53.1679 207.538 71.4751
40.6507 283.08 208.746
32.3676 191.936 53.3769
51.6346 294.785 239.804
26.6931 206.868 89.4088
42.0667 75.7604 135.085
52.3048 261.977 241.207
35.9293 55.2466 123.99
40.9624 249.696 294.914
43.335 61.4351 107.128
46.5226 213.334 24.0201
66.871 299.496 274.131
39.8515 63.9506 95.6136
41.2773 36.4973 95.0468
55.7721 206.463 93.952
65.6467 77.5346 144.492
56.4725 246.682 186.935
79.0365 196.22 105.872
49.4377 247.203 258.611
35.7946 49.5207 134.517
39.1421 40.4555 219.638
43.7822 41.265 106.131
40.9708 242.027 138.463
57.1733 180.164 38.2719
50.6124 180.052 93.7862
64.4173 109.498 65.219
47.8037 283.552 93.0645
72.7649 175.981 39.9921
58.9863 108.247 75.1527
50.5966 73.0298 100.698
70.4038 94.2081 107.707
66.2202 42.7704 106.247
40.4493 97.636 74.3022
53.5062 33.3017 204.987
68.5294 272.415 277.113
45.0524 154.201 152.454
44.7395 69.097 109.376
74.3584 168.13 49.8601
56.0363 51.7263 219.341
41.0242 254.26 246.379
36.8609 80.2785 137.048
58.4634 167.431 69.3767
59.8506 97.1644 113.87
49.1697 80.8982 94.0947
37.7481 221.014 164.448
64.575 66.4018 214.097
73.9352 181.481 46.5193
30.883 248.138 234.016
65.9902 95.9905 119.5
49.4087 294.61 221.802
29.1751 296.641 260.797
66.4656 214.489 54.4886
68.0107 215.266 28.7051
45.8303 20.9347 204.772
54.8584 228.754 87.7622
39.921 142.397 163.44
31.6688 26.7547 210.582
39.7371 85.7536 109.281
57.7643 62.9779 204.85
36.3565 279.809 261.733
82.7823 209.033 60.3541
37.171 216.474 146.731
20.8722 18.5378 196.916
28.404 149.181 161.083
54.7501 203.957 103.672
34.5925 301.667 257.248
65.4736 57.2776 213.486
45.2645 107.907 86.303
65.2672 194.671 75.3018
35.5425 51.314 142.131
64.1754 231.133 69.0825
52.7678 92.6982 134.541
48.8074 269.341 240.555
38.8676 300.335 259.746
52.0229 273.925 78.7243
33.9762 61.0429 145.318
61.9172 222.257 46.6186
71.7657 92.3874 121.687
91.5604 190.62 94.1367
63.1914 76.2826 80.0662
43.1054 301.32 245.3
21.6938 171.499 80.508
42.7479 80.9536 99.5293
35.02 80.4567 128.069
47.3035 55.4298 100.977
48.0946 249.773 91.5856
29.2037 263.168 92.2702
65.4804 51.384 228.251
67.0726 210.252 104.92
57.0443 234.959 75.4832
57.2962 49.0114 113.886
46.5271 76.8659 147.629
59.6095 75.952 145.025
62.188 102.693 60.2509
25.5159 166.977 71.7537
62.6644 300.981 258.846
34.4291 22.837 210.934
54.0177 256.142 271.722
59.2336 65.8701 98.6044
41.1843 190.465 97.3425
56.5559 39.6313 202.325
47.7583 64.3316 230.281
39.34 242.772 237.852
46.8228 75.5394 210.786
39.1113 174.574 69.0221
51.1908 253.275 267.117
30.4136 139.523 177.295
39.5884 50.4579 70.8338
33.6535 293.915 99.7239
70.1721 98.5531 78.9403
40.1163 282.823 95.4582
71.9606 209.554 101.386
54.5767 71.4336 207.256
57.1027 70.8203 231.392
60.745 265.99 75.7822
52.5627 72.0763 227.053
26.378 280.21 262.487
64.5305 217.034 68.7881
72.2664 238.545 54.6194
41.0986 56.352 68.4179
66.4133 294.513 255.621
77.4779 46.0979 107.853
49.4278 256.689 203
66.6836 297.81 265.632
74.689 89.1874 90.3466
53.4782 260.069 253.815
43.0793 75.8134 139.71
51.1065 41.826 230.274
61.2714 229.334 56.074
40.2378 242.812 232.79
33.184 57.5585 269.88
41.9761 290.726 283.837
31.163 102.734 92.1584
21.5198 32.3069 212.014
49.0315 222.432 149.086
46.5806 255.075 246.08
66.8184 75.6485 114.42
65.5849 67.6368 90.015
70.9763 43.5837 123.578
62.7541 252.19 231.218
52.5914 63.4891 79.4319
68.819 255.5 250.244
30.2186 51.583 181.99
60.1308 101.243 118.689
35.168 70.6997 226.287
59.5854 98.8535 128.714
72.5254 211.986 49.0759
52.2851 238.52 75.4732
39.3335 134.964 189.087
56.9472 64.438 197.639
65.5623 234.665 83.3358
44.1322 287.52 260.504
49.5036 233.754 32.7499
47.4777 213.129 101.041
33.7239 233.602 63.2115
60.0211 234.442 64.0926
36.7022 306.225 210.217
64.2021 57.991 102.062
73.2497 267.438 244.002
47.9098 46.2442 218.608
39.9897 65.543 236.177
68.095 70.5889 145.148
46.9283 40.6458 126.11
59.7527 110.85 84.6826
61.0778 266.796 263.756
36.5389 26.1428 205.677
36.8042 51.5401 201.236
26.0939 255.165 259.212
68.1672 79.2452 82.2758
46.0637 78.7568 207.247
59.6437 40.0215 106.959
18.9936 147.661 174.455
27.704 61.7706 124.316
59.7732 240.469 69.7658
77.5578 174.732 65.9427
57.0435 245.152 244.78
38.229 208.881 27.0663
59.3196 61.5884 132.924
26.5021 253.045 238.139
35.8153 226.187 148.481
33.0875 104.484 86.5593
51.6874 39.7586 108.922
42.1986 276.537 102.451
45.8626 83.0388 147.642
66.7519 57.0308 145.488
80.5028 81.9344 104.698
56.3573 44.9953 231.907
63.782 190.415 92.8579
28.6164 210.985 37.4074
49.6111 246.105 85.8083
55.325 102.442 54.5123
53.9853 233.923 33.1834
36.3007 249.316 234.755
48.5702 277.405 276.609
74.7825 67.661 138.08
34.2492 281.143 106.647
79.845 58.6024 105.152
51.3399 102.711 71.4897
42.6824 85.3218 71.792
31.0174 252.813 236.798
42.2177 110.576 64.3861
53.1178 275.185 107.414
36.1703 270.038 261.933
29.8521 87.4426 61.2905
50.6179 260.437 105.43
69.2689 217.28 67.6137
43.8101 64.1922 110.422
30.6518 142.046 135.809
77.1116 274.654 257.485
77.9813 165.814 72.4147
49.3937 236.721 60.4197
52.3267 50.2693 138.687
51.4641 172.534 49.8638
63.0987 300.33 265.921
49.3267 218.408 143.906
71.0931 177.357 99.9179
67.4572 40.1773 111.483
47.3483 147.971 145.847
46.3086 256.43 148.62
75.9678 261.156 248.064
62.3547 251.268 180.168
58.7246 230.976 37.1425
60.7638 95.7463 100.86
38.4625 270.704 111.221
38.2605 72.1807 140.136
28.9427 91.7565 76.0561
59.9695 67.2882 87.3443
57.1797 47.9951 212.995
56.2316 303.319 263.567
25.0875 180.594 81.2473
74.0586 268.194 263.162
68.9489 229.339 94.9686
60.6629 172.879 55.8897
48.0991 162.834 62.151
66.0966 191.314 80.4903
64.9729 172.564 78.5012
56.5701 270.291 103.85
54.5691 214.996 149.47
53.9646 124.681 184.848
23.5783 259.865 252.213
85.6975 207.548 66.7514
38.3406 262.992 192.667
55.6235 33.8642 198.829
47.039 113.406 130.912
44.4423 260.632 201.725
31.3386 173.57 77.4219
46.4393 103.084 59.7982
41.0547 24.0756 202.409
68.7703 105.14 101.6
45.6002 43.4007 131.376
51.6882 49.0075 111.571
60.0158 36.4391 121.573
50.6538 111.266 93.4006
66.4358 295.805 285.786
24.8709 152.446 164.112
55.0145 42.7408 214.507
69.3567 103.491 73.4149
32.9364 233.092 41.5811
47.4712 243.149 243.945
66.3299 296.107 250.07
66.6259 229.856 56.3101
36.0626 208.713 98.2364
77.5164 216.552 30.987
45.5468 249.812 80.7087
44.1008 271.791 212.963
44.6858 148.393 169.043
69.5313 73.4155 89.3885
43.4638 267.746 282.027
64.6138 268.226 276.237
52.2409 37.0651 192.925
42.1099 77.783 226.174
51.1274 244.177 232.75
56.1368 53.4575 130.601
47.4392 100.581 52.4042
56.3167 271.493 268.908
