ply
format ascii 1.0
comment Created by Open3D
element vertex 868
property double x
property double y
property double z
end_header
55.0777 67.4509 63.8578
43.1251 45.2942 64.9905
34.0327 40.054 32.1931
25.1605 82.4364 63.8601
38.726 111.586 141.976
26.9614 186.119 202.571
42.7079 117.86 121.593
68.9929 87.2119 79.646
35.2366 133.145 120.362
61.5215 53.1664 30.9315
31.671 97.043 44.145
21.1267 145.483 82.4646
39.2931 121.682 138.049
38.2419 56.8953 77.5883
30.0452 107.232 150.542
27.9003 59.6861 94.3577
39.5226 107.222 51.8691
54.2933 98.994 40.2928
25.3166 86.8212 48.0383
29.0122 51.8331 95.0769
37.1635 93.1678 21.955
25.2693 95.6705 26.1224
62.7671 161.689 126.274
43.3986 126.084 151.574
84.2315 86.6973 84.5437
58.9884 41.8315 55.211
56.6195 39.0871 47.3162
44.129 59.793 33.918
47.5352 181.424 143.719
40.5579 73.2789 62.9731
29.7665 170.686 79.4564
32.5963 142.737 122.6
34.7832 31.1985 69.8181
48.8367 216.297 230.283
25.122 147.032 110.679
49.5015 172.932 68.6575
55.6776 53.0875 53.4226
52.4772 130.266 55.3854
74.9857 76.3796 94.6702
23.5023 21.5003 75.2394
37.1345 34.5933 51.9587
27.0592 154.871 107.129
47.4245 137.005 52.0917
46.8736 64.6826 106.642
23.0846 28.9919 56.0122
54.8267 83.6107 50.5609
42.6516 206.522 236.735
53.5451 180.354 161.659
43.9658 100.865 34.7444
80.3376 95.0256 54.7713
30.4506 191.732 164.684
37.3339 54.6089 103.484
48.4306 79.5168 66.543
33.865 67.674 282.321
36.8823 175.625 79.9961
29.6382 183.902 152.24
62.2641 61.8013 47.1788
54.7389 59.8357 64.8706
33.8777 22.8593 73.0148
87.399 84.3659 97.7546
45.3678 29.5473 34.3054
22.1314 150.993 73.5769
42.5561 192.514 146.599
26.8884 197.473 131.24
31.1237 53.573 86.2637
31.2439 163.801 234.292
20.83 158.183 101.341
44.9129 106.274 109.533
43.4058 26.3873 48.6381
30.9038 223.001 224.519
29.0545 21.764 53.9401
35.246 62.8805 83.889
49.5189 70.4048 52.8054
35.2858 81.2393 69.2802
48.8404 56.2978 71.9836
26.1478 132.542 85.3788
30.097 76.7519 59.413
30.8413 40.7809 93.6004
59.3167 90.1697 58.4925
36.5333 75.9604 31.5193
30.8902 131.492 108.698
31.5621 104.802 52.8495
27.0274 39.0311 72.266
73.3443 189.685 260.716
33.2855 84.8493 42.6587
32.5778 42.8562 81.4007
70.7457 166.971 72.4448
52.196 203.436 231.357
47.8944 83.3319 48.1402
52.9596 232.541 179.076
74.9268 91.0348 90.9403
53.2649 74.4114 42.9973
71.8726 111.471 128.84
52.2264 226.217 173.047
75.3964 77.0849 35.3749
70.0708 53.8826 80.4838
20.5826 146.74 99.8581
68.5269 139.38 58.8215
46.1814 61.8628 54.9841
52.7863 37.4072 33.4909
75.8496 87.8432 82.6739
26.7049 89.4026 37.4512
41.3738 54.2444 69.0271
47.3723 239.09 173.719
40.505 72.1599 82.0826
43.1808 92.49 65.8302
38.0511 197.171 233.63
52.4786 99.6672 24.7254
53.6181 167.567 124.025
25.3826 191.094 137.246
58.7588 76.468 68.1544
29.9633 45.7618 40.8375
28.4351 138.513 103.883
64.4217 47.6075 85.5225
66.2542 205.191 179.403
43.2869 31.933 61.5242
26.9287 168.4 108.152
50.035 32.6853 39.2509
35.5908 118.439 102.541
43.7504 173.907 110.647
31.954 10.7115 66.11
30.3062 232.803 226.269
39.0451 50.62 113.919
65.3459 94.0869 54.8332
33.931 86.8621 32.4361
84.0653 257.798 173.584
42.0137 183.111 234.846
51.9661 108.928 38.1179
42.5673 27.2165 73.1774
79.9126 229.109 194.027
64.447 111.359 131.44
86.7544 76.9868 111.421
30.0076 163.37 67.5533
31.5539 121.869 73.1798
25.8339 163.678 77.5367
75.2385 104.567 111.613
48.904 70.0634 93.6281
63.164 72.822 82.9964
43.9945 98.8909 61.4646
79.8745 155.392 107.974
46.8419 128.822 143.497
29.0278 205.603 232.769
21.8743 219.82 212.609
39.1324 53.6982 57.3081
45.2326 42.3059 100.696
58.3296 218.053 164.56
61.6372 201.369 160.944
56.5316 70.5142 87.9544
87.8161 267.797 218.797
98.9065 136.489 78.9912
44.8417 54.6156 107.651
41.2889 20.3403 55.3
44.7565 170.398 127.891
42.7586 69.7719 34.4396
39.3846 35.9671 78.8829
47.8173 35.814 77.8831
45.1114 52.9224 84.5352
29.453 223.359 214.014
45.4797 217.202 199.038
36.5221 172.359 123.282
34.8774 176.954 217.964
34.4857 97.5184 66.8356
50.9069 69.9898 34.7907
42.0326 199.989 155.792
55.465 88.9198 25.7845
32.3838 56.498 53.7109
36.7969 215.15 165.341
57.5415 103.544 89.329
65.4525 144.682 139.483
59.1645 206.435 235.221
42.1528 104.641 154.513
56.3648 219.034 228.861
22.4851 100.265 54.3183
33.9526 194.395 128.086
96.7969 121.819 99.5308
53.1505 73.6067 26.0072
35.4241 103.968 33.6217
99.0648 125.159 89.3662
44.8996 21.4399 64.3816
63.0092 48.9422 60.1319
33.9035 196.467 222.081
39.7292 177.328 99.955
73.0306 146.301 133.959
66.4471 72.0978 43.6653
37.8023 148.281 139.829
35.0843 157.694 56.8808
41.6417 187.573 157.475
63.029 133.171 141.459
61.8151 172.915 105.181
50.0784 113.276 125.551
53.7272 107.625 118.049
79.401 53.9201 31.0101
70.0637 136.784 137.737
80.7746 87.9229 96.5686
36.3485 206.961 231.386
70.97 190.854 169.348
46.3348 179.131 160.44
91.8864 133.738 116.407
25.2481 77.4792 45.7861
48.6511 58.4131 113.56
76.119 171.218 273.851
59.6771 150.132 140.331
47.729 113.234 152.537
55.5523 85.7884 65.7553
71.7245 205.002 228.131
63.7596 119.188 138.37
28.6933 30.5084 73.2714
82.5991 233.739 224.287
35.7897 163.737 226.639
31.6681 198.773 213.619
45.3937 71.8507 45.1856
79.9932 34.1794 70.2274
42.0896 93.1861 30.37
80.4438 150.638 119.903
55.5903 122.121 58.9415
51.0265 31.8743 90.1125
79.5792 74.7315 71.28
89.42 218.7 260.198
20.0974 158.641 81.1618
63.2856 106.529 77.8848
91.3459 220.406 203.536
70.9125 250.228 231.868
56.6987 37.9241 86.3159
64.8253 182.669 249.025
70.7755 67.8494 80.089
33.7806 209.045 184.359
67.123 101.911 113.259
66.283 100.367 103.014
44.4212 44.3056 81.3689
35.2923 70.0881 38.3154
53.09 169.478 61.1085
66.1108 155.82 54.1333
50.0016 57.666 29.5996
32.8066 215.253 210.036
34.1589 165.319 148.102
34.0994 76.899 23.9093
46.9646 87.8056 60.6261
43.6753 158.395 53.1566
97.1193 192.939 279.786
27.9329 155.006 88.7279
39.1633 134.257 55.6093
85.0082 87.5203 47.0559
36.1621 146.978 54.7491
60.4165 210.357 159.565
79.2109 113.822 126.64
36.6669 174.627 165.427
36.4625 100.336 59.2223
67.3049 212.931 233.54
124.395 194.718 267.277
63.2228 250.206 184.636
30.7912 149.751 130.579
93.4378 137.562 108.719
24.1712 35.5105 62.4998
25.2111 132.874 96.7072
51.9623 150.189 52.6734
74.2274 147.39 125.427
45.205 178.166 194.474
24.7564 36.5941 40.4554
59.2521 164.304 56.5489
58.243 147.086 51.0022
92.2529 79.1616 103.774
44.597 36.2094 96.0276
109.805 267.747 202.65
100.712 250.081 231.129
113.577 229.846 263.526
53.7353 60.9526 51.5497
37.1747 176.606 198.771
88.1583 149.561 111.676
31.0941 195.581 153.939
74.1271 60.6582 29.6238
69.5923 180.555 261.05
41.6334 137.258 134.276
68.9684 60.9682 68.8184
87.8837 252.469 204.723
58.5367 166.427 116.306
56.4008 92.881 49.5621
71.7949 227.629 153.83
79.1261 71.045 81.4232
64.6372 169.012 63.8129
30.6516 19.5549 63.1894
57.7106 229.859 224.003
40.6498 17.8529 74.3647
47.8115 113.543 65.7755
65.5731 55.5041 89.7759
43.6503 77.8269 28.8443
89.1106 241.965 205.813
52.141 184.332 242.48
32.7846 218.624 183.212
59.4256 240.669 164.169
44.043 36.16 67.6908
35.5657 38.2819 87.812
37.6209 65.0401 43.975
32.2174 232.993 217.759
30.4286 124.743 101.183
26.2785 137.383 71.6979
42.5692 59.7192 46.2844
28.7114 189.767 145.212
54.1339 75.2322 55.1744
58.6547 62.2999 104.01
80.6485 162.235 87.9393
79.8747 64.2342 72.2869
43.5885 170.741 145.733
113.087 258.861 231.081
30.3857 88.5263 67.3192
33.4258 119.785 64.517
73.9486 82.1756 52.2406
81.3906 152.358 68.2944
87.4656 261.115 209.767
50.288 101.382 55.7505
88.7514 203.297 266.824
52.537 194.72 152.683
28.5697 180.268 211.626
45.5836 201.132 220.905
92.5241 124.995 114.226
24.0686 205.781 182.766
49.049 185.803 188.352
33.747 45.6216 99.6449
58.5998 175.068 97.897
29.382 72.1011 39.8963
32.4321 174.939 104.782
77.6212 255.921 207.242
85.0409 129.11 125.347
47.6447 104.905 92.5148
35.6066 120.078 117.563
50.2487 192.677 231.065
62.991 156.923 133.36
38.8387 128.414 62.1367
37.5592 27.7685 57.0638
34.4741 201.098 157.162
90.8147 157.653 98.6706
95.3032 184.478 243.372
85.2515 69.2836 63.5361
43.4392 58.5399 98.1879
38.9488 110.843 100.744
90.8332 149.428 72.3933
102.136 260.016 199.681
34.2005 114.005 80.1984
71.2461 163.55 63.3434
43.4152 199.684 232.145
47.4027 139.907 144.362
43.8446 170.047 202.616
52.338 63.9666 99.483
35.034 155.399 133.883
59.627 232.882 166.337
68.7906 101.727 46.6855
94.5074 155.997 91.7037
43.7281 66.5492 83.2496
29.6846 99.7522 31.5021
71.3698 231.468 214.091
73.6538 107.726 120.329
78.9465 85.7272 62.0807
50.8284 224.084 219.165
48.878 212.484 164.708
72.4803 166.732 104.907
98.5841 145.958 102.401
92.407 94.7684 76.8056
42.3137 222.263 208.546
62.1292 106.001 122.562
81.4204 233.083 206.122
62.7302 102.049 93.8996
27.3754 137.528 115.686
91.4561 80.2065 83.6806
81.4651 157.459 79.4842
92.1053 189.858 272.798
52.5756 82.2517 21.9618
28.2684 130.46 75.124
47.0221 176.463 119.118
75.8125 134.628 133.059
75.3978 181.553 243.34
34.8013 115.851 93.4456
129.029 186.285 278.626
86.1341 69.3435 106.752
36.8547 182.916 169.015
40.2108 109.434 87.7982
34.564 209.881 173.714
45.4911 85.5474 23.9095
42.141 165.514 211.927
33.0869 201.18 190.687
69.5488 178.832 248.054
53.9524 133.618 142.767
41.4926 112.355 76.6895
75.0051 125.333 135.721
82.1453 251.559 186.011
88.2293 143.266 117.197
77.2469 222.086 226.629
41.038 140.169 141.08
25.0958 192.019 191.768
101.164 191 248.431
45.9254 52.5644 38.8918
44.4961 218.801 170.096
88.6619 114.324 99.6052
39.7612 61.6658 89.9709
37.1917 228.268 222.901
135.866 219.777 270.351
59.8074 90.3192 37.4004
64.0903 183.877 258.492
43.5396 122.696 129.787
40.8802 109.545 40.7235
84.45 111.099 107.185
48.4785 177.372 149.904
48.8214 154.19 137.248
51.4746 174.67 103.422
106.736 239.274 236.942
69.8451 86.3327 68.8085
80.9402 211.991 256.069
96.6734 267.038 201.887
28.0707 27.0844 37.9643
47.3648 188.016 238.028
52.9687 65.8563 75.4686
26.2295 208.961 175.246
34.9664 168.937 212.661
29.297 198.696 163.324
44.584 230.92 209.944
98.7546 248.055 182.992
121.643 188.544 271.776
54.3626 185.905 155.962
40.7314 113.292 111.406
84.0185 123.372 77.0596
67.6457 172.48 252.514
61.2211 227.614 161.441
81.2542 108.686 97.944
62.0044 245.4 203.175
92.3141 130.463 75.8257
78.2074 216.564 246.04
30.1041 149.303 59.4951
51.5414 239.342 204.803
69.7835 152.814 129.983
28.8834 124.112 92.28
76.4505 206.937 265.559
58.9989 96.3929 26.1219
33.28 46.9904 64.2931
84.2833 259.846 221.752
39.9036 170.822 66.706
55.1859 237.124 194.412
89.9872 249.661 185.657
67.6452 226.529 222.616
35.3871 187.96 141.014
26.119 112.767 157.184
84.8483 247.991 216.48
77.793 115.657 80.646
29.3915 93.0798 53.1736
65.2246 70.8896 55.286
66.7677 73.4214 69.3989
61.353 55.3427 104.303
51.6584 104.078 83.405
66.6014 60.0132 32.1074
41.2154 65.8254 286.339
69.8955 77.1435 62.7606
32.8523 53.0099 46.438
93.5733 120.218 89.3855
43.2009 189.437 231.822
70.8106 164.231 114.323
35.4714 185.238 186.924
54.4773 172.637 112.656
60.0688 107.571 55.155
85.3486 217.229 187.248
55.5859 214.832 236.021
103.532 238.431 174.918
44.9684 118.626 159.522
77.8569 160.159 68.2607
89.1889 229.109 199.575
40.7743 185.799 179.077
77.7324 227.322 271.527
75.2735 156.649 117.708
73.9579 160.102 109.908
45.6854 181.323 174.518
45.0164 219.981 186.302
49.6193 48.4087 22.7383
35.6613 166.894 60.9882
88.741 238.977 213.007
46.9297 178.054 95.3649
36.6994 188.158 226.255
98.0278 151.499 85.2531
61.2459 137.48 53.4774
72.6986 54.2268 23.8934
40.4023 49.7052 42.6277
30.74 171.259 97.0012
39.0495 57.9179 277.474
44.8177 22.4141 40.6314
56.0164 113.185 131.52
60.3874 103.127 108.455
50.5942 232.188 207.645
100.769 197.93 274.205
77.332 140.24 60.6064
121.361 213.472 263.24
67.2524 145.858 52.9929
131.168 210.278 275.576
36.8327 186.428 133.876
61.2168 233.124 215.787
67.1478 238 211.469
97.2466 200.19 253.297
48.6381 202.261 239.059
71.4469 248.953 209.671
47.1288 104.721 101.452
105.171 191.161 270.491
42.1267 182.854 190.109
105.639 265.186 223.019
26.9563 155.276 64.5937
36.2715 28.0837 39.2332
71.9314 215.916 226.169
34.7512 185.462 234.062
87.8432 154.125 77.9045
78.0566 48.8956 71.8752
55.3786 104.594 105.335
112.561 268.364 220.598
40.0946 169.675 231.422
60.3475 174.238 87.1658
87.2458 180.281 272.413
39.7146 215.998 230.498
35.7473 187.727 151.466
65.1825 63.0011 94.3432
75.5467 251.811 185.3
89.564 230.891 163.207
94.0246 262.575 194.269
33.7011 207.876 223.734
67.3976 112.225 72.0918
31.5204 207.828 194.835
41.5624 222.848 224.611
51.3476 148.259 141.298
82.8986 136.376 124.422
79.6923 111.884 88.3587
37.2232 183.538 196.172
73.3997 213.731 239.92
77.7223 205.088 178.086
119.828 263.928 223.201
46.4349 165.32 56.7099
72.0217 63.391 47.787
63.2472 55.4995 40.6307
33.582 137.907 55.7264
85.9213 254.638 191.633
87.8199 185.567 255.574
57.6745 108.468 70.8538
50.5739 105.669 50.443
116.247 240.51 199.918
33.9665 205.612 203.939
35.5722 206.258 163.255
38.9131 81.602 22.9399
78.2303 58.8042 57.5145
33.9774 173.206 226.984
68.0561 242.562 195.414
46.0474 122.293 66.0826
50.6303 205.551 155.846
58.7754 191.26 236.794
41.1589 227.327 215.386
25.011 164.778 92.75
56.0499 233.006 184.534
79.3881 219.523 194.697
78.0144 224.254 261.81
64.8511 129.909 57.3518
73.9179 165.032 96.0769
93.6991 139.224 71.2936
69.4328 253.84 185.024
54.8863 175.585 75.5412
64.6449 196.488 151.611
75.7797 164.368 77.9194
58.2291 45.1179 93.4441
57.9067 242.073 198.968
82.3033 245.9 170.621
69.4344 106.742 85.9569
36.3009 176.195 89.3538
32.1283 216.858 219.24
70.4931 59.705 40.9066
68.5533 123.542 62.7343
57.6988 196.215 243.187
29.7722 192.886 174.188
87.4387 264.752 202.385
72.5699 95.6915 54.8712
89.7112 246.395 170.666
75.5018 244.565 157.939
92.4614 187.11 280.941
61.1958 218.365 234.966
124.464 218.889 269.676
82.8962 90.7038 73.5044
44.1351 145.52 50.2896
63.235 166.507 110.956
24.7911 191.579 180.997
28.2564 199.987 181.789
39.3315 180.579 204.718
92.4811 232.91 223.378
90.481 92.8932 61.0585
76.109 32.9285 61.4096
84.7302 236.977 162.963
77.0466 54.4582 42.6465
71.102 59.935 77.2705
94.193 247.581 216.395
33.5326 44.9272 73.4476
35.8737 175.036 113.701
87.7009 117.887 90.7243
59.2595 106.478 44.7237
65.0625 216.062 154.274
89.987 76.0055 70.4896
32.6604 189.131 197.108
70.4224 222.67 232.762
55.1388 235.215 170.703
48.0942 107.619 75.555
54.5925 47.2898 33.9028
67.2322 127.037 138.558
65.2509 205.986 238.644
54.6181 58.733 111.888
36.2414 178.722 231.008
21.2569 301.703 73.2134
82.0253 243.947 164.208
64.0244 246.964 170.383
31.9679 195.711 230.924
85.6311 245.085 198.115
88.2497 68.9557 81.0087
72.9066 237.903 223.893
62.3134 173.217 76.6787
103.45 139.029 94.0981
55.5434 191.798 182.777
41.9401 106.098 146.439
66.4601 239.871 160.429
26.2845 209.237 220.607
30.4543 189.458 211.006
48.7545 214.93 173.963
77.5024 250.247 193.994
63.8243 195.047 176.331
82.9299 111.993 115.473
97.533 263.179 188.486
65.4202 229.824 205.543
96.2011 190.183 233.392
63.8945 235.205 191.707
77.1362 155.865 60.5115
101.746 233.91 242.26
28.8059 184.928 191.698
66.4811 169.569 99.4219
38.8552 127.109 111.092
101.339 258.93 225.146
22.5837 139.13 81.7382
74.037 172.186 253.684
85.0926 53.8788 65.9524
26.5544 72.12 33.0901
80.1199 125.05 132.121
69.4589 234.782 155.975
115.255 183.103 256.536
36.7272 173.497 207.45
60.5848 211.041 169.878
53.1231 198.275 236.87
65.3898 240.149 183.121
53.6482 178.354 90.6953
30.2421 188.593 218.918
35.0628 198.577 169.435
79.3935 223.958 159.801
35.7318 122.471 162.24
82.9873 120.654 125.584
74.7204 55.4185 64.6935
38.598 179.329 159
41.8256 46.1953 25.7697
58.5501 115.277 64.8032
56.588 52.9578 41.6564
74.9801 238.877 215.536
42.0868 175.534 235.68
36.1192 181.783 223.419
78.2765 217.148 274.767
84.9486 145.771 65.8998
53.0493 229.034 192.076
108.624 258.602 195.913
57.3181 241.761 172.136
80.6613 260.889 213.771
50.8779 41.8186 61.1818
95.0597 256.807 215.426
28.7718 140.019 63.0154
32.2019 187.834 178.702
75.7561 210.378 222.782
104.373 242.628 181.915
37.4685 219.695 195.419
25.8573 143.192 93.3175
117.137 235.751 244.431
35.5828 128.033 125.918
98.0906 253.182 222.139
39.6803 172.916 153.073
45.252 210.341 192.761
78.4641 183.06 253.377
37.745 217.434 222.802
54.2085 165.279 141.664
96.8303 150.455 97.3181
37.4509 10.5067 73.6156
122.789 187.265 279.909
36.4771 135.122 130.927
55.7497 195.715 161.207
117.917 188.866 279.629
62.9683 101.058 51.8195
52.9107 210.324 232.685
30.1309 206.609 169.558
40.0901 128.503 141.816
98.0899 129.663 83.8122
42.771 227.423 194.59
73.7434 251.837 173.57
101.802 259.371 213.272
68.2898 117.122 66.0594
57.2692 79.2309 32.9398
53.906 179.483 82.6325
55.2099 203.224 165.701
81.1415 220.282 257.808
83.0237 220.004 159.623
70.5128 213.362 157.753
42.4812 208.634 163.806
49.7467 227.571 199.671
69.0436 198.647 243.16
75.8694 148.388 57.0511
96.0903 244.63 224.093
111.881 258.606 214.467
33.3538 191.441 185.189
89.5186 223.12 193.777
60.2645 189.072 163.947
67.2557 101.845 57.8562
90.5506 149.354 104.71
37.9679 174.896 72.7128
84.813 208.692 180.531
24.0598 204.668 195.494
71.5164 111.363 80.4426
87.5156 185.65 243.147
36.4162 168.815 220.651
29.9017 195.454 187.141
75.1612 209.836 163.282
67.1198 241.594 204.906
69.4917 220.952 156.283
26.8918 207.193 215.349
78.3773 242.153 208.315
69.8027 158.51 121.655
88.2207 231.617 231.201
103.325 226.244 239.614
76.388 215.646 158.001
76.6461 217.177 267.992
81.1838 206.189 230.412
48.9305 221.031 177.912
76.2764 247.519 201.392
59.5997 235.918 187.066
33.5289 66.8612 273.791
74.3138 129.155 62.8832
94.831 240.13 173.939
101.354 249.82 190.73
77.2391 122.154 73.1348
30.0052 199.778 205.987
81.825 228.275 229.357
49.5908 184.094 181.234
61.7796 218.974 227.268
29.5919 299.887 155.049
31.8586 197.996 196.821
52.4232 187.857 169.441
59.342 171.628 69.8398
47.5408 177.112 79.1009
90.851 215.504 234.82
40.6998 200.263 227.047
36.6303 193.398 202.665
46.4433 227.776 223.034
88.8328 256.572 197.053
97.2358 190.458 269.3
41.9212 230.197 184.925
88.2098 69.0061 94.0741
87.558 123.299 82.4257
57.7968 201.456 240.324
118.552 234.037 250.967
29.7793 123.382 82.2711
77.4556 72.8106 57.7849
69.4705 225.346 255.125
60.0982 185.929 173.772
50.126 230.13 217.322
92.3951 220.449 184.022
99.8315 184.066 256.85
32.9585 205.385 218.035
30.1035 199.225 176.293
95.7221 250.915 209.669
84.4838 217.539 217.452
88.479 192.599 235.549
114.089 202.121 276.048
94.574 237.54 231.634
117.492 241.418 223.959
76.4595 234.647 159.011
96.6257 63.2203 46.0514
91.8661 231.209 235.832
89.4215 241.218 167.098
81.5375 229.591 163.945
114.822 190.533 268.593
81.1938 248.116 206.866
38.3434 98.5899 152.301
69.2681 227.013 160.127
78.3633 87.2166 71.0296
85.4374 132.445 70.2902
47.4783 106.993 115.959
95.2547 222.53 171.22
39.0165 215.13 174.216
45.9445 235.55 200.481
71.6605 244.058 188.635
65.6078 220.81 228.658
103.198 192.313 263.589
47.7583 173.427 139.357
66.7057 207.592 155.208
57.3256 183.336 168.183
106.969 225.815 197.026
35.0833 181.066 209.77
81.7662 142.463 127.082
89.2027 229.481 216.75
27.7218 299.826 143.21
77.7165 246.104 177.74
37.3909 190.783 181.28
43.4907 180.353 182.597
61.2513 235.596 202.772
99.9183 215.442 207.178
69.6293 241.624 168.029
75.8354 103.713 93.508
74.5727 199.257 158.871
94.1428 228.568 229.838
84.4485 155.578 101.919
80.7288 134.704 64.4523
67.7089 216.623 238.686
36.0906 197.469 188.042
44.8734 204.444 168.193
85.2294 220.924 232.495
55.1847 231.948 212.362
95.4504 225.186 237.176
93.4292 93.3635 69.3964
83.584 101.767 62.8032
32.9478 216.84 191.179
110.791 234.641 241.441
45.3432 234.093 185.52
94.2671 250.441 192.224
101.594 133.327 96.4086
102.859 258.724 192.89
98.6567 144.544 85.4084
71.7876 192.81 197.523
114.311 240.256 238.487
38.6796 189.842 197.634
100.076 213.865 266.223
124.755 238.032 237.235
111.406 256.242 223.199
47.3131 214.57 209.142
53.9974 179.145 175.696
73.4506 74.2204 49.3667
65.1566 216.836 158.693
90.9944 118.905 111.629
97.3891 225.909 192.357
34.0898 18.743 68.9016
115.335 254.188 187.605
90.0378 211.551 182.851
90.5259 231.249 205.799
62.4795 120.194 59.9283
80.5988 242.311 191.156
103.944 242.409 231.007
113.209 247.302 236.984
74.2479 243.515 165.195
78.4886 231.195 266.815
70.0632 246.282 223.289
57.3322 230.849 206.562
56.3541 237.258 208.859
56.4083 85.3868 33.8675
40.089 223.302 169.197
112.114 255.576 200.443
110.869 189.043 263.427
96.105 232.953 174.535
106.382 248.997 228.002
103.028 262.741 207.933
34.0304 175.795 155.522
34.8158 203.961 172.885
82.7424 234.184 185.601
103.589 74.4754 56.5905
63.2106 168.437 166.343
74.1872 244.885 195.298
61.9357 234.368 208.714
31.5293 209.865 218.143
33.2572 186.697 171.665
67.8212 166.493 88.0255
52.4621 187.659 175.876
94.2201 225.392 245.403
69.3552 234.422 183.837
81.6513 71.4276 50.0588
78.717 246.167 183.267
35.741 127.724 139.28
