ply
format ascii 1.0
comment Created by Open3D
element vertex 1559
property double x
property double y
property double z
end_header
41.7951 92.5539 109.976
23.114 220.732 334.052
33.4507 64.5918 334.218
22.0748 65.0982 339.273
24.3534 101.956 315.047
24.8463 113.661 289.661
57.0697 132.161 334.067
41.5433 55.9221 358.249
38.084 128.629 347.663
43.091 142.864 148.13
74.51 200.41 366.402
36.6299 153.485 81.889
44.4399 164.275 99.4905
36.9042 232.214 184.157
27.2719 72.4886 172.521
32.6053 111.255 337.791
33.6067 242.494 162.52
23.5358 98.5569 327.77
31.9025 137.905 152.744
50.7733 147.618 53.3979
34.2949 84.6051 182.724
46.3597 101.847 115.383
35.5709 204.693 350.282
57.9192 176.994 37.5992
27.0946 196.901 52.7913
54.2722 39.5258 334.348
55.5258 108.654 334.645
33.8959 46.1658 333.139
36.6293 192.149 358.135
38.963 120.812 344.008
45.0457 148.932 301.134
32.8031 122.841 339.18
64.8469 185.093 108.687
32.8739 116.41 350.1
40.5184 87.9945 170.724
62.7604 165.539 59.0274
22.753 58.7319 304.999
24.458 89.1697 329.77
57.5304 80.6949 361.961
28.8925 222.232 347.272
26.263 205.079 347.114
28.5337 208.45 338.453
28.2538 75.0505 310.402
58.4845 168.575 70.3013
26.6343 127.443 307.654
64.7567 108.477 349.807
54.1756 111.888 71.0243
35.8168 99.4275 77.9917
33.6769 68.8916 289.618
64.846 145.528 53.1521
35.761 198.134 353.688
60.4199 84.7792 274.927
42.4364 124.587 146.789
45.1312 120.6 361.119
32.6053 112.615 238.72
37.7722 175.997 333.933
39.7738 119.114 137.934
23.4615 136.304 148.485
62.5634 72.678 359.082
50.2773 143.044 303.644
23.3102 112.765 299.951
60.3173 29.7397 317.531
38.4961 52.8642 332.865
29.5536 55.6252 314.399
25.899 125.931 145.872
22.9734 89.282 361.802
32.6998 177.151 69.9305
38.6587 189.642 315.894
29.7047 199.318 319.087
44.4873 127.428 354.996
49.4131 77.8585 276.144
29.1336 130.425 284.335
56.8253 107.496 63.0279
38.44 210.191 172.325
50.9944 152.213 90.8147
48.7853 68.6568 287.184
28.2396 108.733 281.644
53.8385 193.036 354.205
52.3368 141.28 236.659
28.6001 111.037 75.7173
28.2501 82.9478 307.919
51.6147 123.492 67.8227
44.8006 193.43 102.821
64.5909 177.363 42.2395
31.3003 171.73 355.739
35.1054 267.171 149.059
25.6312 191.086 58.8718
45.3041 158.888 315.273
26.0359 266.831 147.271
25.699 195.494 345.993
48.7436 186.519 39.6823
44.6957 86.7387 95.3238
33.8819 94.2252 91.5339
50.2861 70.2214 358.419
46.5391 104.766 67.5011
34.4096 123.282 101.226
59.1083 136.962 303.689
47.5837 149.464 136.623
46.8894 216.246 76.3104
23.1182 68.5861 302.401
39.4486 117.161 357.587
31.224 130.292 312.477
67.0702 45.2039 361.255
27.2806 75.1551 355.596
58.2954 122.226 283.716
27.0711 82.8867 336.964
48.2468 220.031 160.062
22.1759 78.2458 356.903
37.7835 51.1517 298.888
52.5024 120.155 242.372
46.9467 108.978 59.8466
43.376 83.5877 356.248
29.2937 51.0427 328.795
39.441 112.089 105.937
22.6213 74.0784 314.278
63.6608 115.515 375.244
41.2728 130.437 98.7891
46.8925 130.117 363.572
40.9132 132.249 225.824
25.8379 161.333 64.7821
49.7332 220.316 343.672
41.5051 142.982 341.376
22.4145 91.5368 353.261
48.996 45.2399 321.912
47.1379 96.6744 274.53
62.857 140.602 134.959
30.4633 79.1142 296.108
46.0247 226.484 349.058
69.622 205.822 319.044
34.8811 186.73 44.6203
34.2575 98.4139 109.473
31.8062 4.69143 83.2917
37.7549 81.2008 370.177
50.8072 144.642 152.88
47.2587 214.995 166.949
61.7862 138.62 324.586
47.5988 122.435 82.6489
24.6491 207.055 323.93
38.3118 146.863 121.003
42.6961 87.8554 277.922
49.2632 98.8886 69.8378
23.6771 129.316 246.716
55.6683 129.152 303.625
33.7103 245.213 172.069
90.802 84.0187 361.827
25.7228 124.264 240.928
21.8477 8.91791 97.5229
28.942 185.231 97.0987
40.1328 242.869 154.926
23.3721 131.458 235.864
56.5364 46.3496 353.155
48.5833 62.5663 358.252
32.9039 135.034 228.397
43.3243 216.704 183.448
24.9573 70.3697 290.086
30.2127 140.071 309.501
38.432 44.7335 311.714
58.5698 142.573 69.3411
38.4841 59.9585 289.095
34.2482 159.555 353.59
36.2987 137.213 253.746
67.3958 201.473 325.054
32.052 123.114 226.077
28.5886 171.283 91.5827
56.7676 205.222 61.2204
50.8369 136.751 349.97
42.3989 226.54 343.085
39.4579 50.7257 324.901
27.9132 114.718 81.9906
33.9392 181.519 56.6862
27.8592 121.582 299.074
36.617 83.3321 293.209
32.09 189.952 318.798
35.2098 240.265 183.676
42.9707 116.473 292.654
49.0595 203.135 95.5109
46.2928 209.923 91.8568
31.3526 80.7581 369.24
22.6188 105.046 306.195
38.2739 148.546 303.577
59.9426 185.097 41.2127
59.8282 131.931 123.791
35.6913 54.1697 355.18
54.387 50.7702 364.589
33.0151 105.563 319.773
22.1713 143.014 127.758
86.3809 70.8917 381.947
34.8674 114.713 231.044
28.2214 128.049 231.208
75.1009 114.541 377.421
44.6891 224.912 157.102
41.0654 131.057 79.417
21.8324 8.00182 114.269
68.5872 83.8478 380.935
59.1065 191.099 103.133
30.83 124.992 85.935
51.6036 118.333 334.389
23.4392 88.7198 306.843
27.0036 124.502 338.661
64.725 202.032 93.8526
21.5975 9.99493 87.1855
55.6857 90.7048 373.099
23.2147 205.16 333.76
36.0508 236.379 151.702
32.2737 208.303 75.2799
60.5767 115.395 90.6977
48.8609 33.3341 350.576
45.7409 141.137 233.631
50.1596 158.713 81.9872
69.3586 223.646 342.159
67.1311 80.7138 266.094
37.7383 169.864 96.9503
37.0901 153.579 119.508
41.3286 112.234 88.2218
61.3833 99.9377 379.391
38.537 53.9902 280.801
32.8385 90.1786 86.4746
45.0832 134.104 350.915
68.2252 95.8885 274.671
56.1365 110.452 377.044
51.1171 113.208 88.5551
44.6076 107.476 102.479
35.2391 73.6406 284.86
36.9541 175.624 48.7339
21.5095 140.097 137.885
27.2514 107.074 101.557
66.861 193.289 95.422
24.9832 171.163 57.0418
29.9348 196.793 353.708
63.8073 153.282 59.1186
51.0552 81.5613 93.6782
29.2911 164.994 53.5159
33.6123 43.4943 294.561
35.766 117.156 251.203
53.5984 70.6489 297.352
31.2391 120.01 76.1532
24.1997 121.694 284.95
37.7537 186.956 323.17
45.7972 113.624 82.6627
40.2115 207.581 83.8925
57.8106 144.347 296.642
48.8018 114.913 65.0631
45.6433 135.994 255.591
23.2844 212.522 328
46.1778 100.209 337.798
36.3859 143.521 236.723
54.7246 167.74 313.282
74.659 45.2094 363.092
48.817 84.2502 374.412
62.249 124.835 79.6456
62.4926 123.448 69.0461
21.2715 76.936 327.324
63.032 190.956 339.508
38.3081 123.465 229.535
30.5986 79.2202 342.757
61.9884 142.878 354.973
75.5945 206.472 318.156
37.2122 121.79 301.631
35.3076 135.88 339.736
43.5138 37.4882 308.604
29.1479 197.242 333.743
23.3467 60.9309 321.408
64.193 153.367 42.2186
25.3063 217.618 343.767
52.1718 196.749 101.57
77.1666 102.099 98.0299
65.3159 95.097 58.6945
49.9295 143.764 83.3382
39.6468 124.805 257.007
38.3229 111.411 70.3774
46.9888 178.398 336.878
68.2966 145.357 353.152
55.9841 151.692 72.4931
49.5457 151.647 314.23
25.9291 242.023 172.811
54.3781 216.09 323.14
46.9762 150.902 364.381
58.7142 194.69 332.006
55.0494 185.614 39.996
76.0207 198.057 90.1759
59.3231 53.1283 347.929
29.8259 128.564 345.819
49.727 152.459 121.818
62.5481 125.845 132.806
27.0044 201.751 59.5736
47.6713 110.103 282.73
70.1621 65.266 358.975
34.7672 174.714 360.575
51.0418 51.2885 302.486
55.3572 83.3296 79.9553
26.468 242.707 180.703
43.0854 138.884 154.445
27.0896 117.897 98.4403
40.0684 98.7997 69.5043
53.028 99.2445 347.34
27.0984 59.72 332.537
60.4836 117.281 335.133
69.177 51.0942 327.622
60.4641 117.274 275.899
51.2629 45.118 298.966
29.0408 187.364 348.892
39.3202 136.68 346.843
48.7015 65.7178 352.224
42.7599 97.2843 283.921
35.5284 153.174 67.8693
31.2544 180.467 333.96
82.0029 190.266 61.103
38.3222 199.747 76.0651
49.7096 177.589 37.4996
29.3525 230.482 161.146
51.4198 185.581 331.763
83.7799 134.064 366.966
56.0587 100.148 100.528
72.2772 113.182 74.6865
75.0804 84.6008 75.9019
30.0131 166.124 348.223
47.7017 34.781 334.151
38.4893 102.594 97.0094
25.6537 164.89 85.2329
34.9676 222.219 155.746
41.1228 161.802 364.568
64.611 154.168 100.298
35.1228 130.803 92.2119
23.6531 113.487 322.26
30.9539 149.825 139.707
34.1853 246.123 180.742
46.693 159.258 323.56
50.7634 195.765 361.086
58.5277 44.4393 312.841
59.7004 177.352 109.188
33.5862 137.67 246.684
49.8108 84.5303 65.4129
55.2071 105.137 56.3922
22.8333 165.295 70.4218
27.6808 40.0305 306.853
49.9184 59.6887 367.649
29.2663 134.927 251.658
44.811 117.978 335.85
94.0452 92.7341 271.54
73.1626 101.82 80.5129
42.3909 128.838 86.2078
33.2737 172.821 44.1418
30.2957 231.881 183.294
81.5916 83.6555 279.557
81.2979 114.15 267.716
54.926 154.859 80.0148
60.2711 50.818 316.857
33.2691 58.7468 294.518
35.7951 107.389 92.7046
23.6737 99.1566 292.981
51.1854 194.141 311.272
40.2253 155.291 322.004
44.4372 46.7949 327.593
53.9922 132.504 90.148
50.9663 176.14 52.9274
21.6217 15.4422 100.962
47.0012 95.6516 57.2638
47.3766 156.592 103.174
30.7399 138.905 325.33
32.5856 100.435 216.124
26.7507 155.349 74.8689
59.5332 46.986 340.448
75.1429 49.3479 345.707
58.8298 90.9185 68.0936
50.8472 198.41 45.8855
47.0385 119.41 313.262
45.2319 50.1258 347.977
28.6108 216.026 169.677
45.5389 231.19 335.801
52.1974 95.051 92.8226
72.802 156.497 49.592
24.8542 171.2 70.8228
26.3238 225.174 172.438
50.6654 179.41 317.294
57.3205 117.592 62.376
24.9476 179.99 80.0091
41.6485 60.3548 370.324
25.6728 101.633 228.291
25.1217 80.6104 329.173
79.2712 71.8359 360.926
49.1265 59.5743 287.26
50.828 159.673 142.088
58.6883 145.593 126.891
26.2622 153.562 129.819
42.4228 45.8905 336.782
41.6902 167.117 79.5107
66.0345 80.1262 356.267
63.114 106.472 282.516
34.3018 54.3482 321.464
23.168 82.2478 312.015
35.9835 77.093 354.565
38.3589 149.312 148.653
43.6587 59.1541 294.249
46.8975 135.479 232.487
44.7316 236.047 151.314
59.1137 182.663 345.093
23.6877 113.712 347.618
43.1817 170.238 67.5682
27.6555 36.1241 380.573
53.111 99.0686 364.453
54.1515 178.783 107.86
39.518 115.287 345.79
43.8971 215.016 62.365
37.7588 203.435 61.7634
48.449 84.3035 99.8573
45.226 128.183 298.636
64.6757 114.081 363.338
33.3166 214.861 176.15
53.6791 118.973 368.479
34.6428 216.742 320.005
24.6992 47.9305 308.152
25.3267 145.105 143.697
49.0502 151.178 286.2
61.0719 187.96 50.0905
30.3578 113.319 104.594
39.3015 218.177 332.099
54.0568 122.301 250.792
84.4043 62.9244 302.687
39.4709 102.294 114.714
56.7325 119.033 321.434
71.9955 67.0897 371.606
25.1458 186.306 327.551
34.3013 148.798 310.826
24.8095 92.8285 316.995
53.2168 180.063 351.599
22.1058 102.829 360.405
37.128 226.552 190.383
43.9804 182.504 316.345
45.7535 105.125 74.0292
54.641 82.2627 277.795
68.6479 43.2 342.832
32.4104 89.6618 283.704
40.9523 130.819 153.927
22.3705 127.359 335.017
31.5501 204.148 325.122
28.4723 91.9022 303.927
24.9476 130.345 345.312
69.5498 80.083 275.001
68.4885 128.342 317
53.1489 91.1899 59.5898
49.7926 226.041 175.059
48.4242 174.543 365.856
31.9644 121.016 304.088
61.6852 97.6678 344.578
49.6551 216.611 179.901
40.2852 75.4234 372.338
61.3391 215.261 80.6417
52.4654 45.3998 291.416
25.8025 186.947 51.0734
53.1075 106.507 363.47
62.8437 147.59 146.736
35.2218 182.367 360.053
64.3927 191.529 108.255
37.9641 94.6154 282.751
63.1465 184.408 91.9398
49.9453 137.337 340.504
21.8776 125.331 295.567
66.0412 61.8725 270.903
55.4114 138.198 243.851
68.5619 46.2538 351.401
59.4884 106.389 362.157
46.4412 181.161 328.547
39.0846 109.202 247.745
96.0808 45.9663 362.654
48.73 85.6431 356.173
71.518 95.632 97.6293
62.7244 89.0575 358.534
46.866 105.84 350.127
54.9418 228.839 344.946
27.3262 71.6566 321.359
46.1984 139.722 70.7607
56.486 209.849 358.002
40.9155 94.0334 96.3015
43.6916 246.398 164.294
51.773 144.828 333.78
73.8582 185.252 320.2
58.2835 147.579 46.2954
21.6412 58.618 330.735
25.2633 58.6613 388.448
71.2921 154.034 355.795
40.5833 110.995 277.416
44.6203 90.2073 61.1175
23.2184 83.8149 175.985
33.9931 197.257 345.847
55.1631 162.403 40.9543
75.1295 58.7904 366.984
56.9885 170.759 77.8628
40.0055 144.577 243.391
30.1369 88.7648 293.674
67.0839 212.261 86.6098
54.0453 173.466 88.2596
40.7911 139.064 77.8981
27.996 108.135 308.911
59.1807 67.3237 283.857
56.7835 100.794 69.9945
44.7357 121.901 231.851
38.5592 114.35 323.332
79.6306 104.791 273.43
29.2279 120.359 235.969
69.298 88.3689 94.204
29.5379 223.685 163.07
58.2353 98.0946 58.6021
51.9614 166.974 47.2242
47.9923 189.335 364.246
32.1227 81.047 286.133
30.9443 140.197 234.583
29.9497 202.418 88.9953
34.7358 107.203 111.815
40.8769 51.5863 317.826
34.7242 147.811 331.772
23.6569 105.766 87.6482
71.593 197.916 96.5503
63.128 101.837 265.059
60.3731 144.16 308.374
43.128 184.149 104.329
32.5051 195.584 71.797
37.312 41.6211 300.062
71.5793 176.886 42.6825
40.7449 199.971 358.006
73.0757 158.774 59.3391
39.8959 202.699 48.3392
29.6509 118.163 323.99
54.7743 154.573 147.25
54.9054 113.859 57.6628
31.3783 76.7553 180.194
61.032 188.555 358.2
24.5876 115.573 87.1511
42.9497 192.373 350.492
24.7352 140.99 270.95
43.7303 44.1779 295.549
29.0729 115.589 363.623
53.6427 162.044 302.709
52.7976 216.226 81.3868
33.6216 103.921 284.312
30.7922 191.928 326.942
35.7089 154.956 346.649
51.2837 109.659 246.376
38.1285 101.409 274.605
52.4515 201.61 52.9495
31.1754 236.797 157.154
54.4496 150.547 325.691
30.5785 189.328 337.768
35.1114 147.625 155.219
33.8461 100.209 374.734
30.4609 217.901 183.848
30.7216 63.3868 290.318
74.8485 205.079 340.236
56.8415 35.1235 328.266
44.9048 75.3733 359.209
62.0461 122.826 325.259
41.7906 68.9693 281.577
48.5766 133.337 300.783
49.6506 237.788 179.529
29.9668 122.126 137.468
55.4686 142.048 327.427
60.1364 88.4309 269.607
68.6875 198.886 334.289
30.2376 98.3431 99.3524
43.2085 124.952 118.005
38.1085 218.219 159.773
46.1745 130.964 93.1363
29.0957 132.635 294.069
47.1172 240.258 184.476
39.9232 197.975 96.9911
46.7421 126.144 226.85
59.7192 27.9837 326.909
66.5782 94.6116 381.524
60.824 116.713 367.203
68.1171 125.676 89.3548
71.6887 153.502 99.9185
32.8555 106.75 71.7325
62.684 85.4635 381.476
38.6699 213.689 163.588
25.547 228.822 340.476
30.6076 195.214 65.3388
23.5482 91.7864 299.179
50.6112 162.387 320.226
27.8503 155.053 65.9512
36.5162 201.592 316.358
37.2654 184.926 100.515
56.6704 128.558 85.426
32.7907 94.525 76.1508
26.1578 174.108 48.7799
48.9761 143.466 90.5567
41.836 165.638 326.566
38.6016 115.343 271.402
48.4222 148.068 145.012
55.9493 85.7947 108.229
49.949 53.2335 319.888
24.6195 71.2697 359.621
35.0606 151.398 319.628
44.1152 92.6528 363.015
50.3291 146.847 97.8992
30.1973 181.657 351.074
60.3531 145.995 330.088
22.4935 96.3171 340.135
51.0613 131.565 238.195
47.3784 223.411 187.687
34.0236 164.157 357.954
65.7001 139.568 67.8355
36.2436 49.9771 340.387
53.3666 94.4259 72.7167
47.056 127.931 126.476
28.2603 104.346 81.0533
29.4404 169.676 73.2922
29.2411 183.994 330.491
28.6668 214.799 335.485
54.3983 62.9711 361.925
55.5303 114.856 281.049
55.5633 104.942 87.1712
62.0418 182.785 315.426
62.5743 210.669 92.6395
60.0917 184.086 352.424
42.2187 199.619 318.965
44.9227 212.067 317.528
32.6068 143.577 293.216
41.2656 187.335 41.783
33.6183 231.358 339.926
48.5109 179.594 107.292
28.5959 192.457 89.2686
33.2665 207.806 58.4349
43.9202 169.709 107.053
26.4256 94.9013 225.273
27.3271 78.9994 318.91
55.4719 168.905 97.741
67.1178 27.9719 329.401
43.3777 79.9972 377.236
36.9778 92.5692 106.712
55.4576 139.415 113.503
57.2003 196.277 52.648
43.2083 222.445 361.825
47.8813 80.7162 74.9406
23.7833 223.942 178.997
41.7757 242.792 179.905
41.785 210.102 55.0796
24.4883 39.1021 150.987
57.0054 204.186 354.552
37.7385 110.704 236.388
53.2294 99.8473 62.1524
39.9504 131.596 248.679
26.4421 177.148 395.586
64.6771 218.777 335.125
52.6276 84.218 350.139
51.0153 50.308 310.525
78.5317 169.363 318.452
46.0668 50.6731 289.147
65.9848 106.121 362.846
45.7553 103.743 233.36
37.2522 66.9048 363.359
40.4261 129.534 323.41
45.2125 80.0767 93.4547
38.7859 157.201 143.414
50.422 123.07 102.078
37.0817 67.2856 352.321
24.9964 199.551 77.8527
55.096 206.369 94.0213
50.7532 238.769 169.337
50.3372 56.7972 354.685
65.1945 133.604 146.476
56.1684 77.1633 280.558
36.029 125.6 75.8252
33.3107 63.7105 348.917
57.7105 31.3395 303.833
45.787 97.5726 372.774
53.9027 186.785 357.613
38.4897 95.8111 363.325
67.0896 84.338 109.541
33.391 218.496 165.73
60.8862 78.1617 76.9345
37.9171 102.315 61.6488
57.0422 126.684 345.269
47.9945 131.476 79.9813
24.9738 103.683 219.151
44.5071 62.9315 376.452
27.9871 68.4157 298.181
46.0197 123.933 294.814
86.6633 169.385 303.701
42.8746 54.5444 341.133
33.6284 215.786 328.826
29.5307 69.64 347.305
70.5251 107.828 382.445
65.3552 179.478 105.905
61.8383 209.807 314.453
53.0427 122.232 287.63
41.4754 110.516 114.899
24.1268 199.4 339.734
55.4356 104.14 78.1576
62.0708 194.318 353.521
51.4001 120.005 123.279
50.5761 88.505 87.3015
58.7505 178.108 324.706
69.7878 173.343 103.101
40.7005 213.856 71.844
63.8384 64.9068 281.047
54.0236 126.074 133.817
56.922 163.287 357.774
51.1822 154.279 304.718
51.2373 169.418 37.9226
42.083 204.055 67.5107
36.347 132.812 303.956
25.2544 126.331 329.769
85.2921 59.1747 310.184
60.2179 200.723 321.663
53.3698 81.4203 71.5223
28.503 81.4013 360.022
47.1747 210.531 353.736
73.1402 85.5512 66.5306
24.0289 190.769 335.632
85.751 188.745 324.062
38.5058 180.508 319.447
22.4636 62.9408 312.8
37.8698 92.4972 65.628
35.5071 111.825 86.6445
49.7018 231.379 170.595
42.4302 169.889 74.7252
62.4092 106.754 64.6827
40.2602 197.417 47.1857
42.9083 225.938 151.633
42.5875 197.094 69.6921
45.9367 113.364 234.183
36.7156 92.7329 222.942
63.8701 96.387 102.014
47.6103 177.314 70.8488
25.3611 168.154 64.1419
48.8604 116.166 110.333
32.4048 206.635 344.529
43.7136 157.604 54.1501
65.2717 140.191 60.5053
28.0531 39.707 322.482
42.0607 85.2846 72.3487
36.0324 38.1987 306.898
69.9865 99.2811 343.845
62.9862 213.913 323.33
60.014 92.2398 120.962
49.2955 36.3881 316.621
78.8669 89.3835 349.492
36.0596 196.015 316.203
22.3756 2.47963 91.5546
57.101 93.5861 115.702
36.9637 73.1831 360.97
30.505 83.7534 356.23
48.8012 143.287 242.641
47.6632 183.249 83.9206
42.9081 68.164 297.635
43.9783 41.4972 330.961
47.1847 108.048 330.025
50.5819 236.1 161.488
35.6099 129.392 232.888
34.6672 86.4006 94.1391
47.6987 179.387 370.996
50.0398 103.259 104.345
52.8856 136.951 130.77
29.0963 103.289 95.498
50.9312 168.187 358.671
50.5539 78.1524 358.936
40.4605 174.771 83.1928
51.1563 114.512 252.04
39.2474 104.48 373.354
78.8524 183.4 52.8758
47.3711 108.969 217.898
37.7622 156.458 59.491
61.8005 210.371 68.3079
47.2151 113.231 73.8895
66.5981 162.228 96.8929
38.3532 174.817 366.532
52.3129 210.17 353.177
48.8428 119.293 298.345
48.0157 219.596 315.106
94.3753 160.798 311.448
24.9375 121.942 90.9226
32.6434 214.778 353.081
26.7912 49.7135 150.487
41.709 184.73 367.707
71.2761 206.053 92.8179
51.5375 190.973 107.616
82.6131 202.976 370.566
45.0106 115.321 341.35
42.5086 179.717 66.3988
25.6798 79.0893 298.527
73.6838 100.687 266.271
55.3345 133.516 387.217
70.7908 76.0094 261.833
63.3439 200.716 51.7258
27.2027 202.854 73.629
46.1892 153.738 149.172
71.4519 197.677 353.288
33.9828 121.69 144.286
55.5827 68.2963 381.632
69.002 151.715 330.133
40.8267 214.78 322.57
45.9076 128.578 270.918
37.8802 164.304 336.52
72.3822 37.3431 335.773
59.0982 138.567 337.152
54.6449 160.07 334.217
92.3818 78.5043 371.265
83.4742 174.039 101.324
50.8361 31.4906 319.263
58.9849 19.4811 314.785
50.836 212.418 174.799
69.3861 138.069 322.984
58.5365 157.929 93.7998
62.5264 202.614 312.596
33.8875 9.66175 96.5935
49.7645 142.469 63.0489
45.08 158.496 41.0852
52.8278 157.712 311.065
83.2406 196.354 371.63
31.5046 177.019 339.664
48.6805 162.549 38.2321
78.8564 102.169 79.5953
26.622 199.33 326.034
42.871 246.145 169.242
45.6601 203.363 100.326
35.8775 228.064 348.522
35.4898 85.8998 367.916
79.4107 53.397 371.624
42.8983 103.672 379.261
23.2193 50.611 293.103
56.582 150.479 104.694
25.083 174.368 76.6093
90.3408 115.838 367.684
43.1489 229.009 181.635
35.6262 110.025 375.847
86.0003 65.0693 367.292
50.0655 136.606 248.144
87.2857 91.1921 361.453
45.4336 223.292 335.672
58.5885 111.014 273.103
62.4089 200.455 60.7498
47.1696 134.156 115.485
36.8215 190.74 75.6687
90.4874 93.5979 351.464
40.277 213.549 87.6764
67.1394 100.726 367.681
68.8575 55.417 373.126
71.8448 86.1807 102.531
74.3695 90.244 383.461
69.3171 126.251 324.191
57.7847 130.136 240.849
47.5506 139.653 355.736
38.6466 181.166 42.0501
64.148 86.3031 116.372
85.9708 16.819 354.985
33.7237 162.841 341.144
52.314 129.548 254.646
36.3965 219.239 338.882
55.218 163.224 364.831
51.9465 167.481 73.291
81.7408 86.691 379.417
44.3026 103.758 284.575
39.5591 174.473 101.196
50.7833 115.937 323.967
50.1283 125.136 283.918
71.5706 90.2536 78.9509
26.2129 119.855 316.425
81.8057 89.8457 264.826
41.5461 147.512 86.9908
69.9581 147.4 59.1954
52.955 207.11 319.65
65.5458 102.959 62.36
45.4535 196.211 310.926
62.5134 115.76 81.9042
70.6552 86.4355 270.315
56.8384 133.908 343.891
43.3256 121.915 72.3039
43.9085 132.712 146.135
34.7068 177.689 353.49
73.8123 163.73 97.0139
55.0464 123.114 308.488
58.72 202.377 360.234
62.4567 113.536 70.945
59.7411 41.93 319.62
63.2331 196.94 329.656
34.9959 116.481 109.014
92.3392 63.562 268.124
41.928 150.999 357.417
78.7391 57.7669 347.334
63.9775 201.933 357.434
52.9759 224.658 325.016
32.5465 164.016 91.746
59.1672 184.157 106.69
49.6655 160.009 125.108
55.1586 194.578 89.3043
37.8329 225.835 338.199
33.2686 159.564 129.001
43.3665 89.7317 76.2049
65.0832 47.502 331.701
25.9952 84.118 369.738
60.7622 40.0653 290.647
64.5325 105.647 116.208
50.3595 166.665 102.903
55.0755 185.285 105.202
42.7663 123.258 100.54
70.2769 50.9908 367.056
29.4165 64.8547 323.826
81.2821 153.878 287.845
41.8961 138.716 111.041
36.7867 88.1051 78.5208
32.1384 124.384 245.34
54.5252 45.8544 282.415
79.3367 91.3629 83.0458
66.8121 181.61 319.874
28.3116 108.784 357.03
28.9618 128.801 246.844
42.8242 93.3542 69.8622
30.5471 58.1827 326.851
53.2486 139.77 297.68
88.7674 157.115 315.277
39.3664 110.614 63.3078
40.943 213.248 344.207
26.1399 197.757 68.5914
35.8527 119.824 125.208
40.3377 143.287 71.7963
52.1398 156.469 365.485
49.3528 152.664 294.273
45.9945 173.9 51.4466
61.2615 55.1308 361.204
75.3035 96.8867 278.209
66.4591 176.528 110.198
39.1895 215.429 80.5731
61.31 150.932 67.3445
61.7224 39.951 325.741
65.9148 211.869 346.052
60.6458 90.0746 60.1366
28.0082 236.586 164.5
54.5629 167.307 56.2029
41.038 148.383 345.274
48.9732 219.117 353.157
27.0546 80.2473 162.572
51.3614 62.7646 376.744
57.1214 136.118 66.4431
76.468 165.751 74.629
35.162 167.144 337.328
44.2819 147.495 92.7804
41.8996 221.448 320.227
41.0981 57.0313 350.547
54.4698 141.703 279.143
42.0184 206.221 318.65
41.8189 83.5482 89.4985
48.8496 223.448 181.407
60.8725 143.138 363.782
57.2403 202.447 311.761
67.0233 95.2372 354.368
51.714 87.4049 117.858
49.1594 90.8919 283.264
74.2455 171.453 105.924
56.3064 117.602 339.246
57.5519 83.1465 389.315
71.9489 129.06 278.46
48.723 125.148 92.3993
50.7902 90.4153 78.888
58.6678 44.0767 331.271
41.0872 78.1406 354.866
50.9968 137.947 76.578
36.3663 201.271 84.7471
48.3402 120.751 269.911
70.9131 217.135 326.758
65.9591 113.488 274.932
30.1507 109.954 274.283
44.9319 81.3273 80.2886
27.5208 101.748 213.313
42.342 149.314 291.898
81.7116 152.194 62.5445
41.6896 208.971 71.7386
65.3894 198.522 101.038
26.3589 225.201 328.483
38.3086 137.914 300.39
30.9013 147.348 120.073
25.4199 149.228 147.854
31.4012 172.741 51.8458
58.7126 49.7244 279.14
27.5503 130.716 116.785
34.0338 47.8393 289.223
61.5747 219.883 348.367
72.1233 164.674 69.5042
49.5568 45.0536 337.943
36.7149 163.572 43.1511
54.1805 216.817 67.2798
30.4369 101.261 277.624
75.9617 87.5366 265.81
56.3492 72.7743 363.699
63.1924 165.221 336.505
51.5747 177.631 100.583
61.9702 86.6729 110.706
40.643 155.407 362.593
59.6096 109.741 99.7777
73.5648 96.1345 61.9952
68.3669 96.6658 371.622
48.6096 162.799 131.815
43.023 122.647 250.966
56.9097 85.0828 383.013
35.4868 128.711 250.733
44.3771 122.405 108.183
40.6243 83.1458 82.2053
35.4792 171.464 65.5053
89.5934 142.785 364.121
32.0721 149.065 76.1128
71.9864 182.131 343.516
56.7817 99.2288 121.517
29.9165 175.322 83.5488
57.4015 78.0586 376.795
63.1625 157.245 298.519
67.6029 89.4096 60.7108
46.6156 101.328 56.3178
57.1068 191.188 310.074
40.8012 176.145 106.457
71.0725 200.466 66.8649
44.5306 58.0816 311.273
60.8832 168.564 38.6727
43.5285 192.465 360.937
67.6872 170.358 329.232
33.0428 99.0244 229.038
54.4821 127.966 73.7023
48.5045 153.054 351.531
90.8935 127.643 291.992
38.4873 192.141 69.576
27.5271 170.933 165.327
73.9374 206.542 86.617
61.5449 135.723 359.65
54.4086 91.4194 347.937
70.1742 73.7325 363.277
31.8207 56.2323 280.014
43.8667 185.644 99.3018
53.5145 81.8488 101.794
32.2389 159.726 56.8282
63.2893 206.463 57.5066
66.9445 198.851 342.093
49.5302 126.014 149.33
20.937 128.867 321.069
66.2604 37.203 297.113
49.8317 143.324 125.26
53.2327 103.063 116.771
46.0774 187.483 346.345
42.4451 182.706 354.675
84.6205 168.637 319.857
47.7573 176.338 320.143
46.6242 240.767 159.258
56.6198 174.639 340.97
26.2166 67.5515 316.15
59.9258 168.371 83.5132
60.4415 85.7436 282.862
59.6281 85.3869 73.8805
85.212 40.8048 356.296
58.3142 158.387 48.3302
49.1955 188.018 353.463
49.9666 89.4689 108.04
25.9736 192.277 81.1617
58.468 118.619 374.932
64.9704 170.358 312.685
62.8942 69.0849 275.04
40.6075 159.182 88.1909
63.8882 161.378 92.4343
83.3054 163.015 315.861
56.2089 214.6 88.96
61.0387 79.8579 313.219
54.7351 87.8085 98.4105
91.6571 55.4239 377.86
55.1667 126.054 98.2766
91.7268 73.8968 267.745
49.0012 60.9397 299.498
76.2222 114.213 81.4888
58.3346 90.627 362.607
58.9013 120.164 361.883
94.629 78.5175 387.665
81.8063 68.9847 262.504
43.6778 178.048 41.0597
54.0613 100.19 284.835
31.9746 95.4836 330.663
38.444 185.611 66.7048
61.6089 155.756 108.784
41.9491 212.191 354.059
25.5232 167.791 382.67
52.2533 46.502 356.984
39.0812 173.161 55.4262
57.3319 116.509 69.3473
82.632 89.7018 273.161
34.7388 179.249 41.222
36.4754 188.659 84.7593
70.6614 80.1034 305.965
85.4614 45.6638 314.08
71.0292 207.674 74.7721
32.8912 191.034 79.7641
54.7981 48.8444 326.22
91.1517 144.596 295.935
44.3838 188.472 314.691
43.7882 174.883 333.01
54.3513 144.807 313.802
38.9882 172.199 40.3379
63.2819 71.7453 383.422
48.5648 153.198 48.0946
77.7309 187.208 370.018
76.7926 201.784 73.9053
49.2091 76.765 81.984
29.4992 154.173 141.697
78.4601 102.977 73.7384
25.1397 230.871 332.965
55.9707 181.211 318.426
78.0586 167.455 303.707
70.7995 191.371 107.199
47.2643 148.245 345.221
39.7697 48.6641 288.761
74.1311 99.8708 88.8444
34.3076 132.886 113.334
68.1235 142.428 73.4832
26.8654 39.97 160.279
74.8992 62.0797 358.197
49.7154 54.7088 347.599
40.4761 86.9078 343.71
74.6248 196.367 61.3136
57.623 120.908 124.33
81.0682 52.1817 293.543
53.4432 80.3883 107.43
62.9414 124.551 287.537
70.8512 79.4782 81.3325
55.866 122.427 146.204
22.8648 183.23 57.4682
56.77 81.1856 92.6199
52.7877 108.886 344.226
48.296 110.378 360.664
89.0934 137.437 279.482
49.8615 118.038 277.045
41.7866 240.133 184.947
76.6586 148.176 284.838
57.1742 83.8232 375.024
41.4717 120.542 397.139
51.7162 219.465 330.287
26.238 150.769 122.402
42.8759 103.091 362.971
30.8864 208.541 317.767
66.609 187.425 349.955
33.677 178.198 76.9762
39.5601 209.892 313.272
67.8488 82.1606 98.2976
69.2155 191.35 326.173
46.6818 111.873 94.9384
34.7036 168.044 346.835
32.6847 184.641 322.908
55.6584 136.048 73.4863
56.5332 198.888 46.0098
64.7035 75.0464 270.478
30.2058 128.516 274.494
80.0046 37.667 341.838
54.0793 82.9915 113.392
43.7528 152.106 85.6388
31.1498 125.183 145.892
64.723 193.381 57.0044
39.4282 136.76 260.204
37.8369 139.416 283.381
40.6112 208.73 93.1282
71.756 181.743 87.889
89.9917 91.1997 263.56
28.7549 236.899 184.13
70.5241 66.3695 299.579
70.2296 190.163 58.9498
64.7333 33.0734 320.907
57.1163 58.7072 284.602
80.105 195.851 64.3756
30.6402 109.629 82.846
70.4301 59.2885 365.605
89.9393 95.0541 380.405
67.9384 170.946 94.426
65.8959 170.715 38.0025
58.6515 101.683 347.148
30.833 115.68 88.7387
44.1518 119.576 300.383
64.4367 207.912 356.087
59.3604 71.8888 389.301
47.2019 144.321 250.669
56.8766 227.704 332.573
66.5269 63.9926 264.642
46.4678 204.842 309.552
56.9241 155.201 338.158
52.0759 106.705 283.056
44.1149 104.205 267.869
70.7407 104.344 66.1036
46.0432 109.018 394.618
73.3925 39.3857 324.54
70.082 103.823 357.638
65.1606 82.1032 70.8246
40.939 190.205 47.41
62.8516 54.5602 368.782
25.2626 86.2262 295.649
67.7015 72.7675 390.421
34.3022 192.487 48.6055
39.2068 163.857 94.4587
47.4171 195.654 49.3355
71.221 175.27 87.5759
44.6634 177.4 356.858
46.3041 119.661 124.195
37.0633 120.447 401.651
66.4617 101.153 92.649
48.6703 30.3967 306.526
32.9884 86.8177 339.875
61.9939 75.8597 89.1854
67.682 116.45 336.306
57.3318 168.102 350.013
63.4056 44.8317 349.744
49.6831 167.316 326.705
49.5579 217.646 65.5546
64.6193 167.179 77.5041
36.4598 59.5623 364.381
68.7603 118.705 67.442
82.4116 66.7476 292.486
38.3633 172.328 349.839
72.4866 117.393 273.557
33.2758 83.1796 161.394
49.5383 35.3684 341.048
72.6652 146.854 362.092
42.9383 172.716 341.112
58.1407 165.32 90.3027
42.1414 106.329 242.99
54.2411 136.069 366.514
29.774 169.259 63.1767
49.0118 182.037 97.497
39.4312 125.159 377.537
63.4575 30.3543 308.519
53.4041 141.031 362.038
54.8103 115.145 106.585
86.5003 159.167 61.7612
36.4807 162.697 91.1424
34.4292 161.243 74.8431
62.8523 159.386 50.3674
25.9702 64.805 282.407
35.9831 183.197 327.733
55.25 53.0616 314.011
75.9977 174.067 42.0803
43.2405 89.2143 104.121
78.1958 148.817 322.149
57.98 143.173 99.0316
42.46 117.856 64.6193
30.5096 160.736 323.543
80.201 52.8044 267.953
47.1676 216.4 83.4931
61.539 136.166 314.708
75.6925 189.459 59.4129
36.522 213.051 182.04
60.9474 131.3 346.53
43.6317 84.4993 66.9182
39.1301 177.269 61.2159
59.0043 82.1006 65.3213
72.8157 52.0078 271.821
91.7142 94.8198 390.497
42.3345 116.287 251.199
36.2058 135.884 295.14
32.6141 169.592 340.967
60.4385 219.764 319.486
69.8605 197.644 58.1311
52.2375 157.707 109.642
41.2062 67.5404 356.119
65.7816 74.6577 328.447
58.1992 82.4901 88.8828
26.4396 144.317 112.461
66.3727 167.723 302.098
50.4913 210.838 68.709
38.3204 218.756 168.128
48.3123 174.809 97.3036
77.1387 178.584 346.036
90.365 87.2199 280.787
78.2784 189.903 99.6787
61.3442 159.211 71.1863
44.4535 106.266 341.084
60.1497 108.407 114.868
27.7491 179.47 56.5169
37.6031 99.8814 101.779
59.1691 142.095 52.1912
75.0086 166.277 102.085
88.968 168.882 60.0334
33.217 102.812 73.5682
32.8502 183.301 341.321
27.2294 174.723 171.199
65.5056 97.2458 112.306
61.9893 75.7942 264.613
49.9107 111.001 238.205
58.9081 92.7998 101.194
65.858 55.8257 358.083
41.623 207.278 356.4
86.2812 121.623 365.481
54.1771 225.016 163.929
58.3606 130.689 351.858
36.5249 147.927 84.0585
73.0536 30.7496 330.642
37.9716 76.6307 179.548
40.7185 36.3924 296.057
54.1167 208.947 311.441
42.198 73.6637 298.677
59.7403 216.724 355.032
55.6598 124.585 338.961
68.3717 106.941 89.8821
41.8335 144.46 251.545
28.0599 83.0777 231.768
42.6856 179.224 78.5471
69.1165 91.0278 103.954
47.7439 170.488 91.5644
41.4133 167.024 40.4775
55.5787 209.233 65.8878
43.1358 65.9327 360.445
50.6878 159.064 96.5926
62.3628 45.8789 304.606
57.2608 213.392 315.615
31.9249 174.033 344.874
63.8087 187.834 313.287
39.0758 142.128 293.403
82.8806 128.081 272.821
44.6637 162.43 125.115
68.6632 169.594 309.577
38.5829 180.581 344.933
49.2246 166.955 367.616
46.5304 244.989 174.676
57.3955 194.305 322.944
46.1929 206.252 57.8315
84.7792 177.649 307.413
71.7345 184.59 54.9195
46.5545 124.64 132.52
67.8135 158.574 332.99
45.1083 205.237 52.0258
76.3465 198.432 66.4304
23.5342 84.8492 226.416
77.0009 190.599 314.72
59.4353 225.725 325.686
46.2111 128.361 247.982
44.8148 192.647 81.6129
77.8865 78.6436 261.072
57.5077 120.926 87.8171
39.2596 102.328 281.873
90.5756 103.401 265.782
23.6321 54.1311 318.732
78.5466 94.2042 71.4591
51.7015 40.6018 345.706
86.637 166.175 91.4158
74.3517 96.0973 74.9254
61.5486 165.244 111.809
75.4159 174.902 92.0333
78.5825 150.575 78.0669
44.9196 83.1019 105.98
31.5547 39.5027 153.404
59.9196 59.9902 314.354
40.8715 45.5207 349.302
28.7828 97.3779 338.049
80.8873 172.629 43.8792
36.285 89.2462 101.59
65.8327 201.479 67.4627
25.1988 48.1628 159.407
64.1107 168.065 107.682
74.6466 190.518 336.082
64.9065 179.634 333.287
26.8552 190.499 319.241
56.0838 102.503 107.827
65.0123 106.834 259.522
40.3166 203.447 98.6019
45.7077 104.329 274.898
76.8103 67.0946 370.003
85.1656 127.44 356.067
82.4734 177.605 51.4442
57.9358 131.998 141.726
56.3615 168.36 36.9532
34.1058 90.5239 73.1852
69.7807 72.431 283.781
44.9366 180.892 37.0561
76.9061 94.6171 102.789
36.8616 195.917 83.3815
51.8248 150.081 336.59
64.8186 183.947 40.9536
48.2273 193.931 43.9497
40.8557 169.729 335.085
70.4092 208.072 79.6578
65.335 53.6485 278.199
36.4622 209.043 319.557
44.1344 183.935 76.2496
52.9164 232.839 337.097
24.1478 2.73776 82.6063
59.4663 205.38 95.2396
71.8319 68.8232 260.103
31.7794 50.6544 153.1
43.882 140.72 82.7395
59.0581 158.113 332.628
29.1588 180.839 51.6947
71.7073 67.9124 383.343
51.4808 151.516 97.8109
54.9916 62.2023 277.88
82.5044 199.008 333.118
25.9933 170.56 389.879
92.1279 85.0702 266.762
47.4872 165.228 344.226
62.5597 37.3059 336.36
72.0692 134.444 282.247
46.9888 203.251 313.668
78.7938 103.08 345.088
41.7004 185.629 347.96
51.1884 128.95 81.5914
74.3053 159.952 41.8237
69.1046 93.0595 349.186
65.4525 132.677 279.93
72.8015 167.228 82.0722
44.1847 143.828 275.168
27.4642 46.1492 292.614
49.6411 174.6 75.0313
62.2801 222.923 342.244
64.3632 210.455 75.4155
62.5021 162.303 356.751
51.971 167.885 81.6048
58.8718 81.7061 99.673
49.5424 82.7539 87.1
50.457 106.202 110.083
23.9953 180.216 90.9136
87.1865 120.357 275.644
40.0124 143.872 278.339
57.4466 127.176 319.654
37.2305 145.315 285.154
63.9266 81.7059 90.1051
54.2067 222.826 174.739
65.5273 160.872 64.3533
33.1945 170.058 69.717
84.5726 134.235 352.151
90.6089 151.304 324.812
53.1347 205.73 48.8258
62.1147 61.3746 308.179
40.7251 110.51 360.356
57.674 75.9534 80.6492
65.6638 129.706 136.716
57.3603 150.742 365.029
67.9418 188.768 51.179
72.7217 113.272 65.9259
76.3156 119.473 327.432
61.2592 167.188 46.4382
74.2007 215.035 365.149
66.8494 147.105 335.099
67.5863 157.442 105.942
30.2931 232.386 188.713
47.6053 85.785 73.4904
26.7756 196.887 93.6357
42.8227 90.0935 291.167
46.2379 173.362 64.9278
27.339 219.608 326.222
75.6054 159.845 53.0492
67.8644 184.053 50.6081
41.7639 193.285 85.3171
66.468 101.78 55.8987
47.0366 160.46 363
74.0842 89.5084 69.9384
54.3742 188.177 97.5199
61.2764 188.607 318.162
60.4096 153.149 46.0549
56.3415 194.854 361.26
60.9313 118.439 357.657
49.2286 231.882 177.011
59.4914 146.479 275.24
80.4613 45.4772 362.115
50.1883 162.235 341.779
66.0479 113.364 60.9192
70.6826 218.632 346.342
50.1572 110.695 113.838
71.9497 171.785 311.316
48.9912 119.912 304.53
74.2863 191.428 361.929
104.119 161.532 313.313
39.9562 87.8496 97.1408
41.0612 111.067 395.13
44.6282 190.376 322.43
50.4831 183.986 312.365
36.5884 119.465 103.525
51.8086 201.165 104.698
42.7206 231.14 189.975
47.1702 153.063 357.669
50.1755 227.934 328.54
70.2736 152.726 56.5905
64.4169 153.119 359.034
39.0826 209.151 64.8058
39.1266 37.3632 355.907
56.5437 204.232 100.86
54.0185 75.0571 87.3296
22.9924 126.837 275.548
69.9443 165.782 338.554
80.7002 101.701 85.7706
51.4563 169.896 96.6314
83.8411 156.224 321.127
75.6246 67.7323 400.525
76.2338 123.895 273.979
82.8509 95.6543 269.385
57.7726 177.689 89.4604
66.9433 76.3972 398.944
82.8193 101.378 388.948
83.591 163.763 297.248
47.3995 149.859 337.247
67.9878 149.444 288.615
41.5748 108.183 96.617
51.415 230.532 161.51
55.5247 186.382 91.7098
67.5434 107.162 111.914
59.8205 221.475 331.527
65.2449 207.814 64.4534
32.8827 95.4256 102.6
53.3204 216.808 315.214
50.5615 95.0319 281.507
70.0646 78.5428 90.1616
72.5362 165.639 288.737
50.2434 142.89 273.52
74.9908 86.5029 87.3343
62.6149 214.872 329.909
65.0316 136.11 371.811
71.5316 42.1824 358.002
80.2195 167.429 99.6615
40.4657 224.333 325.099
51.2512 180.143 343.598
41.3947 176.783 326.362
70.3766 53.4271 277.585
79.4432 158.089 310.699
27.4534 42.2115 329.491
55.9337 142.138 270.96
74.8617 50.3559 311.159
73.9256 183.35 48.0918
34.583 174.473 57.5785
46.0396 51.6341 298.672
67.2217 136.137 364.343
72.9104 165.209 43.3213
29.0368 229.153 327.713
87.3039 84.3409 269.275
73.1782 110.118 279.204
74.6364 99.3407 385.132
67.3989 80.7527 313.365
41.5965 168.155 353.769
59.5848 100.323 84.5906
39.1715 232.45 337.987
72.9994 182.604 349.373
75.3002 39.6319 303.386
76.9428 139.026 323.011
73.5743 56.8775 266.404
70.7084 142.638 61.9015
86.6292 36.7339 333.09
45.8567 185.562 45.5897
53.3355 33.9285 339.315
36.3747 153.158 331.727
39.9943 160.016 304.133
75.8529 217.093 344.755
62.9071 190.595 99.7131
38.7914 164.488 342.048
56.6878 224.663 338.553
50.667 136.226 269.211
25.3013 231.83 185.21
89.8417 58.0224 332.677
56.3075 54.4994 357.637
57.3855 197.548 104.3
85.529 55.2424 277.589
76.9682 135.451 278.397
63.0661 174.98 89.3713
75.1468 158.241 344.86
71.291 51.8147 316.06
66.9022 211.452 316.527
75.9735 66.8033 296.948
38.877 103.281 231.603
34.2121 184.716 78.1197
39.5188 87.9809 87.8789
41.1862 186.196 70.4765
78.7617 195.251 323.745
84.7704 183.566 329.69
81.9338 194.947 75.4662
44.78 169.775 349.819
75.412 157.899 75.2434
57.5422 77.1943 96.1648
