ply
format ascii 1.0
comment Created by Open3D
element vertex 134
property double x
property double y
property double z
end_header
10.9089 121.244 76.632
61.094 65.1134 78.6062
52.6211 61.1007 88.523
17.0003 123.552 52.3929
33.092 91.4111 91.8694
36.5555 71.2878 81.4252
23.3712 125.19 110.226
17.5529 117.217 43.1908
39.2006 65.5721 93.5598
38.6213 79.962 101.649
53.6114 57.6498 80.2592
44.5079 66.0384 75.9782
28.2445 95.5876 74.5831
26.3614 115.565 59.6124
35.3999 85.8518 73.3013
28.897 127.282 102.903
17.6413 130.711 92.4076
54.5128 101.932 59.2172
35.7842 112.491 26.9967
10.243 128.332 85.8428
52.4777 78.5777 100.502
16.4226 111.584 51.9014
39.8868 92.8733 84.9747
24.962 133.63 47.8746
57.1399 71.8623 57.8565
53.5785 60.3858 52.5104
60.609 69.7512 69.1385
27.1646 104.065 55.8092
42.0421 83.2771 83.4736
42.7437 120.082 26.2929
57.3066 62.5718 61.8609
45.6644 120.62 75.9392
21.6966 115.835 105.847
45.3816 87.0868 65.0765
14.4302 109.736 91.8446
27.0498 88.214 66.7422
32.8678 126.433 56.5733
29.8655 117.801 100.559
34.2131 127.472 27.6778
33.9797 81.0079 52.8789
45.7042 123.411 37.1798
52.9181 98.069 46.2659
26.5673 115.483 29.864
20.8283 93.2664 65.875
54.6583 77.2257 84.3388
42.5624 105.935 35.3473
41.3354 101.961 45.3839
48.8898 115.476 59.779
39.3685 68.2604 59.8317
46.8041 62.0695 61.9399
48.7277 94.4662 81.6748
32.9299 105.95 37.5201
32.3188 109.351 45.0838
27.3081 108.75 65.2255
45.3363 77.6333 60.8889
13.3097 115.479 83.3995
32.7096 99.9827 65.2438
25.769 103.879 44.4434
40.4071 75.1915 50.6398
23.6027 107.504 34.0042
37.6989 126.522 46.072
33.8995 128.38 69.4259
24.4754 98.9153 87.0101
51.1315 106.494 53.1366
46.8767 57.4403 77.782
41.6958 102.157 87.102
42.7599 112.73 54.1002
53.5109 105.054 69.2571
43.4955 117.193 66.6698
37.1542 77.8591 74.2512
52.3182 75.7151 65.9796
52.8144 82.4242 78.9735
56.1319 93.8518 63.3173
53.8732 81.6257 56.4273
35.0894 100.076 91.6356
22.865 111.02 97.315
46.2562 83.9221 99.6493
31.5999 92.3627 82.5554
37.2773 115.437 88.3291
44.7925 71.0974 66.3945
47.5706 114.546 40.182
46.4397 67.4674 100.75
32.7942 84.9038 47.1219
46.1407 61.2856 90.9444
28.9366 81.7811 80.9195
34.2121 86.228 64.7266
28.6318 122.4 45.002
40.9395 71.4696 101.527
33.0219 129.339 36.1958
53.142 98.4755 75.7005
33.3836 93.0765 57.88
44.8223 100.373 66.5672
38.6861 109.246 81.1433
38.184 88.723 53.5909
44.6242 93.0255 47.7819
14.2979 132.993 57.13
52.7681 71.8378 92.45
9.75251 125.419 60.0773
16.2638 118.671 69.1945
55.0275 64.9485 95.7161
51.3635 88.9774 61.2817
17.0206 105.271 60.4893
48.5208 69.4427 51.5267
19.3696 101.047 75.4765
42.4155 90.1607 75.2733
38.1644 81.8854 62.6588
24.8563 105.521 88.6821
14.817 109.599 66.1492
18.1951 130.529 64.4624
54.317 75.5995 73.4054
41.9801 64.789 50.7778
33.7062 116.397 69.1304
39.722 97.3176 51.8704
37.1466 106.468 52.058
36.096 78.6099 91.1523
32.5959 81.2316 69.2177
19.83 107.386 70.7362
24.7402 113.036 81.2831
23.0256 92.2649 56.1964
28.2331 92.5244 57.3786
41.054 119.379 49.4422
33.0218 114.481 57.3409
35.5317 133.881 61.7809
32.5983 123.865 76.7392
19.708 126.025 78.9356
22.4504 103 79.6249
39.5427 115.5 75.0281
48.1302 110.066 74.9185
31.3621 112.251 80.9057
11.6029 123.619 65.7403
44.6567 112.652 79.9872
42.4376 101.401 73.4348
50.8986 68.6987 66.7008
27.4858 118.055 76.3012
