ply
format ascii 1.0
comment Created by Open3D
element vertex 109
property double x
property double y
property double z
end_header
39.556 81.4896 23.0221
30.6652 80.5521 40.7464
49.3059 94.7277 60.7835
45.7357 100.469 54.5852
45.9487 56.0891 108.207
46.5776 65.2363 104.399
31.9893 74.8723 62.3
30.4856 91.3022 107.2
37.1395 24.2647 69.5801
46.8486 19.9379 52.3578
31.6111 66.701 59.5376
31.7121 73.1004 37.1272
23.3589 69.2643 108.517
25.4402 76.6213 103.742
42.3489 18.9691 61.699
47.8415 77.8228 69.5639
40.3362 46.5526 108.336
34.6201 100.426 94.3522
48.5857 64.8255 44.5689
43.8387 95.9985 88.8219
35.7073 67.2584 116.71
25.685 82.5233 52.3544
33.89 81.6973 104.035
42.1544 40.5189 42.1897
35.963 89.5111 53.9251
34.5011 24.7034 47.816
43.6713 95.2986 111.882
45.5738 93.6883 48.8722
32.4983 36.4028 51.1382
32.1705 64.3256 50.8067
48.0926 34.7471 66.738
35.5002 64.8565 40.5627
50.5988 26.4432 60.1879
37.5879 92.5435 97.4762
33.1094 47.9888 104.351
42.1372 38.4579 72.0662
23.0454 68.7811 58.5644
46.3497 69.4291 35.7362
30.5198 100.663 103.068
26.7771 91.981 71.0684
46.7842 39.2062 50.2653
30.6961 70.7471 92.8895
48.1257 78.2961 39.6001
37.2416 32.3166 42.943
31.4064 79.4501 48.1814
22.07 69.2826 98.8017
26.817 82.3386 75.2076
34.7833 20.9886 56.7378
36.3743 33.5766 72.7457
30.3451 27.3615 55.5513
29.1185 71.3689 114.438
38.8007 82.4402 36.1729
35.4019 92.7879 65.9619
44.0427 85.9337 44.4114
33.9979 74.836 88.0675
30.1748 60.2474 91.2633
50.1074 82.2847 58.3641
37.0167 40.6246 65.8992
47.0638 76.5852 53.6592
39.1787 74.2678 105.577
40.0362 40.345 57.1424
43.9102 89.234 70.9902
30.3288 83.7339 59.0878
50.9431 70.7318 59.5908
23.52 59.6359 98.1831
21.6006 76.1884 55.9569
32.6058 29.2303 64.8939
36.5464 59.0067 117.097
32.9344 50.3041 112.604
28.7063 75.922 22.2624
44.1753 48.2389 100.676
35.7678 97.4647 113.874
42.0601 61.5209 39.1747
40.4809 66.4241 27.528
40.7706 96.6537 61.9021
50.1609 51.8539 95.1545
23.9934 66.4647 90.6352
42.5425 77.9034 90.184
44.9537 25.7632 68.4746
49.0624 71.1033 48.2561
45.2141 66.2848 114.088
48.5489 32.092 43.0981
31.7005 46.0294 94.7874
27.2381 61.9143 113.817
39.2873 96.5486 52.1091
34.7201 85.6379 76.4409
46.0214 71.7653 85.3488
36.9638 68.2586 19.9182
38.4155 69.351 81.215
44.9982 74.5035 98.0613
48.6599 61.7706 94.5377
33.439 86.287 64.5515
38.8482 73.9767 49.2772
36.7032 80.951 67.3637
35.9001 51.3749 84.5062
47.3069 60.0489 88.38
35.385 62.3814 84.6798
42.6922 26.6948 45.8855
28.4253 87.9066 82.2579
38.8518 57.4771 53.0149
27.7799 72.4593 54.883
42.3424 66.9209 65.723
24.1226 89.5419 97.2611
40.031 62.7364 50.2626
45.4169 67.6321 70.7254
35.7894 53.6733 62.2773
44.7393 63.5949 52.0693
41.5303 71.4446 69.8208
44.8018 57.1746 53.304
