ply
format ascii 1.0
comment Created by Open3D
element vertex 80
property double x
property double y
property double z
end_header
21.1568 30.3486 68.2792
40.6006 27.0855 60.6129
35.659 52.7969 36.3002
30.4286 55.9423 44.9524
33.4082 75.5643 32.0214
34.4386 66.7217 43.8691
61.6157 59.5388 52.1322
38.9567 67.1572 25.5213
22.8387 67.0401 37.2257
23.0443 48.8663 54.3897
33.1972 28.3302 72.7918
47.3522 35.6535 42.3328
50.5323 34.0575 52.1485
40.6337 48.2869 58.4017
51.688 34.7508 66.5117
21.5591 31.6988 55.3357
27.7498 25.8601 63.5117
14.4617 36.7776 57.9063
46.0798 61.8779 28.3186
39.925 56.4284 49.0769
24.9854 60.9431 42.9491
44.6653 50.9783 67.7394
58.5194 45.3695 67.7284
17.7473 43.6112 62.0494
48.5188 45.726 39.4579
30.5329 47.5068 57.947
56.4325 63.0742 40.9333
28.0731 31.5311 48.6672
60.0828 69.2445 61.6875
15.4896 38.3881 46.0276
38.3375 53.6864 23.96
13.5337 48.8838 51.6726
24.4449 50.2326 30.9527
24.4777 66.6763 28.6436
36.0951 37.487 82.0944
52.6318 70.8135 35.2596
19.6837 61.0471 32.1038
46.6414 44.0109 81.5096
31.1675 58.1711 24.2426
64.656 58.0942 67.9277
17.8755 55.5871 46.2147
14.9008 56.9246 37.719
18.4066 44.9197 38.8601
27.4895 36.6935 79.7714
31.2009 67.6501 25.6087
47.6283 57.463 60.545
40.5689 41.4943 29.3712
39.042 46.1262 70.9668
40.9707 31.3856 39.4506
51.2382 57.0935 73.2627
57.8124 50.9297 78.2829
52.8064 49.9827 43.9194
32.8569 42.6426 28.8721
41.216 27.1805 49.3812
29.9409 38.1741 37.46
34.1244 30.6744 43.3678
50.4372 69.4004 57.0605
36.8413 45.5487 76.8517
50.3557 54.1901 33.2864
28.7427 71.2213 38.2097
45.9328 72.8188 47.1499
26.7751 42.4845 72.6365
62.9155 54.9198 60.4905
55.1471 40.4367 56.1952
35.3559 75.7758 41.9112
60.6367 62.1846 72.1026
59.2996 75.104 50.0775
45.3621 33.3532 77.567
59.4365 67.392 44.9798
56.1962 50.8255 54.566
53.9163 61.7104 66.8119
46.0117 48.7048 29.5258
33.269 25.0964 56.186
53.1932 61.2322 34.1537
13.0308 48.914 40.8149
31.6053 42.1367 66.8496
43.0601 74.057 33.7667
51.879 77.1921 43.9432
51.1399 36.5008 78.1169
63.747 68.4168 52.2889
