ply
format ascii 1.0
comment Created by Open3D
element vertex 125
property double x
property double y
property double z
end_header
33.4532 64.8681 27.596
38.969 30.8759 49.1273
33.5676 58.4149 21.5658
25.044 49.7994 44.915
30.9667 52.6672 31.1907
61.8132 52.333 21.1013
46.6927 27.767 53.5593
42.3817 42.5904 78.5718
54.8043 61.1725 68.4845
48.3793 62.8448 14.8369
42.3745 60.6892 65.2196
57.203 34.5994 66.5671
43.3212 45.0536 30.0708
38.8134 29.5796 64.8889
48.2373 22.2364 44.5315
42.0137 25.7037 75.2945
54.0058 72.5993 48.1332
33.6417 35.6199 70.5481
45.4565 66.2583 44.5704
42.8122 58.2202 18.8474
35.5175 75.9838 34.1403
46.8866 71.7744 53.3359
50.0216 32.1344 36.1046
59.8837 32.8394 47.7632
42.3633 75.051 31.9278
26.8544 50.9259 61.0393
42.4335 25.7634 42.3545
32.8666 62.9242 61.7601
40.0872 35.1759 71.5233
37.4725 35.4199 33.8719
63.0936 53.1563 58.995
45.0699 66.9441 61.0967
54.7415 41.9538 16.5705
50.4782 47.3832 76.7341
37.48 42.8783 28.4595
30.6682 43.0384 39.466
36.8414 53.1135 68.9802
46.0772 49.6457 20.457
32.5361 44.7164 31.8361
34.2385 35.0067 41.3013
40.5481 65.4053 21.3923
48.5063 36.029 28.0762
27.2496 55.5709 39.7844
61.9092 42.8343 61.8276
31.2992 49.5931 66.7581
31.7642 62.7431 50.7877
44.3248 29.8185 37.8647
33.2133 60.1265 32.371
31.6281 65.4155 42.985
38.8024 75.9348 43.1853
59.1957 33.9854 32.7861
53.0431 76.5991 40.3174
47.3953 55.821 17.5431
52.4066 54.4522 16.6606
48.2023 34.6213 85.2006
63.7701 66.9617 51.1554
51.5199 48.3625 18.7809
56.7785 40.0937 21.5797
46.9085 75.4057 34.3266
33.1391 41.1073 60.9006
58.3317 75.6853 41.1206
36.0744 72.7656 26.8654
49.6517 42.2038 22.515
58.9724 71.4386 29.2002
27.6912 42.09 52.7079
56.5879 49.8562 70.497
63.0812 72.3759 40.0524
31.1306 37.8027 48.4391
47.6806 77.0543 41.9533
49.8068 74.5749 19.9506
39.2272 41.7209 39.8504
22.5537 57.6861 54.1416
55.228 37.561 30.2635
60.6911 45.6874 24.5122
46.126 56.943 71.4992
65.0728 67.4791 30.4664
50.4551 62.5545 53.4671
66.945 58.851 27.746
53.4959 36.7386 74.0097
42.957 50.6874 74.8241
51.0864 67.6597 60.9034
44.8936 71.701 22.8457
42.6698 57.2055 50.6333
23.4102 62.2578 51.353
55.3528 31.2912 39.4159
39.0492 49.9113 21.6818
58.0295 55.0252 63.4851
53.123 32.525 49.5715
54.0619 76.7393 21.7454
32.3532 55.8762 57.7738
56.0585 63.4063 57.4328
68.0686 61.5063 34.2114
59.4063 70.6385 47.5505
49.5367 31.2618 44.4225
25.4304 49.2539 53.9534
33.3578 35.0421 54.2482
49.5426 32.8434 78.2777
64.6058 39.7841 45.8051
52.7679 68.5323 17.3287
59.252 37.1003 56.6898
48.0513 20.2086 69.8132
56.3251 58.4295 18.5883
62.2182 58.4077 17.9257
65.0544 65.0827 40.9657
41.9133 46.4523 23.0611
39.6852 65.7808 55.4857
36.7939 33.2039 57.7872
29.9836 59.855 37.8844
54.4703 76.1732 30.0209
60.4231 68.6514 22.8703
57.0163 63.9033 21.4785
56.428 45.6482 62.9342
68.1763 48.832 25.4949
33.0895 43.2058 81.5318
41.4434 69.9937 53.3598
66.9269 49.0761 44.2231
63.7273 44.1346 30.0022
42.8172 37.9407 25.8746
35.5514 53.1898 25.0209
36.1843 57.9839 55.0974
62.4431 64.257 20.1184
71.0081 51.9003 30.4112
36.7021 71.5264 47.487
69.8634 38.951 32.3078
66.7529 51.9258 51.7204
