ply
format ascii 1.0
comment Created by Open3D
element vertex 244
property double x
property double y
property double z
end_header
41.1701 34.9963 106.263
54.1454 65.3928 38.8166
64.9197 63.5279 107.338
47.8568 39.6798 124.306
49.1677 37.7243 54.9517
39.0545 66.0793 100.35
52.3956 54.9245 102.002
58.9807 54.7338 100.749
26.5734 37.8572 106.172
77.2071 68.0643 53.6891
53.1661 21.7174 112.138
59.1047 26.0416 93.2183
60.9276 68.1935 94.8506
34.0384 51.5516 99.4998
31.7438 46.7998 112.864
60.2358 67.3437 82.0977
51.1068 41.0266 47.1635
40.7501 37.7231 120.079
28.7243 25.5663 106.043
35.2024 55.9311 110.863
23.4829 40.4963 71.7853
64.759 61.291 36.9136
50.1474 30.5204 123.21
20.5781 43.6172 81.7954
47.4612 56.2284 57.4238
56.3547 49.3213 38.2048
21.7378 36.7934 98.3722
64.2962 71.0625 65.7107
29.12 41.1799 87.9928
53.7612 65.4437 70.9243
80.3183 34.7111 38.0764
31.3161 30.4732 98.9631
61.2153 63.5831 62.8482
37.7791 32.1137 67.852
39.8157 63.7638 109.245
67.9658 73.0483 78.1501
71.9125 70.2952 61.9699
49.103 49.8604 80.2388
55.455 61.0733 93.3945
63.8133 18.6051 100.849
56.3498 60.9917 30.1911
25.8583 52.1983 78.0042
25.0143 29.0881 97.2571
38.6618 45.6247 84.1143
21.2666 36.2855 80.4858
49.5387 44.4576 61.0655
62.3665 67.4453 55.8166
57.3994 66.4717 108.436
75.3458 62.3866 44.7457
49.8082 67.4755 91.3713
47.59 71.4121 99.2114
67.5354 54.5197 40.5002
86.1014 52.061 44.2884
64.3098 36.997 105.366
64.7459 58.741 112.331
45.1507 62.0512 82.5402
20.6153 47.957 75.6881
39.8514 39.0948 75.5983
53.5199 37.4551 95.4592
42.9365 17.02 98.4428
27.3683 28.6174 77.5798
58.9353 19.4064 108.198
21.8415 45.0191 98.8029
27.6776 35.3947 74.7269
35.9184 37.0525 95.8311
41.1718 17.7163 89.2705
56.9847 28.8708 124.304
32.4433 33.7597 70.9571
58.5802 60.6755 105.549
36.7002 22.7501 74.3103
45.434 29.4954 98.5327
46.8998 48.4313 46.9739
73.8777 37.4213 109.984
75.3536 27.9739 41.3981
42.8782 20.9378 78.0024
52.037 24.5076 87.1505
46.8119 33.4209 117.857
29.4699 55.548 103.468
37.36 49.4056 116.007
43.6151 32.8088 58.8578
28.2833 21.7376 86.8884
50.607 24.2778 78.0171
53.7819 56.7314 117.566
28.316 28.8528 88.0101
51.7939 49.1413 44.2969
43.6369 68.3089 91.6715
59.3778 32.4025 117.739
72.1927 31.4124 118.426
61.4024 68.5809 43.3062
47.6535 62.8997 114.322
43.2338 45.7386 64.1714
73.4159 60.627 88.4108
63.9838 52.006 33.0863
46.3553 52.6675 88.7256
51.1871 60.0423 45.3366
37.0217 55.6009 77.7888
51.6209 62.9431 54.6212
62.1456 47.5771 122.658
62.7556 24.5518 55.3852
73.2468 63.158 68.4793
53.3916 58.0829 61.1019
51.4979 66.7404 106.702
44.4895 50.6554 97.3234
40.3509 13.6523 109.718
58.8005 42.8951 104.715
31.0569 23.9996 112.509
35.2793 61.9313 93.2487
55.6459 49.2652 126.757
76.4081 72.2808 71.7821
61.9066 37.5921 125.615
23.9313 48.4385 104.636
66.6938 61.2739 88.0848
46.9723 26.7801 114.487
36.7364 45.4978 68.5489
27.3119 56.1839 95.4577
54.6403 70.5549 78.2673
69.3016 64.8533 98.5352
34.8616 29.9936 106.669
65.4988 44.2167 35.7599
59.3269 61.7277 72.8271
72.4088 51.6743 42.4186
66.745 30.4434 42.8245
22.7567 30.9384 89.0671
32.978 52.0974 75.571
32.0035 26.3339 78.9006
27.9711 46.5955 71.0239
47.0124 19.7465 109.672
42.0012 54.204 117.812
40.9248 42.0827 114.259
47.5575 18.9786 89.9504
55.2631 57.0517 77.8439
55.1252 33.3687 74.8683
54.5768 48.0547 69.9371
44.1285 48.2538 120.92
49.9732 40.9734 67.0965
38.7658 40.8257 100.519
40.2784 20.1979 114.158
45.4674 19.5661 70.0901
38.674 60.2029 87.5992
24.1063 45.3244 90.169
42.0419 27.1787 112.799
48.681 29.0322 55.2594
38.5904 29.4767 116.842
50.6185 49.5601 96.4881
56.9297 66.2501 100.473
83.3865 69.2858 69.8608
20.0333 39.4729 88.2465
34.9224 17.2071 92.7587
65.2821 31.6326 118.245
43.4386 45.0053 93.5402
78.8897 59.1671 50.8464
74.5648 49.4108 54.2923
39.9603 50.7672 82.452
53.1492 15.085 94.4393
68.4456 20.8743 91.5356
57.2741 19.3929 64.0461
30.0802 21.6595 98.6659
63.1674 20.4611 47.724
65.6172 19.7094 85.5649
65.1805 59.9376 71.6246
49.644 17.3665 102.778
45.7104 19.826 82.8613
59.6026 20.1641 82.9255
55.7038 34.4431 41.5307
70.3019 46.1968 73.9963
36.1437 18.6419 98.9785
80.9865 23.8642 44.8351
55.7206 20.2985 71.9393
54.6467 23.4169 50.8212
65.0545 59.9512 53.117
63.8673 19.0942 64.8661
27.2702 46.9763 82.3902
52.0025 63.1746 84.8544
54.6623 67.6054 51.9377
71.4481 68.7656 84.1519
55.4003 26.3727 56.2595
76.2206 18.2954 76.7841
75.7741 67.9515 79.2237
62.7763 31.4556 76.2612
52.5916 53.6833 50.2345
49.57 51.3401 39.8913
68.589 17.8797 54.7362
64.1595 18.8147 72.9273
67.7005 24.6427 77.6027
34.7995 40.107 110.291
59.0234 18.1055 76.518
66.1944 52.2688 54.9652
43.3153 27.6178 72.0627
69.8291 67.9242 45.0332
47.8547 59.5893 71.9635
76.9882 44.6585 45.5718
45.4353 48.1487 75.3877
57.4476 18.9451 88.1721
59.7152 62.012 44.7519
61.4786 49.8875 110.367
50.9221 17.2827 79.4686
74.8262 14.6449 62.6456
62.1883 37.0875 36.2443
78.3079 35.5586 44.6843
69.6034 48.4804 31.9212
70.4168 15.3009 73.9609
52.2482 56.4031 71.2117
33.1992 39.5378 70.7367
85.7054 42.2585 42.4754
61.0967 23.3348 113.485
67.3833 45.6246 117.862
77.6628 32.9525 116.144
28.3085 45.2678 107.278
74.8618 28.8555 96.3606
44.3458 39.0805 71.0713
56.5404 42.1137 128.83
55.9194 69.965 85.5437
70.8338 49.3756 107.604
48.554 51.805 61.9445
88.8926 46.7205 47.5253
49.8662 22.7721 56.4015
54.5992 41.6289 74.6885
88.0936 54.1356 57.2062
56.9571 65.2682 56.3674
44.634 56.4122 73.1992
72.0241 61.3565 104.092
70.2506 30.991 98.7864
67.0988 38.6329 41.2234
85.3656 60.4571 59.1122
51.462 44.1682 128.002
85.8433 63.3505 54.1788
56.32 60.2221 44.2182
64.5039 31.3108 100.066
90.9036 57.91 65.3738
56.3407 26.2112 62.1144
32.676 57.078 82.259
84.3162 18.9762 51.0223
75.6879 66.7004 91.9363
72.055 44.6041 112.475
49.5645 27.9965 70.4913
52.2578 49.0898 63.8065
83.5572 63.726 84.8965
70.9835 31.2806 106.335
31.477 60.478 98.0147
64.9972 23.3351 110.333
35.5682 16.749 108.938
37.2006 39.1257 68.1581
74.2768 40.1345 104.09
73.7299 20.8329 55.0264
