ply
format ascii 1.0
comment Created by Open3D
element vertex 923
property double x
property double y
property double z
end_header
50.4899 152.618 198.595
68.7111 106.932 33.047
54.2588 136.215 165.884
32.9965 154.711 204.455
54.6464 80.1381 67.4366
54.9051 184.414 58.3934
49.9425 194.379 192.948
75.1273 174.446 67.2777
46.8882 132.074 148.435
42.5937 130.789 76.0598
47.9747 205.484 167.944
51.6911 152.302 97.2857
39.5375 140.955 190.423
65.7138 178.545 168.861
66.7973 42.6408 102.728
62.0924 204.994 197.579
71.1607 90.3931 141.56
53.6555 179.203 188.276
64.4155 138.19 38.432
39.9704 179.868 143.929
58.1332 94.9181 137.612
34.7102 125.196 214.514
31.6625 160.307 139.693
59.2171 181.001 227.387
40.1093 159.124 195.37
43.3008 166.161 181.956
56.114 134.1 150.808
47.0052 87.154 96.7586
69.086 181.311 183.217
33.9439 181.341 137.814
57.7872 99.9184 38.5334
69.3802 55.1467 89.6336
66.9235 183.206 212.752
76.0657 102.496 213.159
103.22 57.7746 244.293
49.427 138.221 105.331
90.4168 88.5603 159.884
46.9337 177.862 54.2031
61.4158 113.391 164.202
83.1043 199.727 228.356
33.2229 162.33 113.658
59.1269 99.103 161.633
39.8085 148.016 186.137
50.709 191.168 170.229
85.7139 82.4867 165.886
49.802 161.875 203.326
69.9144 196.501 231.766
51.7292 166.278 177.823
63.8285 190.449 199.899
51.0043 98.6801 172.938
55.9692 115.848 65.4008
48.3816 184.932 181.651
32.1887 142.355 168.162
87.4623 51.9997 161.832
43.0895 114.891 82.9142
48.1159 120.863 92.4281
35.6188 164.082 174.389
43.4708 131.286 122.301
79.4752 87.1829 155.592
58.0766 102.757 130.541
72.4345 104.305 241.21
86.5401 69.4666 243.033
80.089 130.268 127.702
45.7219 169.174 87.4268
76.1952 49.9972 242.645
35.2052 177.39 129.334
56.9079 117.707 133.945
52.0822 182.965 70.3645
43.6541 118.386 164.797
73.9387 206.077 202.837
79.9977 207.279 218.384
73.7808 195.128 151.493
102.491 209.436 233.985
82.1694 147.695 35.5829
72.3 145.148 132.079
69.9249 130.793 32.9866
52.3831 100.415 191.127
78.6054 71.0684 246.372
50.9199 122.288 120.588
53.0723 91.798 92.4025
51.6745 50.2325 81.6872
50.3345 80.7044 192.265
87.0286 208.939 167.222
49.3713 66.0053 89.7157
49.8221 158.98 139.643
94.5607 113.467 226.232
59.9562 39.1049 91.2783
82.9017 187.533 165.816
39.4048 134.55 144.515
86.9276 152.954 238.263
37.5502 162.619 154.109
75.0809 151.079 43.4209
57.0863 158.174 72.4159
43.5784 134.515 215.177
53.6951 124.699 112.404
81.6891 52.6333 179.389
42.6612 138.37 72.8286
62.954 206.301 151.674
42.5716 149.248 135.48
39.7458 176.75 152.819
47.412 157.314 170.999
47.3608 133.072 134.853
30.0429 157.001 148.313
63.6298 81.5426 113.545
61.2874 182.101 69.3143
47.8563 91.6089 201.046
91.8236 177.898 247.539
63.8725 152.384 76.451
69.5385 91.6476 153.472
61.8072 114.183 125.844
56.7037 140.501 140.017
61.7569 169.286 86.666
51.0991 87.2609 78.0667
64.0352 129.13 125.133
62.0098 134.312 85.8246
61.6606 159.123 100.219
72.1154 211.217 156.44
41.1021 168.703 160.922
44.8972 43.129 87.0985
27.1774 148.243 210.064
31.9431 166.726 133.524
34.3915 153.226 222.276
32.6029 123.713 191.833
50.0896 159.695 87.8302
34.6508 155.504 174.501
89.5037 70.2916 181.909
63.8149 86.037 202.453
62.0508 151.271 160.254
70.737 125.261 116.016
47.9026 199.842 174.413
56.5465 205.471 184.97
23.2348 131.816 195.019
51.228 113.658 123.482
52.3786 155.35 120.847
42.6008 157.377 69.7366
56.2004 187.658 133.491
61.0785 169.959 104.985
40.4412 166.113 70.8839
67.0914 142.941 72.3433
91.6056 187.666 252.871
57.6689 70.5742 91.1817
92.5702 198.294 233.974
56.4761 130.784 158.827
49.7607 177.726 158.539
38.7376 141.845 162.617
45.4273 167.862 108.303
54.8049 68.0931 83.5839
101.016 183.322 256.702
61.9825 110.721 103.537
73.7366 120.063 39.5302
79.3354 88.112 206.901
76.6489 126.995 167.456
84.8086 98.0377 239.877
42.5998 119.075 181.138
76.8854 178.614 239.006
50.1353 128.424 199.853
59.3402 99.8136 84.4496
78.2787 118.186 171.977
54.8393 164.654 220.296
62.1393 132.401 51.686
55.4869 154.927 114.564
87.5889 75.6698 157.774
47.6984 105.851 176.391
90.7726 140.63 53.8331
71.7979 144.314 38.2642
60.1693 176.626 49.6001
76.5708 92.0205 129.223
64.2414 211.429 175.635
73.6432 169.828 242.232
76.3092 125.002 104.069
32.7608 158.853 129.111
45.4229 121.878 210.218
64.6382 106.292 96.4835
35.047 169.43 120.301
48.5024 162.503 100.065
84.4327 177.037 244.572
71.6592 71.0992 240.551
77.2362 95.9114 147.86
58.6691 115.132 178.061
35.3845 164.062 186.95
47.8263 170.765 124.223
37.8594 145.921 175.797
53.3347 58.9707 78.5361
29.5903 133.085 209.307
59.3465 80.6329 189.29
66.5019 88.7962 192.448
100.811 186.459 243.251
56.3837 62.2445 108.317
63.7013 171.558 66.1739
60.2271 188.82 230.419
68.841 119.81 33.2566
67.2431 91.9595 108.07
77.184 106.531 118.16
57.1817 158.566 229.595
89.5988 187.993 242.367
56.1795 181.738 167.931
102.893 197.09 238.433
64.6465 127.76 160.877
50.0373 108.386 105.391
100.212 185.612 227.493
64.2197 154.725 213.233
42.3752 51.1661 91.2136
40.8371 144.641 102.83
84.9323 191.029 184.988
52.663 126.357 72.5602
89.9688 127.862 238.231
31.9376 134.903 185.143
72.9828 97.0256 44.5001
38.8853 156.431 111.276
87.4073 74.465 231.984
88.3944 198.511 197.005
53.9373 117.739 32.4291
61.377 152.803 237.905
71.8748 110.735 195.167
47.6622 194.063 182.321
32.372 172.976 139.56
59.8991 178.421 134.39
68.6735 66.9172 103.154
68.652 92.4569 163.264
44.7608 182.395 150.955
58.4516 140.166 156.958
54.7869 92.277 176.1
88.5718 99.6983 94.5774
92.8416 84.9552 206.369
63.5669 189.281 150.651
64.0389 105.844 152.065
50.8816 118.166 157.139
55.999 161.272 161.158
54.0496 175.303 228.755
57.6276 39.0488 99.7865
71.0357 149.12 176.881
38.5815 169.638 150.604
59.5665 90.2345 209.558
77.6846 146.598 224.309
71.0089 109.848 43.992
57.0907 166.243 186.539
56.1119 207.944 166.538
30.6947 152.006 135.015
81.9116 156.227 227.134
57.0734 127.625 45.1907
58.0811 133.376 64.9344
41.5202 148.218 203.874
88.7575 160.188 243.904
90.9854 110.641 144.996
71.0689 164.126 140.904
52.8471 83.085 175.768
45.6256 116.127 194.689
86.6339 213.952 177.458
41.6225 147.108 69.7757
61.1557 175.289 188.287
48.6312 153.885 159.047
47.1832 106.675 164.957
83.8425 162.113 68.0619
49.4997 170.42 200.822
42.2292 96.4692 184.175
99.0196 145.479 245.336
52.0297 132.326 118.535
71.5586 178.732 81.0359
47.66 139.724 204.945
42.762 108.113 201.584
55.7692 132.167 92.7381
59.4263 123.132 141.834
66.8123 46.0104 90.3209
90.4099 161.82 230.492
56.6422 167.32 229.847
62.7103 84.8134 79.4043
34.5716 148.75 153.854
65.8872 68.2241 90.4493
122.864 136.536 264.439
55.6262 181.32 147.792
80.559 45.1098 238.99
83.1715 137.465 42.1312
68.4014 171.146 146.34
42.5997 142.634 111.335
44.23 105.079 86.0024
85.3158 112.097 128.263
57.8492 208.68 176.76
39.4597 140.285 200.435
59.7161 142.406 220.899
43.9836 150.996 112.31
65.0584 128.98 102.758
58.0338 99.7603 148.803
41.9167 154.625 102.134
81.1038 167.151 84.0946
30.5606 139.131 225.122
30.7163 145.691 218.892
68.2721 62.3743 95.7272
61.6574 161.88 237.423
56.0257 193.094 203.008
56.4253 201.526 150.395
66.5004 155.318 93.6344
73.3503 191.952 194.33
47.2435 140.372 116.568
35.6778 128.662 223.688
41.2394 106.509 189.555
59.1513 61.8442 80.8271
61.2775 168.519 210.156
50.5005 150.931 177.484
81.5008 108.302 145.254
75.2934 181.076 88.8142
39.0629 174.232 114.86
60.7196 101.203 178.362
47.6695 175.919 75.242
35.628 166.118 144.657
71.024 168.739 132.44
81.534 182.183 187.728
56.5596 150.145 130.484
79.0364 163.673 243.715
80.5955 65.3295 151.223
73.6334 101.742 124.996
37.7618 109.213 90.2092
76.8774 94.2248 216.953
93.5902 143.789 240.031
88.6435 200.825 171.646
66.1886 174.041 239.871
89.3207 104.503 154.315
49.3028 164.422 156.483
80.3424 67.2016 135.79
101.603 62.8114 238.212
33.1757 147.253 229.047
73.5037 118.572 135.814
57.577 42.9111 84.7395
88.5764 104.249 135.366
76.8583 216.351 163.314
34.23 151.691 128.029
64.4153 108.045 131.019
75.4003 147.149 233.912
84.7965 47.7425 246.725
51.846 153.482 211.444
55.4016 136.929 131.086
83.8051 102.112 80.7333
108.017 177.24 255.134
61.2196 124.626 34.2177
112.217 135.175 243.157
69.2288 171.373 93.9325
55.6297 133.563 224.802
69.772 197.077 216.343
52.165 99.316 68.2133
81.1535 95.6344 165.373
68.7303 170.041 74.2884
35.8625 145.983 135.685
68.6021 148.274 239.694
72.0085 156.967 120.121
66.7264 198.169 147.542
79.8625 108.61 52.2862
63.3169 191.406 223.372
99.6053 131.052 252.353
42.6444 61.5549 89.1184
39.8217 123.521 198.917
69.5732 182.561 234.455
68.4167 103.642 112.72
49.6146 98.497 208.583
44.034 154.842 153.185
37.0491 141.506 126.977
59.7809 143.077 69.8666
69.2996 53.3547 101.702
60.4177 116.505 147.34
84.3365 60.1654 240.488
93.1053 93.6393 107.267
39.7128 152.427 161.425
97.6559 173.996 256.377
42.3338 138.591 169.46
55.8247 106.684 68.9
82.2382 203.914 204.566
103.194 87.0498 221.184
98.4591 200.437 222.825
65.3534 140.04 103.603
65.8178 145.876 230.957
75.0642 65.2474 236.138
60.0554 175.692 156.208
50.4794 199.835 159.866
88.3054 58.5155 175.681
67.7835 63.6977 83.2526
126.174 143.456 244.398
90.0563 213.763 225.454
69.9904 146.205 119.145
52.3482 120.16 48.5869
75.9318 105.084 135.37
93.6684 125.319 62.0136
58.6298 171.613 236.507
71.3281 90.7385 123.888
113.585 112.166 243.549
56.8934 154.323 86.5091
46.2296 146.332 147.484
62.569 72.7364 98.771
49.0788 128.447 164.094
62.6638 169.815 134.996
84.1878 118.906 121.473
61.9602 119.377 73.5976
73.2226 155.357 246.127
50.8301 147.405 191.279
75.0525 96.9241 55.9314
54.8366 174.06 105.963
62.6661 148.915 61.596
68.2796 147.471 109.704
67.2001 90.9508 51.7214
101.313 92.6166 210.942
83.7893 116.515 229.427
83.83 88.5006 246.36
67.7554 91.492 180.356
46.1487 86.2919 182.56
70.4878 184.268 196.502
70.2754 210.052 196.443
79.7444 129.906 40.3318
92.4468 51.9035 254.778
56.2692 150.972 218.321
45.7655 160.124 108.21
76.4368 100.852 50.1521
62.065 124.264 117.387
87.8083 189.173 199.744
67.3708 150.915 100.545
64.6826 93.4635 41.3439
46.0553 185.609 140.814
62.9622 138.13 227.808
38.4425 147.795 145.811
48.7133 143.381 175.306
70.7125 124.311 73.2729
44.4615 149.015 122.654
63.8371 88.7207 98.4564
51.7596 147.087 62.2908
40.6907 184.565 127.557
52.8262 120.788 40.6997
84.7635 97.9007 218.663
60.4079 168.925 200.181
49.7091 143.08 122.827
54.299 105.102 111.093
66.0019 159.505 244.678
76.7775 73.6198 88.042
90.5851 138.372 245.318
103.527 122.411 253.77
72.1973 132.648 122.547
39.5174 115.874 98.8582
82.3298 121.7 222.079
40.6571 86.4845 191.908
63.7527 148.243 167.879
53.6108 172.993 218.82
79.2848 164.727 217.41
53.4271 100.242 47.6577
43.0497 99.388 77.7054
34.7854 139.163 146.114
44.5833 128.983 171.433
92.6383 85.9891 235.442
86.1707 128.384 48.536
94.7751 66.7532 258.586
82.1548 69.1883 185.831
45.0028 144.834 95.7045
81.2214 106.175 70.3068
41.3484 141.485 137.873
56.3425 109.72 208.727
48.9246 163.98 129.115
60.2014 124.921 61.7629
57.0571 126.787 129.978
70.7957 215.095 177.884
57.9256 114.14 111.239
130.765 151.709 254.453
77.0202 154.198 71.1962
65.9194 89.2298 66.1255
53.9245 139.83 180.277
73.5896 97.2186 66.7875
55.2528 171.477 133.894
72.3463 75.369 134.308
46.4572 162.182 120.163
72.6082 150.437 52.0026
61.2536 174.281 141.651
74.0089 185.301 228.917
41.3638 142.486 151.462
88.3772 134.117 229.46
81.3752 99.577 97.5658
48.6366 79.9745 77.5448
48.8829 93.7524 102.407
53.3048 93.3797 63.2665
63.9434 98.1491 206.035
85.3507 179.649 205.597
50.6429 107.369 42.6538
81.137 56.7193 160.509
38.3814 155.732 212.582
51.7561 97.8053 86.471
46.4899 186.618 133.249
77.4562 95.5214 157.13
54.5213 173.284 148.519
43.9663 155.156 212.612
96.1951 102.17 228.038
48.732 125.892 190.446
104.043 170.311 237.085
56.0729 70.6764 73.3947
45.9057 182.68 125.246
85.482 108.797 60.8249
93.8708 74.6518 247.006
58.2916 177.311 174.206
56.7181 146.032 103.963
37.8849 95.6688 194.082
78.9449 76.9673 112.047
79.9441 188.759 225.651
64.762 197.016 187.586
88.0639 131.11 166.967
39.7111 101.003 200.745
101.814 167.503 220.469
43.2454 156.24 79.8928
62.5517 149.331 118.582
67.0422 136.167 57.94
102.369 178.65 231.898
90.3786 88.5442 90.9878
67.4959 146.454 83.617
47.4887 114.686 99.6732
51.4361 105.174 57.861
66.8266 104.971 168.822
62.4724 82.979 179.66
45.6791 55.9121 83.423
92.5637 132.86 69.1194
83.0772 151.187 53.7133
63.055 143.404 131.675
77.4284 185.819 158.497
55.8394 183.335 120.852
69.8812 104.144 202.113
66.2119 94.7282 129.782
105.676 189.275 137.035
44.0215 116.236 173.346
60.4043 145.41 201.576
88.0562 152.191 49.6864
43.3514 157.933 142.7
81.096 97.6823 133.236
91.838 169.927 241.462
60.8785 170.223 124.238
46.5449 140.858 222.194
55.8518 96.4116 103.515
34.6873 134.266 229.391
38.349 121.006 90.2159
54.7349 147.976 168.973
60.4539 52.7354 85.3095
69.2305 124.228 171.661
50.1847 69.7225 98.6711
81.7394 208.334 158.068
85.405 79.3187 100.974
84.6757 127.938 110.02
91.1197 125.092 230.155
89.4473 220.085 216.932
46.682 154.762 219.964
95.3862 95.1541 248.847
61.465 91.1893 87.6571
75.5372 117.936 46.5976
68.562 161.888 206.292
79.8808 109.569 223.189
80.8873 142.581 67.0816
62.0315 95.5563 120.174
42.2872 149.955 228.665
66.796 100.74 88.3654
56.0901 71.9143 102.638
41.275 137.933 131.209
67.7565 113.966 203.427
61.0394 180.566 195.403
89.3757 201.116 159.078
87.5839 92.0206 202.47
58.2047 123.115 53.9002
60.7252 109.691 35.211
96.9084 74.089 236.978
56.7872 84.3067 199.91
89.4139 98.7539 228.274
62.3825 165.49 56.1156
67.7851 168.649 154.566
80.1809 89.1589 111.9
58.742 163.731 194.906
58.1135 146.589 186.594
78.832 106.414 85.5034
39.1175 150.125 123.952
71.4069 157.342 108.687
69.9418 146.926 150.231
110.616 129.064 259.694
76.9009 122.523 156.397
50.0469 112.936 47.3389
70.1047 190.077 221.749
74.266 160.806 149.938
48.4629 141.424 155.8
54.3776 141.523 116.171
60.9766 106.138 75.3418
99.1822 166 250.577
69.1901 102.243 102.129
59.9348 144.51 95.3748
80.4823 101.874 63.6749
69.487 88.9677 58.5743
109.778 79.9268 195.8
70.1828 115.064 77.6789
71.3669 210.529 167.296
75.6643 178.636 203.334
101.456 83.1407 166.191
59.2944 131.54 200.751
72.0955 34.8202 250.509
68.2818 130.01 64.2077
60.128 112.763 88.4137
85.4627 116.29 55.0272
68.6136 166.976 200.651
60.5664 91.3222 114.933
84.5087 149.154 74.9556
72.9538 128.278 193.543
46.9101 144.967 85.4781
107.382 184.405 240.443
78.1366 151.114 148.996
78.1581 89.0302 85.8845
55.4269 166.723 127.99
71.2484 143.355 220.719
63.1499 153.815 107.111
108.927 117.977 252.246
94.9492 114.655 135.739
62.9461 123.518 155.76
80.6498 119.442 50.0634
40.4909 163.197 119.221
66.3688 157.147 151.16
57.9694 109.793 185.316
74.7476 83.5601 234.653
96.4022 107.934 236.9
73.3894 117.335 186.687
66.7679 121.213 146.127
59.1301 101.244 118.418
27.4703 136.356 217.605
82.0707 214.839 208.529
67.208 114.703 110.655
60.376 93.1756 73.2158
72.5605 136.194 191.38
94.9436 119.151 239.358
66.7362 142.303 159.276
83.4186 196.582 238.294
69.0767 144.327 196.553
82.7443 199.094 153.812
49.8323 169.831 114.172
99.3848 82.5877 214.01
73.6577 209.644 189.844
30.6992 146.462 201.354
89.2035 60.4703 248.287
75.3358 117.454 115.901
42.2599 173.592 126.528
81.8967 88.1869 260.053
102.688 75.8905 244.336
62.703 131.121 137.118
101.626 142.504 252.343
86.9651 119.862 145.395
94.7639 107.318 219.916
104.172 78.8936 176.073
83.202 187.38 176.552
126.817 144.736 261.606
53.1375 117.119 57.1626
71.928 183.697 165.187
55.9231 177.637 126.765
71.4961 120.035 93.7314
67.0902 170.96 125.964
85.4776 136.356 118.66
66.2451 109.219 192.101
67.7637 100.965 190.294
49.1793 186.536 146.096
103.618 193.551 228.668
78.3402 116.448 162.469
49.7031 110.613 202.233
55.015 169.66 120.132
73.5459 105.277 185.646
67.1502 71.2826 75.6637
90.8663 130.894 52.1204
69.1381 156.846 165.521
30.1379 158.913 212.111
90.7144 123.226 245.467
66.3425 210.416 188.582
59.3267 139.162 115.471
80.1605 166.171 99.7028
65.7866 184.446 57.5959
76.6151 106.513 175.166
50.0715 131.252 184.028
75.6188 131.577 62.6872
45.7354 131.521 85.7959
94.0794 147.646 230.095
73.4072 111.311 91.1891
79.7321 141.476 163.119
66.2793 140.666 91.7234
67.1476 99.5385 182.419
79.751 201.011 212.176
61.7805 111.73 138.018
75.9085 131.831 87.6467
64.6073 150.886 222.242
87.8473 122.27 53.6829
52.5515 112.29 80.2672
60.9235 93.5178 50.6438
74.2156 109.786 163.439
80.7112 79.0026 135.193
75.4019 176.755 193.308
64.0229 201.898 211.699
59.2921 154.924 65.343
91.7408 123.644 137.894
89.0172 92.5025 193.939
86.664 167.241 241.354
98.1439 207.534 211.901
52.8245 157.694 181.394
78.4442 214.266 179.15
108.001 171.083 248.204
59.6437 156.227 203.555
53.2087 140.589 197.827
116.245 132.365 261.471
54.0919 166.664 138.481
51.9386 136.009 190.125
55.3382 102.314 182.647
69.846 116.565 161.501
102.052 114.277 241.714
64.604 207.993 169.583
63.4304 108.766 159.153
51.4744 141.312 94.2724
83.8357 157.933 122.03
80.6994 103.364 151.022
118.276 144.58 260.012
57.8971 157.211 141.24
61.0342 167.208 144.142
90.9015 93.7663 148.287
51.2954 43.4896 92.6915
86.6646 116.28 88.1364
67.377 142.768 62.9171
93.1359 100.708 102.871
52.766 132.231 176.408
108.963 191.42 145.363
70.4721 101.112 163.355
69.2928 78.0242 84.9134
69.8608 159.86 128.128
62.5052 145.815 180.056
51.8839 135.57 215.653
97.5763 99.0303 234.934
62.4547 188.303 217.252
87.5314 89.5832 226.09
89.4281 165.845 89.2718
62.3747 119.711 184.271
99.1688 125.262 219.082
60.4836 177.141 215.232
47.0718 126.916 178.084
90.9616 141.226 221.018
34.1401 160.461 121.92
86.3284 136.172 234.628
90.5278 83.3761 267.144
70.7924 115.95 172.972
76.503 104.047 158.155
88.1548 192.732 169.267
42.5077 117.396 187.58
69.0169 151.261 126.092
71.8056 161.915 98.4894
62.038 106.592 142.693
64.1484 160.899 119.068
56.7249 97.9587 54.8206
98.4266 102.799 203.197
57.388 155.998 174.003
51.0326 147.496 160.388
91.4258 38.9881 236.459
49.3801 155.537 149.234
60.1476 137.057 190.134
78.2667 132.367 158.041
86.7668 194.932 207.17
68.205 88.6833 134.772
132.798 142.285 256.553
86.9037 194.655 220.888
66.0574 107.394 58.3184
67.194 143.408 139.061
66.021 117.582 154.449
99.6341 153.435 238.641
62.0635 108.22 207.047
111.224 148.007 246.097
91.9443 110.736 183.579
81.7409 208.862 191.013
115.386 131.599 234.326
65.0503 119.286 169.206
85.4494 96.3521 147.997
61.0169 145.619 148.94
80.6802 126.411 187.842
76.6032 44.2426 252.32
81.7451 101.278 105.268
50.5585 115.147 88.2382
125.702 175.67 242.034
46.6346 178.952 114.986
89.4588 165.534 77.2791
81.7935 79.4604 231.219
68.2874 183.864 155.89
70.6768 98.2052 80.4149
92.4035 84.5411 219.631
98.2516 120.401 231.789
82.4009 75.5782 153.467
86.6379 165.753 103.755
69.5249 114.605 58.8229
107.005 139.438 250.461
61.8678 142.962 110.718
121.46 196.923 147.307
89.8662 197.702 181.415
97.632 213.985 210.893
85.8322 120.011 62.5231
71.3445 129.665 141.529
30.8508 121.535 200.866
66.7227 112.92 119.816
107.307 93.3171 205.995
56.5243 120.314 195.481
95.9154 81.2598 194.034
55.7991 142.288 122.947
124.117 201.666 136.563
65.4007 141.075 144.655
70.2889 136.673 139.903
73.3598 187.253 217.758
108.803 85.3182 170.838
125.42 137.39 248.453
81.6947 105.881 205.033
76.8134 182.256 174.883
56.2736 143.211 209.889
88.2128 124.435 70.7634
66.9456 112.041 176.388
43.8622 140.148 124.026
89.1377 101.122 165.082
70.0793 131.301 89.3325
79.6703 172.008 216.979
60.3048 136.197 123.49
67.6249 136.042 113.858
52.6813 103.254 96.4497
49.2563 159.114 58.1351
98.3058 126.67 246.056
126.517 167.389 249.958
42.9936 154.631 119.025
92.2285 122.539 215.23
25.7957 125.151 200.561
89.596 120.304 223.626
102.989 119.163 228.689
58.9067 102.625 171.227
78.4879 110.486 169.66
81.8695 98.9009 200.422
82.9769 208.421 197.834
112.596 95.824 224.779
71.5546 143.694 186.936
128.514 135.979 254.2
106.64 178.395 132.25
63.5334 206.444 161.687
57.5022 150.659 151.097
67.4086 105.904 79.1159
83.7807 81.6972 106.804
113.893 140.123 255.4
72.82 122.977 148.621
50.6176 135.848 127.471
76.2636 163.977 113.638
118.332 153.786 252
74.9235 82.8038 77.5312
62.776 164.388 168.677
39.6279 155.73 182.808
87.3409 203.025 189.254
53.9257 117.464 202.902
80.7691 72.4925 130.625
106.156 158.438 232.612
67.6128 139.552 124.502
122.439 186.418 128.388
58.727 190.309 162.279
105.566 131.042 255.859
73.1542 213.729 184.931
69.7788 155.234 60.9855
125.871 139.638 237.672
76.3283 37.2287 245.896
68.5592 202.078 207.783
76.9083 135.627 173.591
135.437 168.116 246.33
68.1902 154.286 138.138
53.2278 133.779 209.245
82.3633 98.4881 183.202
78.8096 67.8102 97.08
134.936 161.701 252.283
81.1207 213.8 167.948
82.2505 115.522 208.361
64.758 166.976 162.344
118.346 162.573 250.028
35.6993 166.204 127.468
76.0106 132.183 145.928
112.789 166.074 225.669
48.7048 43.3451 98.2451
68.2469 83.1961 175.488
86.1988 77.8873 86.2846
70.7557 151.117 212.596
51.4271 116.757 105.029
75.5958 146.712 78.0545
84.9337 77.0916 182.876
119.161 134.623 239.405
122.17 129.316 249.008
129.623 201.182 136.68
93.0318 131.616 224.97
93.7295 132.862 107.145
103.678 75.9035 207.166
107.559 111.404 245.331
94.6609 89.0988 197.171
68.9156 148.224 90.6348
90.4247 122.638 128.783
86.3881 107.79 228.623
82.5851 146.051 124.784
119.129 128.824 257.151
81.0536 112.605 153.238
111.477 144.64 254.781
99.3259 96.9633 157.879
94.6048 91.3051 182.284
62.2093 160.866 173.395
89.7666 153.565 171.213
86.2404 103.279 192.518
102.798 95.8412 228.693
102.622 108.249 230.611
40.9524 154.818 218.476
108.445 102.038 230.596
101.99 175.489 222.18
89.6255 118.292 172.993
80.6469 125.192 94.3642
66.6487 175.952 206.301
88.3906 180.825 194.385
76.2953 85.4885 171.305
102.859 108.532 153.491
115.063 163.033 233.587
66.4746 141.975 53.6386
73.7455 189.824 212.484
125.213 149.192 239.869
84.7533 121.806 153.711
112.626 104.845 225.47
103.972 117.273 213.276
78.83 76.9097 80.2955
95.0746 91.1815 264.952
88.2269 206.031 181.282
99.5647 168.156 173.926
93.2083 156.699 79.2034
81.7144 125.695 43.1806
85.5318 113.995 198.56
111.793 185.249 127.9
88.1352 145.828 79.3486
90.8271 121.947 181.714
89.2124 61.6538 262.542
127.47 190.65 136.645
93.6774 101.079 194.986
75.608 137.93 131.503
110.678 120.96 223.839
98.1123 90.2338 174.527
