ply
format ascii 1.0
comment Created by Open3D
element vertex 169
property double x
property double y
property double z
end_header
21.383 53.2846 57.26
30.2594 82.8162 52.5217
24.3962 60.1384 55.9786
58.5143 112.233 39.7344
27.9247 66.7721 52.013
49.2855 122.05 60.5013
59.944 119.525 45.3641
42.767 52.6824 63.2235
31.8647 89.6197 57.3973
30.9523 50.5998 44.9302
43.9186 86.9679 71.0895
30.3576 45.4746 97.9518
58.0309 105.819 35.6972
36.4535 58.9396 37.3559
39.5981 36.5114 92.3802
25.8561 83.1257 63.3088
65.1376 116.694 53.8436
48.4307 102.94 43.581
26.9536 83.6969 73.118
49.8826 105.139 36.3921
33.814 86.1492 71.0277
48.3282 65.5616 101.628
68.3377 108.415 54.1321
25.2608 51.2113 81.7359
40.9683 59.4641 104.621
34.5179 24.6045 83.8491
49.3925 45.2274 52.5579
28.7048 75.1781 51.1381
22.3768 41.7853 61.0045
30.4204 25.2304 76.2278
39.886 30.7242 84.8918
66.7718 107.948 43.0048
22.2796 73.7414 66.0405
24.9911 31.831 90.0118
39.3251 46.9178 76.3956
44.3288 60.1009 53.4377
40.164 31.1876 56.6497
33.4191 61.9082 103.578
27.1619 38.388 83.7062
41.8812 52.5536 38.2849
36.6444 42.6954 42.883
47.1799 58.5966 45.8284
38.2942 35.6263 43.4176
24.198 35.9929 67.0832
53.534 115.201 66.8643
28.7381 87.1861 82.5609
39.0403 91.3069 52.549
38.6167 68.4397 104.203
47.6588 72.0875 92.2492
27.971 59.2688 46.9744
28.4135 66.4967 94.85
41.2663 24.8594 73.2481
27.4536 56.3994 87.2192
32.2252 46.4341 35.8174
20.4969 36.5746 82.5551
48.1358 79.2836 89.0367
43.593 42.6146 42.68
23.0468 41.3409 51.4221
24.0025 27.2221 61.0455
21.3218 55.6144 69.3231
53.464 90.2689 49.714
45.8965 49.8075 95.3159
37.7206 43.9462 101.58
31.7326 36.4217 43.5889
52.6953 63.5187 66.4889
46.5917 100.952 51.5436
27.3785 53.0211 71.7573
48.5853 37.919 46.5426
23.2841 49.3612 49.9471
26.382 26.524 53.7024
32.2664 29.1452 47.315
35.0202 53.9026 100.08
25.2895 43.553 88.3811
43.9918 37.9316 85.1238
31.3925 75.0379 57.6908
39.6182 29.0476 49.6848
44.5801 47.8261 85.9871
40.7993 48.95 102.762
28.0547 57.7295 101.679
58.9951 97.684 66.1366
48.472 80.3453 65.4363
41.7313 74.9199 102.251
45.2802 41.7079 95.4092
45.0891 72.5853 46.7147
45.1171 66.342 59.8445
50.6346 75.1132 69.5392
25.1197 34.1874 76.9146
42.0181 46.3992 66.9912
48.388 93.8265 58.4102
31.7484 69.6204 43.9853
48.4252 36.6133 88.7082
37.981 73.9894 44.9956
39.4318 25.05 63.859
48.908 81.6425 49.7191
21.4574 34.6898 57.0187
61.5778 108.986 49.9274
25.9378 64.6064 62.0321
46.9606 56.9047 98.5766
49.4195 56.2168 52.1324
33.3628 81.7917 87.2434
47.437 105.994 65.0838
23.9066 52.65 45.7395
40.9506 84.9865 88.1724
46.5513 71.9981 63.0952
44.2373 59.5733 63.276
29.5153 21.2299 66.3692
22.2163 78.4679 78.9374
47.8976 62.119 88.2338
48.4522 79.8871 57.9428
43.8303 38.6258 72.5554
30.6999 29.7854 80.5812
24.2968 45.8342 74.8299
34.4308 79.1724 44.7488
23.8295 40.5884 73.984
27.7254 59.1561 74.3501
38.2874 90.4268 81.4438
48.7466 75.5246 99.9129
40.7492 60.5634 79.26
26.0759 31.7002 46.6421
28.2354 41.6368 47.1
33.1528 68.9218 98.4334
55.4673 105.26 63.309
50.9301 96.8135 41.8314
30.982 31.5944 90.7533
48.8737 71.3342 56.0028
35.0696 65.7209 41.6297
25.5099 55.6832 63.9515
60.1512 117.379 65.4199
44.4739 55.3659 86.4649
59.744 86.0778 50.0933
35.3087 84.9451 77.2573
45.0177 79.0529 43.1353
26.6839 47.3188 40.6518
40.5859 52.0236 71.8618
46.1734 32.002 60.5351
29.1246 46.6893 91.4881
38.7303 83.5856 50.3099
46.5892 63.8644 94.1698
54.4621 94.2243 61.6437
61.2317 105.023 67.4335
48.3668 82.0277 79.2049
22.0261 46.8743 58.0336
41.7169 67.356 40.8286
33.492 30.4049 55.6921
43.8396 42.7975 59.8564
27.097 66.3657 82.3667
35.6516 78.0154 49.976
36.3522 22.4387 71.0976
44.5751 27.9129 65.8948
45.0951 31.3603 75.7473
42.4194 92.6875 74.6734
49.7651 73.3828 48.0447
29.4514 73.0439 63.645
23.5984 45.2047 67.0903
46.5529 68.6921 49.5644
60.0647 98.5518 45.4955
42.5682 85.4 58.0723
38.7653 60.4034 69.9418
49.0934 70.5836 76.87
27.5034 57.9541 94.6311
18.4556 37.7591 67.9521
44.0957 80.1186 92.7246
43.782 39.7898 50.6271
63.2853 94.6865 61.844
36.4506 77.6955 96.3955
44.1748 66.2349 69.9626
18.6338 47.0548 52.6282
35.6015 25.9821 60.8319
63.7955 97.4108 42.555
