ply
format ascii 1.0
comment Created by Open3D
element vertex 369
property double x
property double y
property double z
end_header
46.5268 144.093 149.052
59.5888 163.271 44.4448
59.6734 136.087 100.49
46.0327 160.362 146.282
57.9548 130.088 115.83
95.7236 186.373 122.131
46.3922 137.749 37.4591
58.8494 119.337 67.0716
39.8493 105.226 35.5827
41.2716 147.49 130.845
68.9602 127.013 88.5184
49.5048 149.792 52.5281
50.4514 148.996 111.599
39.8123 73.6634 45.5155
34.6926 48.6258 65.9631
70.3512 159.872 116.858
58.7453 152.92 145.206
72.0777 162.101 54.1671
27.1754 41.2654 87.8113
54.2567 127.595 51.3909
26.1563 81.3827 98.028
41.3745 118.533 72.0461
67.6703 118.086 125.442
61.2764 47.5402 71.4173
52.321 121.216 130.586
57.4529 49.5277 81.0686
46.2529 129.938 33.1054
23.6195 104.69 63.8517
29.3848 105.205 70.9319
45.2448 135.968 106.76
36.1812 150.002 140.986
23.3889 49.0438 85.2526
35.5097 52.9922 99.5314
35.3853 93.0474 56.2581
38.8895 68.2445 109.127
68.398 114.413 69.0414
31.2118 56.7614 53.6502
54.3917 116.406 42.7719
31.0165 83.0342 67.3682
37.9235 110.784 124.822
59.9824 128.251 104.821
66.5528 138.096 94.0091
29.9918 63.6278 87.237
47.9531 96.8123 79.543
50.0637 119.05 65.6153
45.3215 135.024 54.1613
40.8684 92.1085 128.724
55.7626 157.616 51.8599
54.0155 158.506 134.463
25.9497 55.9013 86.522
35.8205 96.0771 96.6059
27.0283 78.1731 89.0412
55.9576 128.761 34.4083
42.5192 34.6274 80.8621
37.526 89.2903 84.3939
55.2851 60.4494 86.9959
46.0106 87.8649 123.038
62.1315 165.737 52.8149
30.3778 92.8545 89.71
50.235 118.249 74.5985
46.0145 134.976 135.401
42.9232 107.288 48.8891
66.6689 165.332 65.5785
41.9152 72.0948 62.133
79.0177 156.835 125.593
51.2721 128.355 118.026
74.6769 144.248 91.5148
41.2389 118.904 37.0775
64.6103 160.241 129.817
49.0755 32.2967 74.4253
26.0898 59.5251 73.0121
61.6441 170.437 60.8352
51.53 100.985 66.4953
25.7076 91.3601 60.0523
63.4541 145.124 58.0579
34.2191 90.2876 37.0264
90.6874 150.981 67.6154
54.13 37.3287 76.9873
61.1833 138.501 49.7965
28.102 76.8982 81.1038
40.7863 111.954 138.936
64.6469 113.002 89.7195
37.4808 62.9539 43.031
72.1232 141.207 74.1217
68.3331 137.674 119.344
49.0058 45.2632 81.0452
61.1039 116.281 107.69
58.5079 63.0449 105.082
29.674 68.401 71.0528
34.1073 56.6214 46.2295
30.1379 102.835 55.8238
39.0151 48.9084 51.0836
64.4517 107.873 41.0052
44.0431 125.271 44.0443
45.7833 101.261 127.062
50.7184 101.194 134.925
83.3031 153.146 50.0259
40.8146 111.884 68.1081
49.8038 93.751 70.4074
69.3666 94.4458 86.0962
55.5896 83.965 54.7042
30.0037 61.2681 98.0418
38.5805 63.1107 103.286
51.3877 96.3653 91.9855
79.0593 144.296 66.101
38.1852 41.5092 60.954
36.4437 83.3452 73.5745
57.4044 139.491 137.605
107.292 176.644 117.253
52.6654 33.7012 65.0586
50.7535 110.432 136.976
55.3623 126.753 143.981
35.0763 73.7423 83.865
46.3064 142.65 118.173
60.3786 147.539 104.497
62.8413 121.512 81.8949
62.1688 137.689 74.7566
82.9765 138.745 92.7467
33.5511 104.963 41.2579
67.5828 126.421 51.4465
49.6471 65.1368 45.0201
77.3419 153.42 41.3963
41.4828 34.1019 62.5923
57.1332 78.2265 92.7664
42.125 142.271 46.2472
77.8795 129.669 91.8988
49.7194 144.085 45.0491
35.8416 97.0753 124.796
28.8724 42.8307 70.8993
45.2916 58.9501 98.1431
33.646 59.9042 77.4157
40.9365 86.2731 32.3655
62.0858 103.218 87.6935
59.8891 90.6607 35.8178
45.0223 74.6812 103.238
52.9107 75.8136 100.878
37.9955 35.3695 69.2711
30.1747 64.9765 53.077
24.9751 51.617 78.0014
49.1682 93.0022 53.4574
97.8573 166.714 116.918
42.9309 95.7665 69.7628
52.7335 41.17 57.9094
72.8155 156.644 108.597
35.1698 58.1909 65.0437
69.2883 69.0565 67.7684
88.8635 136.164 83.7157
53.9909 84.9852 33.7063
57.8178 148.094 123.034
86.4415 143.31 49.8748
45.4908 85.4849 44.5279
46.6952 86.2058 84.7833
70.5957 152.954 90.8827
65.3799 82.689 46.9077
56.1691 139.061 42.2813
30.8825 132.449 136.938
41.6919 95.933 89.675
50.4392 102.275 35.8592
54.02 118.274 107.697
35.2459 38.2798 83.6372
57.2211 88.702 122.626
72.5234 87.1658 58.1426
75.153 145.421 126.351
75.3705 135.726 108.022
49.5814 104.799 50.7302
28.8006 89.4404 97.6541
48.5032 115.468 106.3
68.6245 131.484 73.9363
71.2016 147.9 36.5619
79.8289 138.549 54.0799
55.3059 108.778 104.172
35.5338 101.561 48.6135
65.9722 91.5723 116.045
66.5606 90.3133 41.9216
45.9113 95.3975 98.5306
58.6153 55.0165 49.7595
79.5308 164.435 51.0316
58.4286 149.443 114.728
59.7762 86.1619 88.2868
24.2722 94.1563 73.2033
58.2035 148.715 45.6732
71.8472 110.668 93.6758
39.5322 45.4808 92.4763
96.5788 163.962 129.106
28.0304 53.0722 95.2179
31.5114 96.4624 75.0916
51.7065 114.69 59.9001
52.8652 86.1151 103.407
61.4417 42.5476 62.298
78.9867 126.178 112.262
108.369 169.947 112.774
27.2865 86.7088 73.058
77.7138 145.236 101.055
49.9475 120.696 114.678
33.4555 66.8459 46.3127
40.2544 87.8075 108.533
64.0542 102.935 105.627
71.0945 68.1827 117.206
66.2669 150.218 131.094
63.3616 74.7316 86.3835
54.5502 78.9248 109.664
64.7851 147.87 87.6983
74.9471 103.069 58.0744
21.8139 68.7915 61.0257
85.5076 148.399 122.431
42.9946 58.4381 43.7333
70.8665 127.185 65.1943
34.1433 84.6671 60.0868
44.3382 110.288 130.918
30.2869 53.4417 73.5011
45.1891 109.199 77.6741
41.1895 76.4088 55.2678
53.2917 75.6423 64.2654
37.9432 76.6155 105.821
73.6088 77.3405 114.186
64.3912 95.0978 65.7999
60.1808 124.006 128.476
34.4343 65.8889 79.0426
66.3404 133.059 36.7754
65.074 86.3336 95.0515
31.8498 88.9246 106.701
88.0664 140.391 58.7332
49.4858 75.0937 51.9362
81.4592 155.43 112.029
104.836 161.704 111.341
33.1062 41.1751 92.2324
42.1188 93.9386 30.0625
47.5513 84.6957 33.5859
62.792 146.73 39.0853
52.6299 81.8637 41.3771
47.988 55.3608 46.6759
52.0741 87.6154 116.149
61.161 116.398 131.398
54.2689 148.323 130.854
48.9678 87.6399 59.5368
76.2753 63.2102 95.1283
71.9338 78.5759 85.0542
38.3717 106.897 60.1208
34.1658 72.2396 54.3665
76.7292 131.158 75.1734
56.3442 123.656 121.895
79.4681 137.621 122.709
65.74 120.722 114.195
47.683 97.9696 28.5249
82.4853 101.598 99.809
47.9542 91.203 105.304
54.7542 47.9909 53.4731
67.6958 102.763 55.6285
64.9779 95.8895 130.98
45.3725 112.681 58.5236
62.7492 101.833 50.1645
81.6352 162.297 67.2721
82.7771 117.745 84.2806
63.3805 106.993 127.929
63.348 48.6016 55.3427
62.9848 69.5473 117.089
52.3811 70.2337 112.309
85.1316 137.005 75.9152
65.0452 96.254 101.553
48.2485 80.5374 77.2705
54.4252 120.018 81.1643
66.8213 112.788 118.833
38.236 103.714 130.454
75.342 88.7685 77.2002
70.2241 101.127 81.7358
65.7106 99.5068 40.6038
106.064 173.484 127.695
54.5719 75.8474 56.5767
94.4412 183.489 130.76
25.9292 41.7614 79.4176
56.0324 43.7905 71.8397
65.7269 126.662 120.695
72.0429 159.837 130.555
36.9537 131.13 137.959
54.6579 82.8285 72.0614
47.794 46.6832 50.1849
61.0584 136.783 111.499
38.1466 123.715 45.0178
74.7679 152.559 47.8825
85.991 114.469 94.1818
64.6979 54.0626 61.0357
36.5213 132.368 46.8307
59.3301 88.3292 129.375
44.1587 49.9604 88.6736
49.2131 53.0414 85.4848
41.066 76.4872 79.3052
64.2951 85.4705 107.233
74.3561 129.361 55.5416
77.4336 84.6921 115.171
65.341 109.561 111.423
86.824 127.697 80.8174
57.3806 90.9544 62.1482
93.1399 158.209 118.926
70.1026 63.4666 74.7065
78.6542 140.004 41.5805
92.1361 111.856 83.6754
44.0634 103.01 66.218
59.7292 64.8325 53.8716
38.0871 98.5623 80.4017
58.5358 109.443 134.433
65.4879 58.6417 83.4811
61.6812 144.329 116.691
43.4912 120.441 142.844
56.9601 113.108 51.2546
76.3821 89.5269 87.5663
107.574 160.68 123.347
68.7917 135.604 100.848
26.4316 75.839 65.8539
78.9648 71.7368 112.385
47.3935 58.2889 91.656
78.9255 111.231 98.5682
66.8405 106.768 122.27
66.2172 53.4062 67.9604
35.651 35.4757 75.218
61.9423 80.734 67.0125
77.9406 67.4007 105.421
85.3234 77.6777 107.945
77.8073 148.845 79.8425
41.3242 44.5719 56.1929
62.1729 61.9388 89.5734
47.5554 88.6393 76.2667
65.0038 65.7541 55.148
63.3499 111.654 56.6579
65.4969 91.4938 125.467
35.6756 111.609 54.4686
33.0849 80.3322 104.011
40.6643 92.0721 45.7136
68.7008 76.8274 73.6836
62.8678 100.377 126.001
63.2441 85.4677 81.9202
67.6424 150.505 100.67
58.7464 95.5088 132.55
77.0602 108.848 65.6407
92.8257 151.101 52.3613
58.3305 80.6432 46.6669
70.1199 70.8507 79.0249
76.7191 69.9025 87.8877
66.0086 91.5499 72.6285
65.9054 55.8238 75.9508
70.1634 91.1747 47.596
73.5061 98.9185 95.4329
55.1851 105.362 40.5258
85.9028 120.606 65.8771
62.0014 138.684 83.9638
61.8486 84.9269 60.7185
33.8551 56.984 58.8633
54.5381 116.757 136.419
54.608 97.0263 128.438
40.3377 139.238 152.942
58.9006 104.22 132.194
76.6639 124.656 75.126
48.4948 91.5269 130.125
32.9603 73.6444 94.8131
52.1863 64.0819 52.027
70.1089 64.104 89.728
83.3858 71.3025 98.5443
69.0075 67.7037 58.3633
57.6706 109.013 56.6995
60.6921 63.9278 112.741
86.2366 78.2944 97.403
77.573 92.8637 109.603
71.8392 95.605 100.964
85.0174 89.6799 82.0104
82.8808 131.655 68.1176
70.0684 58.2737 68.9314
62.227 100.316 114.697
72.3752 142.181 34.5134
52.0724 137.071 154.224
78.484 117.589 59.9754
