ply
format ascii 1.0
comment Created by Open3D
element vertex 178
property double x
property double y
property double z
end_header
32.8667 52.284 66.477
43.7443 37.7623 108.548
32.9527 80.141 60.4152
45.5014 106.779 105.96
42.0005 131.769 101.495
36.5233 56.7964 86.8135
34.01 50.4579 141.548
33.9424 78.3479 165.83
50.1742 104.79 48.5301
50.905 89.9316 150.225
46.8377 60.289 136.589
44.5576 56.9163 147.924
31.1998 113.065 109.366
30.1096 28.3376 115.287
31.8935 70.0701 115.173
32.0816 120.608 118.59
42.347 98.2552 112.718
44.6832 61.8114 159.602
38.6459 87.7989 58.2612
47.9353 52.4761 128.28
48.7264 95.5528 138.112
30.1965 89.5996 53.8902
49.8076 77.017 159.307
39.0005 67.9899 91.0149
32.7398 41.8552 121.788
44.1824 116.579 99.2926
25.9144 37.7416 83.6843
41.4137 19.1947 112.916
30.3543 59.9121 55.7163
34.0224 115.735 152.374
30.5083 101.023 107.399
37.1547 104.474 88.4334
35 81.6917 73.8354
20.2511 101.538 68.6286
34.7893 126.938 141.134
20.0567 62.3074 47.213
21.6059 54.6953 61.0693
46.7516 82.9014 121.026
32.5972 60.6071 125.704
26.006 73.553 89.766
33.5075 21.4505 125.753
47.1506 84.8625 71.9977
33.1435 40.2405 150.417
47.5171 117.187 63.0996
19.3104 93.4266 43.4606
32.7715 89.2602 159.952
42.357 68.9849 103.961
47.9945 65.9913 120.757
49.5499 110.575 144.218
33.5379 112.893 132.778
47.1606 81.4739 104.604
36.1693 94.4012 82.54
44.3434 92.9462 121.715
46.3188 76.2101 129.093
34.3121 67.8195 138.031
44.0876 136.943 124.519
18.7307 108.182 50.885
26.7592 103.522 45.8225
49.1011 81.8957 142.595
31.1459 91.478 64.4036
20.2171 77.4237 42.2994
30.0293 130.459 110.219
42.5119 53.7945 97.9453
43.104 44.2922 92.3188
28.8761 100.003 61.9058
43.8354 81.1972 67.8931
42.4602 41.6393 155.119
45.6211 45.7323 140.804
20.3902 87.8873 54.8631
28.8666 62.6879 43.4321
50.24 97.3876 68.4283
21.4087 80.8836 64.242
32.2149 62.0147 74.5225
29.7411 89.7524 98.5431
28.111 113.922 96.9749
46.7036 56.7762 69.8181
47.0126 69.7488 139.842
26.2432 57.0519 96.3299
46.9063 121.023 127.915
21.2898 68.4226 58.534
27.9421 25.7968 98.655
33.5113 96.9096 149.844
50.0423 83.0114 170.449
42.6947 126.628 112.68
19.8271 111.066 63.9228
32.2108 142.757 96.0436
43.6679 126.284 46.6213
36.2699 44.0025 73.5693
20.6754 122.846 73.4856
20.7028 90.5157 72.379
52.2324 106.798 160.78
41.6988 23.9315 125.966
50.6471 119.514 52.7892
33.4073 112.041 75.8651
39.666 38.6294 84.3845
37.3509 77.1066 78.9776
36.2692 71.3587 158.783
34.1705 139.715 125.706
22.0762 71.8749 72.3294
42.9518 66.1914 112.868
28.3577 32.6368 62.2364
34.1752 105.936 146.614
28.4667 108.49 60.1128
29.7766 118.05 61.3657
34.1612 93.9796 139.908
42.1161 33.5042 124.088
43.6213 42.6726 125.948
31.4286 74.5699 50.6145
24.3802 90.078 83.1994
42.0035 32.1611 142.501
32.2302 139.859 82.895
33.0706 46.9896 59.3422
33.8845 103.306 73.808
48.36 106.219 73.6845
28.9827 126.613 99.181
30.3769 140.682 111.354
31.9054 84.2325 109.437
40.2208 59.589 64.8326
42.741 29.1703 110.903
49.711 82.6526 51.1817
36.3632 107.514 41.2748
32.7459 29.4441 136.749
28.3383 45.9839 51.2299
50.4613 102.623 33.7961
34.1377 123.685 129.669
41.9383 95.5654 72.7859
32.2467 15.2929 92.1645
22.4922 56.1926 73.6166
45.6972 52.1442 108.391
36.0034 81.0991 152.822
41.1679 97.3982 95.3025
30.5954 50.603 111.915
41.1114 121.962 84.3337
45.2905 61.3387 75.6681
34.3011 92.2929 127.477
39.4831 25.631 92.0028
34.409 84.2351 127.22
28.0537 87.6673 42.1228
38.0982 121.737 45.4642
32.8052 100.573 126.002
47.0059 125.73 143.672
41.7386 92.1447 34.91
34.6188 103.512 57.1266
41.8801 84.7296 91.8912
24.0925 130.053 86.4423
30.5266 34.9478 105.084
23.5284 118.429 54.1975
34.688 64.4856 168.184
24.1576 53.0156 83.4589
32.5996 92.4935 73.5089
32.0112 25.3603 77.1343
41.4022 141.923 112.254
36.5796 95.4402 50.9558
43.6373 108.107 34.1038
33.4569 68.4542 149.379
44.2613 112.629 120.345
40.9252 51.9713 69.564
36.5689 25.7223 138.264
31.5529 133.018 73.9254
42.178 133.594 142.728
47.8009 59.8874 126.591
37.0789 102.252 43.3983
43.0562 80.9055 53.41
35.7361 116.063 141.717
43.1924 65.8091 169.741
44.0837 46.7537 116.557
36.7522 44.8962 162.663
39.9898 87.263 42.3428
39.511 63.566 172.585
51.0872 114.127 48.7079
35.3723 114.944 60.7222
30.2037 70.2356 67.9593
39.2609 111.245 62.2161
37.6984 84.7535 144.696
37.7549 100.778 66.0054
49.0164 97.2213 44.7888
50.6713 113.582 133.846
33.7853 70.5569 63.2948
