ply
format ascii 1.0
comment Created by Open3D
element vertex 317
property double x
property double y
property double z
end_header
63.0887 51.7462 93.2696
44.8138 117.651 61.9729
30.6376 94.2678 37.1173
65.9778 117.763 120.003
74.6934 45.5322 135.194
71.6701 114.055 110.655
25.5649 55.4628 58.046
54.6567 96.6991 106.403
56.9626 121.078 56.5896
78.61 100.751 35.0268
78.7083 119.252 114.45
70.9282 55.3303 109.179
28.8495 68.0683 81.4005
70.8001 120.669 51.3888
81.7752 77.8259 43.3037
34.773 110.926 57.0545
65.9695 73.3802 126.363
29.7475 103.809 55.2426
99.2877 88.9105 148.233
43.3956 55.978 90.8301
44.3896 36.2591 54.5038
42.4632 67.5514 92.7431
27.3697 88.5006 74.6258
34.9892 76.8209 86.6902
33.2358 85.6574 31.6715
66.9523 56.2202 138.037
92.3921 64.2012 151.862
93.1882 72.2436 147.79
52.6715 37.0801 50.7706
48.4147 76.592 95.3481
49.3665 83.1242 22.4194
56.6868 79.0824 22.973
59.0558 52.7334 132.458
78.3749 60.3014 54.7266
39.0685 92.3798 85.4172
20.4083 69.4469 55.6296
65.1078 120.453 59.0702
40.1522 85.663 26.9073
93.0596 47.2207 142.315
61.1313 40.6888 87.1643
65.4691 33.6273 66.4245
60.7545 66.8833 106.038
52.8392 45.0173 39.9346
36.5655 60.7189 32.0462
30.1014 98.5966 45.8927
55.0449 103.21 111.716
89.4662 86.0035 134.367
80.3627 69.4515 101.677
62.0249 63.4339 133.167
58.2635 69.8273 24.7391
27.2803 57.6856 76.9107
49.9983 89.391 109.351
44.8109 97.2589 27.3034
68.5686 37.1808 77.6449
82.6174 64.0611 143.814
36.4014 58.3299 86.0741
51.1684 115.624 38.2738
98.8283 80.2846 151.726
95.7774 50.9022 149.129
51.3845 60.9808 116.096
79.7585 46.6415 143.341
72.9859 38.7256 66.3429
67.2494 95.6452 121.852
22.2074 69.3744 68.4602
89.4715 52.2225 118.923
45.473 88.4541 90.544
53.4079 64.1815 109.081
104.353 76.2903 155.557
32.9143 58.3689 41.7139
54.0244 54.8911 122.846
35.215 110.666 46.4749
42.933 105.03 83.7328
40.1527 105.841 36.1257
50.2944 73.4367 123.103
50.8396 47.0082 88.3363
84.0432 113.685 108.806
58.5746 93.6666 22.3175
44.4805 36.7889 66.9022
53.4607 59.0282 26.4528
72.4809 106.034 105.342
61.3557 86.5274 23.7806
60.5519 111.452 115.069
51.6082 95.7887 117.642
20.3658 78.5311 61.2722
56.8382 111.55 32.1761
46.9186 117.102 72.8315
84.9647 73.2139 82.6554
74.8739 48.5653 114.451
28.8753 48.8012 68.782
25.7786 96.7136 60.5044
70.2117 48.0929 88.7554
76.1158 53.9157 145.154
48.4685 71.0491 116.153
46.5973 119.268 48.6393
75.1204 56.2292 87.6119
74.4315 108.991 129.132
65.602 83.6601 93.5853
109.579 92.7299 139.451
36.5849 107.474 71.2519
52.6874 62.0695 127.2
78.0673 88.1153 35.7451
65.5583 50.1805 117.153
74.7103 90.9067 119.04
41.0595 43.9799 43.9132
47.7674 81.0204 115.153
54.7913 35.6735 73.2522
48.3785 107.291 31.9325
79.1648 59.7029 107.314
33.6596 48.9931 77.7948
77.0283 115.202 59.8358
80.7992 68.3872 47.0614
78.7882 113.722 47.0854
29.2213 98.7712 70.5561
54.8995 119.051 65.3802
70.112 65.0129 130.835
61.0923 90.5159 119.19
57.9814 33.1834 60.7505
109.928 84.2003 142.327
79.8557 98.3853 123.678
61.7872 115.526 68.8476
73.7644 121.598 121.664
36.6827 101.231 79.6745
63.8347 106.067 107.351
58.875 103.606 27.1195
57.7494 71.3308 94.2195
65.0218 106.592 125.527
89.8654 78.2678 138.141
69.1449 105.682 28.1649
54.881 52.6327 32.8807
85.8971 76.3497 128.35
67.7116 72.8591 103.491
99.061 55.9702 136.966
71.9371 82.4695 101.555
95.7498 95.6154 142.944
59.9339 43.0998 46.094
70.8374 97.3607 28.0693
80.2922 113.205 133.63
53.7902 88.1285 95.2034
63.426 52.1922 37.3317
53.5384 104.677 88.3343
85.4572 121.884 123.843
65.413 105.269 85.5611
68.5059 52.1117 44.1314
90.7777 91.2203 56.717
84.0072 107.407 103.674
91.6326 114.746 112.787
44.0007 76.403 23.9792
23.7555 91.8154 52.6735
72.7064 63.0276 138.837
70.3969 87.7638 26.7829
65.9487 47.4288 133.393
99.0221 114.308 131.26
77.6844 77.3144 122.995
75.4087 120.407 129.741
49.3311 67.403 23.2122
58.9016 122.162 45.9352
61.9297 59.2458 30.5263
77.4849 102.084 78.2324
84.5125 119.765 131.475
42.0352 66.5845 25.9494
84.6982 106.599 138.085
68.5048 40.7238 54.2546
31.0398 45.6613 59.3527
73.4385 98.6813 101.666
98.6817 61.2321 155.105
32.7084 86.7398 80.0553
85.6591 91.5367 128.719
107.572 71.0577 151.157
58.6736 61.2539 94.278
73.9805 73.0508 37.7587
64.6389 68.5506 29.3674
71.5127 101.346 125.371
46.6842 50.099 35.1557
53.1143 96.4672 24.4334
106.032 79.0287 130.647
90.8886 97.6423 138.881
84.0993 70.3217 136.119
76.2337 43.2111 52.4196
51.9166 85.7232 121.276
50.6117 113.812 77.1668
71.2261 64.001 105.106
63.7358 95.5172 92.7352
59.0405 88.9325 103.019
82.0309 82.2189 84.3068
77.7394 67.5261 137.763
34.081 46.085 50.9604
73.7504 45.1618 123.497
84.3295 45.5223 130.452
89.9094 58.3928 68.9452
93.0954 117.274 127.139
82.8833 94.316 40.1551
57.5679 105.816 121.611
35.8733 69.0327 31.9923
83.6277 57.4492 77.1794
108.863 104.927 136.124
61.6006 38.3256 53.7859
107.204 73.71 141.991
52.4006 56.1243 93.6621
93.0904 82.2899 144.047
59.1921 118.473 36.7768
89.8648 113.961 137.269
49.1241 90.8867 23.4185
26.1879 61.8492 49.3791
74.2079 53.0141 52.4175
29.9408 71.2749 39.8294
87.3435 79.1988 54.919
86.7092 46.113 137.998
65.3393 94.3207 103.234
84.2212 54.0813 149.326
22.1573 83.43 66.452
58.5272 70.0934 127.966
106.914 88.464 152.131
101.002 101.314 148.21
84.3121 50.6243 70.1856
50.0877 96.8876 89.5445
63.4163 56.4918 109.631
58.1765 81.3033 95.9442
85.1193 100.805 42.3821
73.6077 62.8917 93.8909
74.7629 45.3892 81.7645
60.0361 48.6745 123.872
82.0082 47.3726 121.526
68.8879 47.9166 49.6305
85.5215 106.988 59.1149
76.551 63.5566 43.4016
54.3462 73.6692 108.778
102.826 62.0458 136.148
82.9855 90.8648 77.8405
70.9315 115.551 63.4663
40.4062 54.316 36.2218
46.1722 58.428 28.8494
95.0343 60 114.51
89.2548 68.085 74.6512
37.3649 94.3045 31.274
83.2514 70.6432 54.9918
72.0159 104.075 76.5374
89.7024 78.5317 73.5451
103.415 58.9611 147.659
91.2251 64.279 103.033
63.9798 111.002 78.5133
85.3134 57.2723 111.079
74.1463 116.484 39.1728
84.1893 85.419 41.5168
22.211 84.9657 52.0929
87.3503 100.505 52.5752
82.807 108.762 51.799
107.808 99.4771 147.515
83.3154 58.6823 62.1034
74.5444 81.1173 34.0566
108.887 88.1482 128.018
79.2627 71.4411 88.5224
60.2055 79.742 120.538
101.621 63.3647 121.904
70.9414 78.3367 119.208
57.9015 59.7063 111.283
74.1373 46.2445 59.9144
60.7085 76.6881 103.487
70.8713 102.959 92.8308
78.329 42.9606 74.2076
109.999 97.7197 131.681
100.399 52.8577 142.943
74.4539 108.792 32.9329
42.4896 112.108 44.353
69.99 70.6496 33.0828
90.5853 70.0516 65.9328
57.3325 110.092 86.1612
65.8556 112.214 33.0582
79.6614 107.404 42.5577
44.4315 42.8479 78.7811
105.793 68.0196 138.251
93.9369 92.1978 102.045
67.8669 119.319 44.0479
99.5217 107.225 106.994
26.2879 83.5866 37.9668
65.4861 62.7868 93.176
99.7806 110.837 118.964
73.3211 56.8308 43.17
105.073 107.48 127.947
66.9351 44.3293 124.907
81.0769 82.8838 101.682
85.5216 93.2853 47.9705
79.2294 48.8308 64.3525
64.3753 95.9022 24.4351
81.231 60.8471 85.0656
64.5435 70.9874 96.4511
76.9335 68.8515 129.412
91.0161 104.842 102.713
83.1053 85.8503 123.37
90.6141 83.5378 100.164
102.028 109.784 142.444
74.4732 86.3611 89.8099
87.0301 101.306 115.063
98.4865 56.7551 126.692
56.0566 81.9804 106.375
74.5191 94.7866 84.4612
88.7496 69.81 142.152
72.5884 71.7476 92.8889
73.7375 90.1167 99.788
89.899 73.5945 99.9266
65.5751 78.5413 27.3653
94.6352 97.5023 128.068
83.8037 97.0435 99.9368
92.2719 102.587 58.806
102.703 70.2486 114.074
85.034 98.366 134.369
88.4445 66.3064 60.846
69.9143 77.072 94.1755
69.8219 62.1969 37.8878
95.3754 81.8452 102.1
29.8406 83.4287 42.4861
105.669 71.209 120.95
40.0849 48.5161 66.1927
106.164 101.701 116.543
86.2736 85.2326 49.0752
91.9049 52.4399 130.267
102.472 65.2155 129.669
84.6391 111.097 64.2753
