ply
format ascii 1.0
comment Created by Open3D
element vertex 293
property double x
property double y
property double z
end_header
129.544 47.7848 68.9804
129.624 54.7178 76.0453
107.267 98.7173 53.7461
129.035 42.2882 74.3282
127.912 101.156 72.6926
131.605 66.5837 70.5253
126.26 42.4902 89.1591
124.273 33.6155 77.1415
88.4613 88.0552 78.0143
106.13 95.0355 103.952
129.062 89.275 82.2099
110.878 22.9354 56.7232
103.63 46.7302 43.344
93.0737 75.1899 88.5258
131.519 63.598 77.1512
122.927 89.4267 92.3035
97.1644 60.9593 62.3089
120.738 58.5175 102.169
110.977 108.239 95.3862
126.954 72.0966 87.5257
118.877 90.7981 100.842
122.724 26.7816 58.6264
126.845 51.2672 86.9304
120.802 37.7179 35.1095
93.2501 64.5032 88.9688
119.583 37.4413 90.8681
129.525 38.237 54.4588
91.9576 74.6479 63.4587
113.372 86.354 107.646
122.826 57.1448 35.6951
113.195 108.733 44.1809
99.6874 36.6877 66.4811
125.314 49.3855 93.8282
129.788 50.3028 58.2103
100.47 44.2637 90.828
113.496 40.0738 97.9605
117.909 43.2942 29.0406
124.432 83.8624 96.3837
102.074 50.5137 48.8943
126.679 38.3799 46.9409
129.21 74.858 80.3896
116.45 100.33 41.6776
108.519 113.268 77.2287
130.904 70.8324 64.5641
113.12 46.6638 102.992
120.307 65.1578 104.702
114.961 113.621 84.3244
119.262 106.724 76.9528
101.857 41.4854 49.8632
131.139 77.9272 66.3664
127.891 95.9105 79.2465
124.486 68.8266 46.0095
115.815 84.0492 32.3199
128.14 49.0246 80.4275
124.563 86.7121 41.4977
112.627 106.017 50.5625
131.276 54.7735 62.2002
127.253 79.9685 82.4943
95.7085 105.11 66.4336
94.9591 70.1105 96.0173
121.583 26.0483 71.0172
101.754 107.292 65.0076
109.749 75.8005 25.8313
94.7722 40.6889 75.9567
126.82 68.3113 36.1353
117.068 98.274 98.1637
123.759 29.1191 65.4421
101.631 91.8666 41.1059
105.362 37.8257 93.8445
122.623 34.0233 83.8967
111.428 53.5644 106.401
127.727 30.6762 56.0535
98.4226 99.9358 55.5227
95.8687 61.3839 95.2104
100.312 111.053 92.0129
128.222 90.6782 75.1512
123.249 85.4371 48.6315
100.918 72.7527 34.4674
107.565 110.187 59.9242
119.745 110.698 69.5946
123.501 34.8639 42.4946
105.804 63.0425 26.3723
118.918 55.5793 27.42
120.045 23.8153 52.4639
121.807 24.505 45.8272
105.135 28.9171 66.7191
110.48 105.35 55.0439
100.053 58.0077 106.141
127.727 82.5002 52.7266
111.474 93.6482 40.3412
125.637 76.4604 90.9515
104.711 36.0994 61.8844
130.875 56.9445 69.7362
110.044 24.2812 80.7702
122.937 28.8673 41.486
107.009 44.2645 100.093
128.359 40.2916 60.2831
125.538 83.0181 88.7594
110.231 88.2204 31.892
127.869 54.1499 42.0838
91.295 86.8782 90.3554
129.154 85.4742 70.3938
118.851 84.9026 42.3777
124.847 66.7081 92.0688
92.7009 88.4373 61.1167
118.938 30.3844 36.2479
127.903 62.1788 44.8013
129.455 43.8678 63.8573
126.211 108.013 76.6605
104.282 114.311 85.6712
128.984 82.0898 46.0663
123.245 67.6576 98.861
128.744 60.3276 59.8716
110.077 33.2185 92.129
127.493 75.3989 50.3854
101.106 56.8946 35.0883
129.419 52.1374 50.0931
119.362 102.594 85.6702
118.708 22.3581 59.7675
120.911 73.2628 94.3142
120.163 81.5897 101.595
97.3341 34.3949 79.3722
105.552 78.178 110.559
129.298 70.6283 77.3785
119.334 50.1491 100.856
91.3247 92.4945 87.7242
127.679 33.4256 69.2528
114.406 106.93 86.545
114.801 114.292 73.2865
111.779 80.0064 109.958
91.9291 103.248 73.1849
97.5708 51.7892 93.1148
99.7589 60.4547 53.8037
89.3108 96.0871 82.227
96.2001 67.8858 51.6298
106.084 69.8538 26.5693
121.611 43.0958 94.3944
106.846 105.639 101.805
130.124 44.7739 52.0135
101.037 43.7522 98.4548
118.201 78.7853 32.1392
104.573 75.9853 29.6534
116.857 61.4907 25.929
114.872 21.3367 64.7214
105.382 33.1556 84.8044
102.472 84.5505 37.2538
90.2107 85.1983 70.8962
110.671 100.126 43.3795
114.951 24.2179 73.7441
132.293 62.5154 52.3788
124.518 101.6 83.3484
106.31 114.316 66.9712
123.374 49.5457 40.614
99.0008 53.2685 54.1014
129.12 59.148 48.3274
128.51 58.0026 83.9008
127.553 84.3073 76.5563
112.115 22.4021 51.1522
130.659 77.3611 57.5404
104.067 112.037 99.5307
93.7155 53.4377 70.0541
128.742 74.9205 70.8446
129.316 66.2414 59.6322
93.4212 72.08 79.6485
127.761 85.2077 62.6844
111.717 62.4235 24.4843
115.57 89.3825 39.5158
104.298 104.192 47.6883
97.5965 37.1902 92.0785
103.006 34.7475 51.9072
120.74 89.4004 38.6742
125.679 76.4281 40.3303
109.516 113.009 54.0606
96.4347 58.3262 67.8382
91.988 78.5118 78.7997
120.575 78.3627 45.5833
116.579 27.7999 83.3206
105.561 50.7536 37.2043
123.359 58.2776 91.9659
122.371 101.613 42.5766
116.252 69.4871 101.403
94.092 91.8764 53.6778
111.979 44.5558 28.4876
101.784 79.8591 31.9599
101.036 97.5344 105.53
124.159 43.0463 39.3769
121.228 97.2322 88.0068
93.0632 97.2333 57.2844
99.2902 60.8911 39.4883
115.157 115.191 66.3572
124.734 41.6196 80.187
95.0466 47.384 69.4313
109.853 24.548 45.3183
110.015 66.9313 111.263
97.288 68.0155 102.947
98.5018 32.3353 72.7931
110.685 112.372 90.7023
101.741 44.25 58.5356
100.723 35.8756 87.0199
116.97 54.8433 105.877
100.688 54.1354 98.6557
114.096 111.816 59.7826
128.241 64.8432 85.0941
99.5517 97.3843 47.4292
101.567 28.9713 75.5318
100.579 107.17 103.326
108.841 101.784 104.016
122.792 47.9211 33.442
118.708 62.0587 31.8113
100.071 113.75 79.5124
117.922 71.4542 33.3594
94.3058 67.0226 63.9386
110.401 91.5072 105.762
123.233 89.1741 84.931
95.1273 99.0807 97.1695
95.877 95.1952 91.3454
105.528 30.1284 42.2421
102.679 106.507 58.3857
114.448 31.4273 88.6709
97.4469 73.474 42.4607
116.653 113.115 78.4136
96.4749 101.348 61.1725
97.1977 85.2059 38.9856
121.319 56.9874 96.6837
121.581 63.1849 42.3795
104.417 42.4591 37.2253
111.501 31.3328 35.6214
98.9491 60.0699 100.598
106.294 28.3374 81.9054
94.1396 48.3674 77.5994
89.6154 102.715 65.8918
99.5622 77.4595 99.2535
91.9425 68.4721 73.8906
103.846 70.5686 110.282
92.6368 81.7607 52.008
106.263 48.7552 28.6119
116.223 76.7092 110.006
96.037 39.7312 84.3021
112.029 100.904 96.7966
102.246 65.3774 31.3146
90.5823 97.9692 74.1197
125.369 47.7304 46.2267
94.2068 58.0465 86.43
107.116 59.2375 106.775
89.2538 93.7904 70.8726
90.2222 70.8193 68.9865
95.4525 67.7073 58.0865
116.154 70.0749 107.668
115.239 26.1857 39.8182
90.3294 81.0539 64.365
98.5099 67.2091 39.7857
94.5364 74.2243 51.6191
120.795 75.724 37.3449
116.619 72.8063 25.5363
95.5269 105.564 92.5787
92.8958 80.7437 93.6672
92.955 93.534 64.7861
100.307 87.7928 102.984
109.414 81.3958 31.8861
107.8 92.3287 44.0821
98.6054 73.1821 108.437
128.946 49.2208 24.2924
109.684 114.543 86.5658
97.2456 44.9357 64.3386
100.021 112.74 70.8455
109.862 34.3209 47.6992
111.421 69.2287 23.5405
105.349 24.3077 77.5796
92.0724 103.393 83.1833
104.846 96.9338 39.8119
99.2326 54.8161 44.3495
105.288 29.8855 57.5974
96.7299 45.8506 59.5363
97.7104 109.029 85.7915
109.002 38.9942 34.1787
98.528 93.1988 103.352
120.906 27.4031 77.4857
124.008 79.7635 58.5175
118.28 49.4447 28.6377
102.933 51.1325 102.874
127.663 59.1168 89.2313
93.6858 107.885 77.0115
105.9 112.957 71.7157
101.798 64.449 108.976
92.4691 82.5042 56.5992
106.254 56.8527 26.5169
98.5518 96.7627 32.2979
115.642 22.9823 46.5137
108.632 116.824 81.017
97.3649 101.615 101.56
93.4687 93.0755 46.3174
92.3273 71.8501 45.5041
115.984 94.8976 44.8005
