ply
format ascii 1.0
comment Created by Open3D
element vertex 554
property double x
property double y
property double z
end_header
152.249 83.9912 138.853
152.24 110.687 67.5154
156.823 118.092 62.5231
149.878 107.227 144.796
83.1067 64.3692 69.1523
105.016 80.9369 47.8844
154.951 127.119 107.163
92.4565 76.0568 48.2801
156.761 120.43 75.8473
155.723 86.4515 106.966
156.035 88.8507 132.948
148.72 82.3903 96.8387
157.799 88.5067 77.8217
74.7731 114.209 28.5644
73.2487 91.1932 30.6512
66.0422 93.5614 29.3131
151.09 115.785 132.316
149.68 88.5368 129.235
93.5494 124.433 41.8147
157.894 110.652 140.324
101.959 76.6781 54.2126
82.5406 100.771 28.1799
77.8718 52.4078 67.9655
125.861 98.1217 67.4755
106.941 87.0678 69.6999
154.951 90.1453 88.1353
154.559 84.228 98.5862
89.9798 101.856 32.2819
83.4141 67.5851 100.463
140.607 123.971 111.308
155.547 134.169 84.627
157.545 123.813 114.875
90.3766 122.395 62.6474
155.515 84.4206 113.433
151.627 74.1142 102.067
153.871 117.693 120.551
149.146 119.345 120.594
154.926 91.2159 121.477
158.276 95.0596 70.3249
90.3039 83.9686 42.7266
146.914 84.9588 120.989
103.326 110.166 40.3433
152.296 96.8509 137.289
103.751 92.2258 40.6927
99.6105 121.832 69.7348
157.482 103.895 60.3313
101.1 89.4184 57.8308
147.629 100.382 70.6685
158.449 83.522 124.277
89.8599 107.906 37.9437
80.42 56.5598 105.385
149.015 82.3733 106.226
107.808 88.6625 47.5347
60.9962 112.13 33.1049
153.739 118.519 109.979
157.968 81.7581 90.2688
134.883 79.6485 108.105
136.393 76.8655 87.6434
101.981 97.347 64.0662
78.1912 49.2978 81.7449
92.1481 56.6706 82.9188
73.4274 119.115 33.2309
110.999 122.003 53.9347
129.426 117.96 66.7576
114.64 107.025 64.3563
149.477 107.206 75.6235
157.585 126.701 129.366
50.3313 73.2048 64.6289
139.999 79.2409 110.497
148.823 123.034 96.0699
97.8873 128.681 64.6468
139.302 130.345 86.0434
86.2643 51.1219 102.958
78.8092 43.4696 86.5563
124.489 80.3722 104.207
117.393 93.3442 65.6118
107.692 60.76 94.1773
133.324 78.3778 101.973
107.66 121.228 61.4515
145.138 125.764 85.595
113.327 89.3506 67.6078
125.212 122.209 71.6074
147.809 122.496 110.745
85.6618 101.753 53.1293
152.852 91.6426 80.3186
153.348 100.933 72.5582
90.3452 66.3126 66.0505
93.5246 127.87 72.6911
64.8802 127.04 46.3397
135.333 70.942 103.074
157.138 118.632 134.442
85.6586 94.6506 32.349
84.9681 120.208 36.8492
151.507 123.964 101.915
77.6227 109.751 92.7728
109.713 74.8938 74.62
69.4127 108.982 28.5633
98.6797 85.0783 42.8483
69.5691 60.0375 55.5619
150.851 83.0866 117.088
80.1241 106.806 36.8137
140.864 121.557 78.3049
121.919 88.8721 72.896
116.7 76.0773 75.944
142.286 79.5479 103.293
139.888 92.0802 75.7977
94.6509 114.662 60.0887
90.872 83.4875 78.9361
64.3298 102.505 30.8136
95.506 74.9297 60.3359
75.9447 79.8371 42.4303
92.8953 134.839 67.5123
106.381 96.2684 74.1473
78.8243 125.338 67.3684
129.604 75.0996 93.7547
96.8344 103.99 70.3198
106.333 119.325 48.9465
145.63 111.872 71.3799
150.664 122.433 84.0147
76.2816 49.9069 102.025
153.89 126.867 92.2934
75.9047 64.9642 53.6576
101.449 132.121 57.8042
73.5678 64.0464 63.0617
96.3136 107.755 42.0769
119.809 118.051 103.687
145.089 105.83 72.9945
105.845 125.225 66.4771
156.692 110.263 71.5931
102.036 59.9994 91.1138
114.113 64.2668 96.6746
157.106 124.868 139.575
73.0877 56.4765 79.6641
132.576 123.158 76.8739
122.766 110.05 66.9451
85.1865 47.1586 89.1887
141.134 108.173 68.6098
123.749 116.827 68.657
70.6056 43.504 86.3149
131.511 95.7579 117.986
125.425 133.025 98.5633
67.5951 48.2676 99.8566
113.312 115.197 63.5025
144.98 115.42 113.206
77.4376 61.1158 71.9628
146.988 95.1482 76.4852
123.789 73.2633 94.0443
88.5373 55.9077 107.523
149.883 89.5239 74.279
138.533 78.594 80.6744
132.262 131.393 84.2402
96.2776 95.7081 39.1444
97.2787 56.0589 99.4541
134.295 93.2561 70.3734
132.442 90.6806 76.964
136.739 92.6123 115.755
111.236 78.8061 70.7641
137.312 83.8612 67.3438
141.584 94.6682 124.252
94.8871 99.546 54.182
73.6766 127.794 47.5155
139.888 104.02 75.6359
94.9011 103.109 86.7115
74.8262 87.0733 44.999
81.123 49.0761 94.9531
71.8528 68.5011 95.5095
101.56 67.1574 80.763
112.508 99.0643 71.6863
139.524 108.07 123.455
107.7 100.452 67.3768
85.2853 78.2334 47.9291
107.194 66.7447 76.5339
66.0946 62.1646 71.5708
131.19 81.1189 78.0922
62.1253 100.731 91.7991
91.4737 51.7254 87.1331
109.921 68.7365 97.5807
90.3066 76.8629 74.5381
117.997 112.173 66.5182
148.077 106.431 117.731
141.332 99.4398 116.844
89.5234 120.065 53.9214
127.493 73.015 100.467
130.492 129.975 91.9261
121.653 129.265 83.0565
88.1761 49.5213 94.045
99.9756 126.39 52.753
58.0596 97.0493 30.4107
143.317 111.673 127.508
143.529 82.7004 87.6766
83.5509 90.3577 96.2757
129.891 73.05 86.859
129.523 80.0275 104.241
106.008 71.4589 100.24
114.486 128.321 93.8389
83.853 73.0593 94.6037
100.832 125.488 77.5856
97.0209 63.3171 91.9195
92.73 105.713 79.5353
127.926 84.7948 74.2195
85.8379 107.013 85.9039
84.0646 58.9534 71.9714
133.87 108.835 115.497
147.76 86.117 83.4838
66.7444 122.139 34.8463
62.179 45.392 89.2221
121.14 97.5799 73.0536
148.56 94.2657 124.654
117.675 69.1891 93.9265
102.083 116.983 43.4798
102.017 96.4109 104.311
123.672 72.0704 80.7134
71.9294 98.6531 38.4921
120.502 64.754 89.6958
148.997 102.216 137.627
92.4321 65.2956 98.724
101.476 111.044 93.3398
145.504 80.6265 111.747
157.223 98.4195 127.935
152.172 107.275 124.555
67.4194 80.5389 32.8848
86.783 114.954 46.1551
132.278 100.653 70.9859
144.291 78.6411 92.6101
104.602 62.5804 86.0513
67.4173 82.9754 44.4143
93.8093 120.053 71.2942
52.3138 65.3681 74.9874
138.574 86.2288 117.542
88.3692 62.0438 75.8397
97.27 78.4149 53.1519
103.462 64.9602 95.629
90.0179 66.0832 106.704
78.3346 73.0484 50.8241
68.5036 57.5461 103.002
73.0757 119.444 45.4159
86.0698 104.724 58.9556
122.62 126.059 113.518
86.8102 71.5842 55.6497
66.2865 72.9806 78.5791
142.379 82.5982 117.049
58.9827 71.1978 48.5919
113.712 84.5259 69.8908
91.438 80.0053 101.267
79.7013 54.1425 75.8846
88.44 119.079 90.7302
147.659 100.375 128.621
128.438 124.25 114.54
149.456 94.3488 118.211
151.511 105.397 131.751
149.834 109.842 130.677
117.413 121.656 71.1653
113.771 94.204 107.801
124.897 114.162 119.717
136.257 79.4106 114.955
92.3514 94.522 91.3541
107.003 122.482 74.3779
144.041 103.474 117.021
65.9493 73.7182 50.7982
120.333 129.908 94.8869
91.3133 73.0761 58.0949
141.165 82.2806 94.7155
125.955 124.624 78.052
107.485 116.605 92.6217
93.3775 57.6037 93.6192
125.782 92.1134 71.5913
128.966 131.096 103.991
139.644 119.011 116.754
67.3857 66.6919 86.5902
103.949 105.161 68.0774
137.245 123.143 82.6466
66.342 53.6942 87.0985
151.987 117.908 74.7063
109.492 106.039 70.7325
125.542 76.8064 113.9
97.7437 79.6803 76.3228
81.2856 66.3625 62.5345
130.802 97.3796 78.2738
105.851 109.998 66.9567
115.405 72.6277 103.782
102.986 75.498 76.2048
80.9772 93.0361 84.3336
117.263 83.1488 108.703
126.005 132.411 87.1326
103.234 74.8826 104.025
84.4789 90.9467 40.9608
109.779 79.7991 100.934
144.989 115.914 124.262
107.526 87.3454 108.27
83.298 124.751 55.6957
94.9176 90.9268 77.4416
130.844 121.23 71.3521
130.419 79.737 110.727
114.862 120.694 96.6809
65.9964 114.998 36.2652
135.915 112.836 112.32
78.3451 103.102 83.6774
81.5784 132.202 61.2939
89.8302 68.5355 80.613
92.3887 97.9605 96.7955
115.292 103.848 119.556
102.413 112.366 99.6095
109.495 109.304 101.963
120.169 123.051 108.088
117.269 83.995 116.022
138.469 98.9744 74.209
156.44 125.575 82.3998
59.2803 64.7519 63.7227
72.1324 70.907 101.805
76.2454 102.713 59.0564
87.1682 56.4368 79.3628
136.338 128.635 91.5444
101.239 107.184 102.315
115.478 71.4134 83.2957
117.53 66.6734 79.187
140.999 125.725 95.9396
79.4225 98.5568 89.7691
76.7264 98.7668 35.8764
103.855 81.4279 73.0498
101.973 92.1736 68.7534
102.175 116.978 97.8004
112.127 100.126 106.69
136.622 77.7803 96.6265
65.5774 89.1335 41.3859
84.5653 49.1159 82.7975
94.5477 92.3578 69.8016
102.582 106.058 95.0572
117.571 125.657 80.8813
151.809 97.9564 129.393
85.2708 78.7457 91.7707
117.181 112.214 115.563
54.1512 68.6168 69.2024
72.3844 61.1903 70.2395
143.979 122 117.34
58.7339 116.971 39.3879
120.677 121.573 77.0697
141.121 126.074 101.512
141.887 112.651 118.532
97.8162 92.5672 96.9029
136.647 116.158 76.4072
127.639 110.093 69.3922
143.688 99.9785 80.8932
102.839 101.121 97.4311
134.605 86.3627 112.631
122.396 82.541 112.172
92.0969 90.5011 39.0259
109.726 67.5389 82.2746
133.975 92.4103 124.437
143.259 124.305 90.8068
68.1424 55.815 63.9184
133.091 125.108 106.993
69.7779 68.6847 47.5167
61.8869 59.5484 50.8503
89.95 99.4069 89.7986
146.191 125.048 102.7
96.2582 70.0477 81.0015
149.263 117.122 86.7147
135.552 127.512 101.843
64.6201 62.4878 96.4516
124.794 126.442 90.1793
122.603 74.3052 102.175
124.217 101.529 115.592
96.3709 106.708 92.4974
113.767 62.202 105.259
54.5895 106.369 33.3252
129.702 124.786 82.604
117.918 116.652 69.6874
95.8182 102.309 94.2285
115.417 116.254 110.256
137.844 108.263 118.129
100.315 98.1643 111.84
122.663 107.342 116.113
95.6588 90.0733 106.688
96.4872 74.3409 103.327
126.651 125.836 106.682
153.588 124.475 119.296
134.351 120.039 111.577
80.5149 116.157 47.8414
119.512 88.6322 119.27
122.035 76.69 88.1062
71.7851 49.8942 81.6687
121.535 95.5492 112.68
135.092 113.868 70.1061
139.312 85.9025 79.1748
73.695 130.499 73.3722
55.7032 82.2735 46.3892
85.2708 100.56 84.3614
91.3196 96.256 67.6434
77.2043 108.062 46.0978
110.851 112.653 115.488
108.084 121.487 97.5948
129.72 86.3324 113.451
98.2685 63.1328 105.81
80.8465 84.0941 92.3155
82.46 87.1406 44.0635
74.0302 61.9542 100.131
86.0129 84.683 93.4259
107.924 94.5607 108.652
79.3995 87.7297 86.2714
92.8534 87.8295 99.9183
134.739 101.523 116.67
119.694 80.8049 73.2195
67.7398 78.0952 85.4052
59.7644 79.6999 44.6854
88.5259 112.204 59.636
134.56 104.809 69.2184
68.5087 54.9077 95.6859
84.2437 122.015 61.1414
125.87 89.7061 117.868
122.487 82.3379 118.832
123.414 79.8077 78.7329
117.309 100.393 67.0337
142.104 116.79 72.7729
90.9574 89.8248 95.0751
62.9877 66.2437 52.2489
58.9387 70.999 59.0624
140.961 110.948 79.0995
89.1991 96.3679 43.477
110.138 113.826 108.809
71.3489 76.124 93.8412
117.916 131.658 87.2307
77.1892 90.9138 37.9189
52.2144 99.6671 39.2542
127.116 103.625 70.9927
112.25 63.1543 90.1582
133.216 109.46 67.2406
85.1284 97.6474 68.3553
89.602 61.6671 84.9246
90.4681 124.597 80.0654
97.355 80.1151 105.674
141.509 91.8135 118.906
141.559 100.242 124.962
116.456 127.6 99.7949
54.8991 84.3494 40.5065
102.346 90.4307 76.3572
71.8527 105.01 98.4049
119.274 99.514 109.327
134.604 76.6391 69.8367
99.6124 103.071 40.0923
83.9025 117.475 52.764
85.3012 105.985 78.0911
108.947 106.531 105.334
100.541 87.9561 100.648
107.938 122.072 89.2253
98.7182 96.7583 57.8706
56.5528 58.3427 60.4756
64.4365 61.7614 80.6365
76.8788 74.2449 96.8312
88.9444 89.056 70.8727
79.8571 124.571 74.2314
108.905 78.6481 112.13
133.163 127.792 96.9102
68.511 47.7893 75.3015
138.307 128.066 106.99
133.889 119.531 121.112
74.9126 74.5061 45.0548
120.952 127.1 103.271
80.5979 97.4557 64.3054
119.738 72.7624 97.7787
98.34 126.042 84.08
95.6892 83.9526 72.8178
85.0779 95.1107 90.0198
69.4923 48.73 69.099
131.206 81.6819 84.898
115.641 125.624 88.8123
91.4727 101.16 58.6454
130.232 88.5722 121.854
105.008 82.2824 105.53
111.1 115.501 70.8843
113.549 120.335 79.1852
111.654 84.5108 113.232
147.57 116.629 76.6621
136.044 123.986 113.512
135.58 103.665 120.172
50.9149 75.7181 73.2663
96.5773 69.8173 75.0537
96.7622 97.9773 101.408
128.071 118.999 116.324
51.0267 112.788 41.0246
67.0606 54.9931 79.2917
101.13 115.062 91.2305
91.5442 64.717 71.1072
45.261 98.7536 42.353
71.2779 113.967 59.1514
43.8863 90.3121 54.052
102.673 119.299 88.5923
43.4487 68.9479 62.6915
109.596 73.3598 109.3
81.3867 103.332 49.3151
115.128 73.2368 112.787
151.299 111.617 75.0247
68.4834 98.9347 70.4449
78.8537 110.812 59.8278
123.177 117.996 110.616
86.5837 72.8666 105.239
102.677 90.7709 107.347
118.768 104.267 70.7611
125.57 100.619 121.153
103.885 102.781 107.29
79.7462 112.036 86.199
80.0608 90.1766 91.7598
64.8424 86.4146 77.4667
53.8318 76.6285 51.4272
54.2 56.7908 83.1623
95.939 64.0556 84.0332
78.3953 121.384 61.8215
47.6787 111.286 49.1551
113.644 114.095 78.5422
61.9573 79.4491 76.4981
123.211 95.3082 119.663
110.153 103.838 115.647
46.9918 91.1824 64.6448
50.3881 83.629 50.576
97.0617 111.55 65.0814
116.692 90.5894 112.378
105.95 125.591 84.0421
90.9917 102.434 68.2752
126.668 112.599 110.764
55.1299 48.239 80.0955
42.7959 69.2359 70.8598
60.2062 71.2431 67.4693
128.347 106.754 117.671
156.97 123.971 122.579
112.396 122.224 82.8677
43.2967 95.6048 51.0257
111.367 118.332 102.622
77.6203 80.1046 91.722
121.181 79.3528 109.617
53.275 91.7917 37.2088
85.9489 117.826 65.4728
49.7146 62.5513 88.2175
80.8413 108.491 73.9777
131.848 103.522 123.914
68.9675 95.1277 76.6023
116.865 97.9219 115.605
98.8623 109.104 87.4364
47.4012 105.278 45.5396
43.1959 78.1057 67.1377
68.7844 11.0859 90.8199
90.9185 113.526 42.8622
62.8327 119.243 51.5216
70.4908 116.421 52.2938
78.1027 12.8955 102.08
73.5822 83.2916 87.3368
84.624 81.0283 105.748
76.7978 103.312 51.9157
64.0553 58.7598 91.161
93.6213 110.577 88.696
66.396 65.3004 75.5817
63.68 53.5207 65.4977
70.3192 101.911 79.7424
57.0882 91.9024 41.4671
112.646 123.118 90.5463
61.1477 74.2523 71.7436
