ply
format ascii 1.0
comment Created by Open3D
element vertex 652
property double x
property double y
property double z
end_header
87.9192 50.6464 113.354
76.8339 140.382 81.5665
89.6519 45.8821 103.184
73.5037 56.91 129.947
90.2428 72.3747 39.4797
90.2387 87.7881 131.8
25.3709 87.1522 114.64
88.5375 130.786 101.178
59.1552 149.974 110.342
67.5663 141.906 119.456
42.3547 126.386 31.7126
100.749 87.6286 86.7516
88.6145 123.779 121.848
93.1598 56.9323 111.103
57.2288 153.717 91.2378
65.9452 147.531 93.377
57.4051 121.635 148.459
88.8603 44.0604 62.5814
99.3114 59.8796 61.7071
99.8553 83.9947 117.495
36.1625 110.285 139.718
90.4001 64.1732 38.0655
81.6361 136.981 110.943
77.5569 51.5331 124.518
92.8667 105.66 122.066
67.0178 35.8423 91.5967
83.0304 76.0146 34.5644
78.4569 141.385 103.791
101.31 69.8636 65.7554
76.2689 120.129 141.519
71.533 36.6713 98.09
44.2894 147.24 111.528
83.8857 135.011 98.6916
36.9185 129.813 134.295
73.592 97.7545 29.9314
102.569 57.5626 88.9848
59.1038 124.542 32.2783
78.3092 40.9864 58.098
24.278 61.4159 79.4433
71.0288 123.73 41.8628
75.9807 126.248 136.399
97.7105 92.831 67.4231
95.4796 111.564 110.71
81.606 36.2947 71.4363
84.9529 47.4555 120.181
63.2583 79.3467 143.454
74.6453 111.427 40.9887
97.7199 109.955 98.4249
79.7372 132.423 71.0444
80.2626 65.5292 32.1276
92.0882 67.3211 45.2043
37.8143 153.93 95.8276
88.1015 79.411 41.3874
76.4587 48.9358 39.1729
19.6962 90.7002 92.1013
62.2252 56.0003 30.1369
50.2429 89.4524 17.3276
65.2068 87.6334 22.1489
103.314 67.611 77.9696
95.7948 115.507 104.439
49.6863 132.186 34.3757
36.088 141.809 55.1359
64.0055 109.042 26.6467
85.6279 95.0334 44.9103
94.8351 74.9777 121.621
83.8402 43.3369 101.632
45.0534 154.128 95.3632
55.0733 153.263 77.0112
76.4026 118.216 47.204
87.8635 100.697 137.235
60.9938 43.085 48.4678
103.958 82.6383 108.65
87.0382 129.883 109.329
45.2919 100.11 147.762
74.8677 139.683 115.707
44.2735 137.236 42.3327
90.5088 81.1704 48.3472
95.4682 115.338 89.5283
84.0137 82.975 37.8906
37.2089 137.01 44.9057
82.4541 115.512 54.0402
80.0446 46.7281 45.2816
92.712 119.838 114.808
31.822 73.9225 123.342
78.5039 90.0981 32.8771
75.579 52.9037 33.6772
90.7071 71.3359 126.06
80.3102 99.2375 145.062
60.305 110.778 148.207
65.4915 127.804 43.5692
68.5194 145.146 101.075
30.7168 95.8451 130.307
89.5363 97.4506 52.7744
92.9977 122.729 102.678
56.957 147.726 118.021
95.838 51.8174 63.6054
39.7539 95.4262 142.155
77.7985 108.945 144.381
19.5169 73.2246 90.3969
81.0319 68.3505 131.045
26.2005 87.9922 122.885
17.9709 118.187 50.8211
61.4445 51.2575 36.5273
57.372 68.3222 138.656
90.8435 100.378 131.955
39.83 130.883 51.0878
78.95 140.791 94.4971
91.62 106.163 65.681
84.2189 69.1489 36.0043
66.7973 64.6216 139.012
57.7361 46.5754 42.1588
69.71 90.7811 25.8417
23.5863 92.8219 31.0369
39.2841 106.399 26.8933
100.549 55.5238 75.7574
83.5716 42.6445 110.968
64.616 33.9597 73.7767
101.46 88.6004 95.4047
44.1454 91.8993 17.3137
97.9816 67.2157 57.2193
20.3637 105.778 114.563
76.1342 33.9931 90.7413
71.0711 127 140.098
91.6734 110.741 128.314
80.5829 62.0875 128.788
100.468 102.326 83.7531
100.908 85.8913 72.4978
96.1496 103.292 115.048
26.7287 56.7005 52.6306
39.2433 69.505 129.293
57.9082 81.9781 20.7379
96.1765 45.312 81.5822
97.049 46.7373 75.129
28.2246 109.587 133.951
50.1738 81.029 18.5335
100.352 60.0336 69.3724
75.7981 39.32 104.534
42.8156 142.836 51.9726
23.7362 135.211 63.7572
50.4942 60.4294 132.516
69.4257 138.575 129.246
63.1152 148.972 102.002
83.9887 128.106 125.361
30.4271 129.797 126.835
93.691 113.783 120.229
41.7651 56.4087 113.963
27.4577 65.2267 48.6832
67.9137 134.954 138.006
89.6866 42.1804 93.466
37.0512 78.9072 21.1457
46.7472 119.277 25.2754
86.1317 105.173 54.4022
44.3871 108.023 146.37
40.9274 117.889 26.4976
37.777 118.022 142.462
91.5717 79.9196 126.759
18.1219 71.153 79.7027
83.4259 76.8689 133.776
92.768 52.6751 56.3072
101.177 95.0006 99.3952
52.0556 40.2393 83.139
40.8422 132.756 36.4394
65.2637 145.939 115.273
99.3755 97.793 75.5394
73.2524 34.299 73.1754
73.6046 143.517 92.7473
82.5223 136.352 87.8853
81.3552 46.0518 52.2177
77.8638 127.396 56.7772
22.0924 100.045 117.364
80.3227 38.6146 95.1639
70.9438 80.3521 143.018
56.5764 35.356 77.7995
93.8016 87.5573 124.786
50.514 118.295 149.038
59.4799 131.816 42.4737
28.0141 104.054 129.41
82.9895 103.586 46.35
56.849 39.3027 90.8608
71.6537 143.944 107.139
57.2361 135.68 140.374
29.2465 92.0578 24.0997
68.2881 52.309 34.9734
53.595 83.0813 144.061
25.1599 125.166 40.5582
82.617 89.8563 38.9702
65.3679 39.8371 55.3994
76.0607 78.982 29.4084
58.1527 113.71 25.3712
59.8472 94.8261 20.381
84.5215 104.292 140.661
39.6071 125.684 140.351
79.4537 37.5055 65.02
34.7874 97.4562 137.485
85.6128 127.376 75.6722
42.1334 89.8575 143.891
94.6685 58.6457 52.6021
77.8041 129.993 127.143
67.2653 142.392 73.3711
50.1807 114.825 21.7725
20.7146 68.8101 74.7728
54.8966 98.0538 150.928
49.9512 139.516 133.424
72.8921 66.4848 26.7885
58.7284 92.2168 149.356
39.0204 151.003 78.1509
62.5377 117.327 31.1985
49.5795 109.672 24.6284
64.202 90.7804 147.39
44.2361 146.193 59.6374
67.6387 102.109 28.1909
102.572 54.8709 83.4629
85.253 38.8129 92.1062
51.0691 109.563 150.377
47.8984 42.5087 54.4336
51.9938 103.234 19.7473
46.0314 41.3092 80.1075
96.5442 72.9796 57.533
91.1501 43.4712 68.7863
88.3388 119.193 71.3728
95.7179 112.239 81.1681
20.9893 110.929 56.4062
88.1566 111.41 134.9
82.2961 123.526 132.373
48.2239 70.2681 21.7436
57.6458 106.835 24.3991
87.026 119.352 127.682
48.8255 130.803 143.432
25.092 76.4794 34.5923
64.8932 106.379 150.136
99.1149 46.6608 89.4655
57.0163 76.4983 142.425
73.7695 87.7995 146.921
53.1265 95.1611 18.2105
33.8773 145.351 91.6303
48.5078 150.741 72.2085
57.2377 131.178 36.1584
98.1625 95.3168 114.943
16.8993 128.344 100.356
71.9214 111.359 147.542
101.962 89.1641 104.864
69.4803 32.804 81.601
19.142 93.9427 48.3709
70.5481 83.0935 27.2047
50.384 42.8934 95.8084
86.3762 130.186 82.0911
67.6024 86.6296 146.171
59.0548 54.7895 130.74
103.817 75.3556 91.4543
65.1048 121.358 37.2535
73.1348 37.7697 60.8851
51.9289 133.252 41.2716
58.6974 147.065 69.3948
23.0137 78.8234 95.7778
96.038 63.3942 108.634
84.5248 90.1915 137.405
95.0955 92.3091 121.024
64.2277 73.0726 21.8975
65.3335 41.4967 109.359
15.9954 109.075 51.8687
95.6033 105.125 74.17
57.736 137.929 49.6145
70.5599 117.761 144.55
19.7655 67.5948 58.0451
43.0425 115.136 147.16
57.8754 42.6834 102.002
24.1148 125.546 117.049
90.3445 125.184 111.996
86.6717 87.4873 44.8338
45.2413 39.6016 67.7868
54.4899 120.123 25.3917
29.2476 65.6494 110.367
27.3059 71.9543 102.769
41.432 43.1405 72.9079
43.7714 81.7221 139.407
29.7132 73.6052 29.9708
29.8816 120.45 129.608
73.0927 44.99 49.3796
52.7277 153.607 100.83
60.6306 151.8 81.5463
42.5936 47.3744 101.409
77.3441 78.2788 138.185
22.7702 127.969 46.1175
65.1184 46.567 43.8252
100.714 97.4847 105.632
84.4262 115.016 62.9256
99.3053 77.9809 93.3163
53.1492 104.007 150.237
57.2387 69.7027 21.2132
98.4387 104.695 106.833
22.7707 85.5674 102.526
18.4161 76.1189 58.5062
68.7514 71.398 141.011
85.9101 69.0011 129.281
90.6039 91.0001 51.1957
87.5675 65.0342 124.45
65.482 149.49 86.1497
60.8679 38.3658 96.4934
34.1677 149.661 79.9969
19.5816 116.777 114.32
78.154 41.5316 114.504
78.6546 128.508 64.0253
101.344 77.6737 70.8691
46.2157 103.616 22.9321
84.2177 84.0268 133.514
101.304 89.6997 111.632
45.4666 60.4909 127.514
25.3861 112.1 126.043
104.05 94.4757 93.0077
83.4747 117.067 136.17
17.0001 86.0527 102.452
91.4937 63.355 117.433
14.1981 91.2347 90.5364
40.3293 153.928 87.8339
89.1493 38.9943 73.6878
61.7702 138.588 53.6443
46.5849 155.034 88.4851
26.308 95.143 121.471
62.0913 116.808 149.962
88.5343 50.3979 48.9804
21.4059 71.457 52.3977
29.0788 146.724 69.4358
84.704 53.5783 123.474
46.2665 134.809 138.099
42.6616 51.226 38.0679
73.1971 127.498 51.3547
43.1668 135.782 131.013
101.524 101.053 91.3002
66.3407 38.9408 101.087
65.3811 128.783 142.436
19.2506 85.3364 86.0743
16.5059 79.9075 79.5543
48.9156 154.462 81.7571
95.71 68.4773 112.468
56.7083 34.7267 85.7034
51.772 155.09 91.6195
32.8882 78.8044 128.358
24.3327 84.6706 29.4658
32.7174 122.893 32.7382
45.3299 66.8705 133.286
35.5115 81.6314 134.229
22.2277 63.7248 70.0451
32.8668 88.0964 132.971
82.1661 121.347 59.5567
45.992 123.551 146.708
51.2749 69.0269 138.215
38.5232 149.904 67.9843
82.7377 93.7475 144.283
99.6574 68.4938 98.8115
92.8576 69.2951 119.465
24.7159 104.827 122.781
63.22 141.983 127.182
72.7279 74.058 25.7413
88.3231 52.7761 43.3795
62.7183 100.192 151.485
58.7081 48.1569 118.603
69.9713 35.4109 66.5197
26.1865 114.31 31.3803
99.7515 75.1751 79.4917
67.7122 135.463 56.2768
92.6411 121.312 91.5779
97.3555 75.6872 112.261
39.672 145.734 118.617
79.3831 86.0772 144.144
68.76 113.94 32.2345
14.6286 105.08 59.7103
78.017 69.8378 135.168
44.6801 99.1405 18.0484
40.2774 56.8318 31.4733
92.6901 79.1489 56.5739
93.1432 60.8109 46.3813
83.7053 110.168 50.2571
38.6712 103.362 144.979
97.9493 79.357 59.7169
35.2128 54.5127 104.354
32.508 138.856 119.789
71.0616 107.042 32.0062
95.3271 73.9597 47.8338
56.5273 142.336 56.3895
51.4467 54.9712 125.858
60.5839 152.079 97.0631
84.8191 36.2885 85.9002
71.4076 41.7709 113.579
25.383 61.0036 65.416
80.3152 113.163 140.138
20.0923 64.655 83.7016
16.201 103.158 103.354
95.2524 48.1401 93.4778
18.176 127.97 50.3286
17.6544 120.352 109.598
56.4811 58.7853 133.999
94.0442 91.9129 59.0111
31.3721 61.847 34.503
20.2173 134.714 104.656
50.9277 90.5963 148.878
28.2136 73.0601 114.956
21.2047 85.6102 35.3638
62.9218 69.8137 140.867
35.3359 50.4501 70.7119
34.7639 145.656 112.453
73.539 40.6002 109.031
18.5981 98.4662 95.7901
88.6285 94.5552 129.738
50.9595 37.7167 70.1518
95.4267 70.5234 103.593
40.9945 64.236 123.955
34.5732 53.5282 38.39
35.5472 144.62 63.9009
23.2124 72.2968 41.3129
13.2932 97.7115 83.9728
89.996 127.099 93.846
97.3988 81.6705 78.1395
44.5315 73.2001 137.108
38.7064 46.3954 46.0071
19.0726 98.9067 109.741
68.3419 44.8348 116.202
29.8989 55.8846 45.2322
93.8908 99.183 59.8379
98.6144 104.267 95.7462
65.813 53.7903 131.921
77.2447 101.359 36.9908
89.9215 55.6815 118.339
21.0709 131.432 111.685
46.4543 153.477 104.428
76.8336 60.2953 31.048
13.5523 82.4279 73.0804
87.2834 76.5265 130.014
73.5488 34.4277 85.4642
29.2402 50.3113 82.447
54.168 38.798 58.7904
94.8829 64.7521 92.5604
43.3568 81.8111 18.629
30.368 130.681 38.8255
46.5153 145.297 122.912
53.3695 58.15 27.3851
49.0879 43.9171 45.7148
43.7022 152.046 79.9889
64.5127 131.414 50.0418
55.2982 141.954 127.949
59.498 139.036 135.049
72.1496 46.2852 121.863
27.0788 60.8702 40.4562
15.5127 104.877 88.4112
37.8356 149.795 107.403
37.3828 61.2011 117.371
72.4733 137.21 76.5342
14.2487 1.83446 88.9749
18.0249 125.915 106.454
51.86 149.114 113.397
69.7928 146.168 81.9654
25.523 62.0707 56.8482
47.7734 53.3714 117.128
51.8194 149.65 65.5385
29.1541 52.9576 59.1479
28.5877 143.457 106.115
52.988 63.561 23.9302
36.6143 93.5188 19.3057
27.8558 80.6089 117.583
70.8247 60.5211 137.138
36.0503 71.5721 25.6837
19.2155 116.804 43.7943
62.6104 142.744 63.8963
92.7952 44.7361 87.3492
45.6633 57.6495 121.239
12.1245 89.8642 73.5892
24.5858 139.951 81.1863
94.7097 110.47 72.1071
62.7972 32.9318 81.5986
29.0587 55.1591 72.3794
96.4168 80.6432 120.449
27.2836 129.013 54.7848
55.6038 41.3258 51.8631
21.0494 102.381 35.2794
26.5594 137.672 115.709
91.232 120.199 78.0215
20.0196 112.626 80.3697
99.4953 81.2112 99.2346
33.4783 119.256 136.576
33.9796 63.8579 108.356
67.5445 136.991 61.6744
51.8947 138.993 45.4387
80.628 133.558 120.136
32.2562 67.9147 119.213
42.9211 70.1508 24.4684
49.7905 144.102 53.7214
62.9813 33.8733 87.9774
64.2148 45.795 118.075
51.1698 126.107 28.5062
30.0565 126.615 46.2501
91.5378 39.7802 80.2961
65.1941 48.8902 123.374
73.4201 133.312 130.995
16.124 111.593 70.7348
39.9707 56.9028 107.654
35.1779 45.748 75.8645
63.0165 37.4359 60.9049
101.687 66.6811 85.7445
15.5268 88.9775 59.9198
28.7758 137.338 54.1645
27.2357 102.811 28.8381
59.8272 132.032 144.023
81.0808 97.5434 40.332
97.3174 63.3824 89.2073
97.3941 75.9307 102.76
76.4808 39.5258 97.8348
44.7513 148.837 67.5857
15.7545 97.2132 71.595
78.4549 34.1897 78.2655
92.371 52.8864 105.781
55.6826 50.8732 34.0765
17.6525 87.501 51.3056
98.4665 72.692 88.6095
31.2922 135.384 46.7037
54.0157 144.19 124.039
19.8764 119.295 70.0134
27.7611 111.118 39.017
86.0886 59.507 122.969
16.7264 91.8986 77.5171
79.5445 44.7605 118.448
71.4943 47.0166 43.1403
25.3427 116.159 121.206
54.4327 51.3986 121.032
13.8104 82.7355 58.152
18.6415 86.9492 40.4304
17.0166 74.5117 66.7504
26.5868 56.5742 77.5494
50.7834 45.4762 105.5
29.9519 148.352 83.9038
20.5063 96.1637 102.84
93.7666 86.6352 58.1204
50.7722 136.756 52.4166
66.6144 122.634 145.537
78.7077 81.0895 33.7654
59.1814 45.2061 112.198
24.986 142.682 87.5456
38.5123 44.3646 53.5791
51.2073 49.5394 114.3
95.3608 59.7805 104.435
74.2073 70.865 138.633
62.268 99.0373 24.46
30.3728 103.718 136.577
92.5042 98.0942 122.294
16.3539 119.323 98.4287
89.548 86.0391 52.5942
36.6248 62.3104 31.0727
37.4444 46.875 60.9566
69.9028 99.1482 144.631
67.2018 62.7704 25.988
25.5295 74.5951 109.395
30.0542 84.4239 23.8151
40.2739 151.884 101.191
28.9657 140.073 58.6998
47.4982 54.6258 31.2804
19.2474 93.9732 110.511
15.0756 111.737 63.8583
14.1534 81.6234 87.0516
33.0255 147.285 101.854
54.4906 45.1073 110.199
83.7288 60.0655 40.5963
51.4625 46.9373 38.3969
16.629 122.218 56.39
56.4014 38.3058 65.4227
17.4515 116.213 60.5756
35.1534 99.0876 23.0669
20.5111 135.775 72.6881
85.742 46.3867 57.6336
39.4345 45.5435 82.7212
62.5432 51.7917 126.807
28.5927 147.377 88.9215
57.4305 127.572 147.181
30.2367 50.9255 52.3336
14.5399 107.51 79.0978
19.901 69.4946 65.1549
15.5454 122.819 78.6834
36.724 136.996 125.94
36.298 115.292 29.545
12.9143 119.895 64.3273
15.7389 101.193 53.0112
15.0688 116.205 102.662
16.0088 108.939 97.4172
67.657 42.8137 50.8298
25.0729 138.444 101.18
92.5547 54.1606 99.4646
29.5896 140.983 64.9999
16.1466 123.972 84.0823
45.5688 62.2604 24.473
30.7449 86.4362 125.813
42.373 44.4455 88.7525
26.2657 105.782 33.3512
20.5008 127.196 62.5933
28.3605 146.753 77.1961
46.8808 50.1116 105.219
21.1759 97.9062 40.2371
17.4956 120.379 74.86
32.7233 149.411 73.3132
17.2336 77.1606 99.5062
20.4518 97.5341 78.1128
13.8356 79.1882 67.9536
50.2563 154.532 75.3682
83.406 36.1725 80.7112
99.7461 82.7312 104.592
94.7239 63.1813 98.5356
67.1381 137.967 69.0119
15.3763 95.0005 53.1963
17.7076 99.2887 68.4237
94.3349 53.5102 95.3615
20.6415 109.852 37.4883
22.1979 116.359 37.3428
57.8236 35.2721 69.7225
24.7741 142.916 93.1952
14.8944 112.163 83.2545
55.1869 143.414 62.5817
22.5606 133.604 55.8842
33.7106 104.333 24.2023
27.7125 127.91 121.909
18.2207 130.365 82.6227
38.44 44.7652 66.3045
12.7802 91.2873 63.5595
36.5739 86.1926 19.4068
26.7825 141.254 74.656
25.9405 140.196 109.797
14.5016 101.406 63.0859
38.2475 48.0479 94.871
25.202 67.3832 38.9406
16.4868 116.574 89.3865
18.111 129.285 55.0906
26.3763 145.902 97.8066
36.8582 45.7526 100.713
20.2241 134.197 98.7681
32.6332 120.247 41.2277
25.28 140.226 70.2242
18.9645 82.5389 49.6941
15.9988 129.068 94.1354
22.0173 134.422 86.017
17.6085 129.424 68.4176
13.8685 106.834 91.808
21.1006 132.392 91.2064
38.288 148.476 87.1502
21.9937 77.8047 42.4777
19.5521 127.544 77.8876
18.174 101.139 46.1136
18.2844 138.416 93.2555
20.0675 77.8281 48.2612
30.9591 110.72 29.5534
15.8435 115.949 94.1979
38.6675 131.138 41.5626
18.678 101.958 78.6943
41.3423 36.744 86.6596
16.3208 113.274 75.5123
20.0826 135.281 79.2103
32.1663 150.684 96.0821
50.139 145.947 60.3232
