ply
format ascii 1.0
comment Created by Open3D
element vertex 95
property double x
property double y
property double z
end_header
80.0221 57.3057 38.1617
80.51 60.9187 62.0257
23.5578 35.0929 59.2488
78.4068 46.4417 35.3583
17.1103 60.1138 57.127
79.4821 40.955 58.8289
25.9802 33.6471 67.6446
31.3644 26.6707 62.3106
16.9561 50.1981 51.2382
75.3646 31.0068 65.5096
77.7096 68.2021 39.5681
28.5183 35.7254 77.6853
78.0584 46.2758 73.188
76.5955 31.0926 53.2881
72.0571 77.2246 62.4107
79.2088 47.1152 65.4571
24.6947 39.7348 40.8559
63.8001 49.3437 90.7659
45.1248 59.8176 90.5456
19.4667 55.1039 66.2089
76.3298 73.1155 50.5598
79.8023 61.1692 53.8013
19.6682 47.225 42.194
25.0582 57.9013 77.3973
74.7364 59.6509 77.1883
19.1022 40.7826 54.7163
66.6341 30.1012 79.6589
64.3626 31.0698 35.0607
28.8765 32.3151 44.7658
24.1615 44.5287 77.964
25.036 72.4015 54.7056
65.5674 24.1559 47.7582
43.0247 23.2069 46.6302
71.4991 55.8488 83.7464
46.9665 22.3918 74.7399
21.5255 50.2558 70.7658
67.47 23.1393 63.0864
66.5653 74.7539 36.6283
59.4169 20.6606 56.484
33.8494 44.9262 88.9299
33.5567 25.9712 49.8955
23.5485 67.5781 67.4597
59.0004 37.7132 89.287
57.8865 49.9557 23.1019
35.6345 29.8565 78.0017
63.8968 50.1945 24.6622
62.7345 63.0219 88.2944
59.7036 36.9195 28.9159
52.8903 38.0486 26.4511
54.3676 43.9806 93.6142
40.9175 55.8933 23.3253
54.9416 29.372 34.3992
47.1241 30.4525 86.0308
30.8089 54.7894 84.8135
49.1613 52.4583 94.2588
22.2582 63.6571 39.8496
28.2562 45.3348 30.5199
47.0453 66.7044 86.8446
43.145 41.7203 91.8613
43.2984 77.8339 77.9943
44.547 20.0537 58.6715
75.4873 34.2836 39.1736
70.7445 42.4174 83.6472
53.8914 59.1707 23.0353
49.3463 76.989 37.2464
54.274 72.4312 30.726
46.7007 68.9893 26.8201
61.6167 84.5852 57.6114
70.2499 49.8866 26.9548
43.9624 26.5132 80.2805
72.9727 80.314 69.3783
55.9262 22.4763 76.4254
29.0274 46.3164 83.1346
40.8268 51.7265 92.886
42.3051 21.7603 67.9036
38.6929 36.6044 29.5051
55.2326 84.2334 47.1216
64.5666 83.6944 74.1404
70.1929 65.6548 29.3109
53.382 19.1285 61.299
43.7271 73.9595 32.5624
42.8787 72.3239 80.3766
33.4558 79.3914 51.3342
23.6169 44.7404 62.0677
46.8503 86.1258 59.6113
52.2727 24.5154 40.5109
32.9723 79.131 69.0293
67.786 76.1251 73.7917
39.4827 29.471 34.4859
38.0378 77.8119 41.4292
34.1737 69.829 32.1932
40.5931 66.0717 26.3771
67.0961 34.0996 96.843
59.2138 81.86 70.2754
16.7243 33.0788 63.0851
