ply
format ascii 1.0
comment Created by Open3D
element vertex 382
property double x
property double y
property double z
end_header
26.7062 163.047 46.8612
81.6996 184.483 71.4007
81.9831 192.248 67.1484
55.947 138.836 69.4273
65.6013 138.477 55.5342
83.0145 57.3064 177.718
51.1815 148.904 87.4204
78.4041 169.716 35.5446
82.8662 162.188 51.2577
50.0992 183.425 29.9384
78.891 152.149 55.215
83.5903 51.5397 185.052
57.1205 57.3137 218.246
50.2684 28.4082 205.227
57.7189 184.427 30.39
68.3165 79.5027 182.132
71.6434 151.822 25.618
51.888 190.313 92.7368
78.0638 187.83 50.0009
23.0291 170.079 55.8478
71.5826 27.5247 184.09
79.1119 195.935 61.2023
75.6232 78.0346 182.313
78.1172 35.7186 185.703
66.8934 205.095 72.8313
81.9329 157.084 40.6811
73.4834 182.761 84.1349
62.6491 143.123 69.4031
48.8884 203.814 77.2586
53.1459 63.5068 217.695
34.819 154.806 94.4999
84.3451 46.9655 177.777
63.7938 161.571 83.0601
64.4413 168.284 24.9779
80.0596 174.403 70.6612
55.1582 66.9663 209.876
78.5593 67.0511 193.418
65.1861 201.023 80.703
44.6735 178.86 98.5487
57.4713 55.9032 161.416
57.3566 73.9421 175.686
81.8242 65.5764 177.004
74.5739 67.8932 166.224
78.8468 51.4785 163.595
82.7083 180.57 57.1176
42.1781 198.213 61.734
80.3989 173.348 62.7758
71.1902 76.4619 174.745
33.7998 168.261 39.9399
65.0848 61.6152 206.376
67.3952 175.155 86.3824
58.3756 169.299 23.2948
58.276 198.594 53.6704
65.4682 200.233 56.0758
57.0536 196.806 88.8131
51.0399 170.959 24.5254
43.8225 61.6715 214.092
76.948 41.9374 194.062
60.4102 188.997 38.8587
66.8584 74.4073 197.931
64.8671 51.2185 159.675
42.7065 26.0801 202.031
79.7015 179.701 49.282
48.5634 66.9884 168.647
69.068 70.0778 166.573
81.5775 170.007 56.1911
50.3762 74.7008 173.872
43.3742 199.607 79.1769
77.5796 148.288 35.2334
60.0265 47.0022 214.118
50.4175 162.06 94.7136
76.2405 57.8794 165.537
44.5614 166.399 98.2283
80.9822 60.2769 169.826
73.1496 203.454 70.2208
43.7125 55.4857 216.558
27.8131 186.241 83.5248
57.8689 152.894 23.5471
58.9122 146.045 79.5407
71.7944 53.1461 201.04
53.2689 206.332 70.6446
60.2716 23.9492 180.957
47.9588 205.217 64.1599
25.5137 184.229 75.2321
73.0071 70.5059 197.052
78.9093 195.406 71.9887
60.0679 60.0955 211.773
52.3584 171.005 97.814
50.1847 56.1427 218.586
77.3572 45.2444 160.27
27.8891 179.308 59.6126
64.3067 167.267 86.8351
81.6957 163.217 44.3279
74.0769 196.816 78.4537
56.9462 136.124 39.0637
65.302 40.7259 207.188
83.3909 43.4967 171.296
30.6379 99.1788 167.142
71.7085 49.2458 158.636
50.1366 152.748 28.3599
62.0835 33.6126 165.018
40.8877 186.915 93.2194
30.7717 189.145 74.6301
65.5229 139.804 32.8619
59.3724 167.017 90.9826
67.4049 178.725 31.4216
78.7833 65.3684 168.533
59.7161 134.736 62.0311
32.1632 139.055 70.8259
51.7495 202.926 58.5179
19.9036 165.03 60.9637
78.9117 38.5082 163.952
73.2753 200.684 56.9506
83.5918 61.7148 184.43
73.6688 47.4929 200.025
76.3166 73.8127 173.288
31.1548 43.2614 198.676
80.0773 73.0445 177.094
60.4529 78.8502 181.53
55.3515 33.824 209.717
27.9303 145.874 86.6165
78.1603 187.836 76.596
81.5642 182.589 63.3763
58.26 175.831 95.1544
68.0662 56.197 207.043
74.0488 62.2513 202.839
52.3121 180.478 94.8317
33.0451 191.823 67.0897
54.5108 189.572 33.8018
49.2594 67.1829 210.335
65.1733 76.2102 174.783
59.7751 48.2356 160.166
75.0604 179.656 41.4888
54.8399 63.5925 165.137
54.4167 24.3647 198.924
83.052 52.3785 172.071
20.9781 133.432 119.135
40.8274 168.164 30.2242
83.1452 37.9219 169.236
29.3319 172.708 45.8663
41.8387 149.901 92.6583
59.3559 176.96 27.1577
65.0757 22.7877 184.378
77.6821 196.34 53.1178
76.582 149.773 49.2829
73.028 145.561 29.5654
65.7282 155.057 23.9063
55.1904 71.2858 203.4
80.8083 69.6471 186.829
57.0814 203.698 82.4504
64.8941 208.232 65.0543
50.745 142.385 33.5944
52.4854 78.5648 183.627
41.596 192.342 89.4391
83.216 58.3526 190.265
60.6441 203.644 58.7311
16.628 159.603 69.5336
80.4436 35.0061 177.272
75.1721 202.197 64.8099
34.0049 105.011 151.509
58.8913 38.2974 211.778
81.9579 157.482 33.6274
37.5375 176.438 97.6362
15.6253 164.194 75.0562
51.9405 132.596 64.0235
38.5589 61.839 206.86
36.6078 190.956 59.3992
82.4531 37.1488 205.495
25.1926 144.063 80.0497
32.8592 143.374 81.1814
47.8728 153.65 94.5294
66.2995 137.403 46.6196
24.1204 109.482 153.838
82.314 41.7236 181.876
44.6781 189.071 34.4276
76.2311 31.6973 172.908
16.0355 151.961 80.4519
75.5001 74.0674 190.993
8.46315 123.328 152.946
51.0188 37.2321 165.723
45.623 44.4914 166.047
25.6059 179.64 86.3345
27.1685 174.613 94.462
36.4667 166.335 33.6867
54.9982 157.736 90.1989
73.322 143.541 37.7534
49.1044 23.2368 194.573
37.9477 29.742 203.52
61.2919 185.59 92.0294
70.7803 33.3627 194.668
67.6303 26.0868 190.212
31.5715 158.419 40.6995
71.3013 62.6615 162.85
38.4576 66.2989 202.793
69.1032 46.1784 205.447
62.4153 61.7373 162.29
21.9175 176.862 81.8496
47.1091 136.658 71.5384
62.0093 190.708 48.2678
47.8433 50.9315 162.921
69.9942 57.7474 160.31
55.2745 22.9394 184.76
60.3196 29.8608 203.98
58.6329 41.1047 161.438
39.2515 53.2453 213.687
47.1465 48.3967 218.118
60.4251 22.7319 189.289
42.3793 135.018 51.7373
53.2881 24.5048 175.433
41.9447 72.5202 179.225
41.9922 156.797 96.6679
72.3266 161.568 27.5551
49.8444 22.5567 188.217
23.0579 147.608 70.3962
68.1815 183.656 36.867
39.531 141.012 46.9046
45.0164 71.3778 173.363
76.4317 164.959 70.1315
77.1264 40.9071 215.096
40.5779 144.071 83.8303
19.4835 172.958 67.9216
78.1031 52.4121 196.977
64.5744 65.8656 166.432
33.7731 190.039 81.3626
75.0401 36.0397 192.509
43.8354 158.205 34.8586
55.5656 191.345 48.1712
60.8393 26.2702 198.552
50.0562 198.779 84.5559
23.9313 130.421 143.275
43.6573 132.624 60.5237
42.2498 139.057 79.29
74.0391 141.306 50.8842
19.1984 171.003 83.9325
65.5006 71.7424 204.81
79.3514 158.46 55.9412
65.9801 193.65 86.4257
45.9748 169.893 26.3092
14.4916 155.763 75.0875
44.5522 72.2257 203.509
46.1511 137.057 41.8653
67.7 28.1386 194.754
52.7081 47.9465 160.703
39.654 67.7157 188.277
64.3745 136.878 38.564
19.8029 175.482 75.0118
35.9582 152.025 39.7958
55.547 34.1217 164.359
41.9281 63.5262 170.421
71.9791 39.301 160.741
38.4173 196.299 83.3542
29.3655 180.901 93.5374
29.7694 154.276 90.453
64.5018 50.7281 210.006
67.5946 28.7681 171.274
70.2385 195.802 50.4367
66.7745 32.5253 201.205
36.7932 165.875 98.6049
28.7774 130.641 122.976
35.2076 32.56 195.21
27.4562 144.315 63.8658
19.7304 172.733 60.9154
66.0196 38.3004 162.528
37.0923 182.6 37.3635
54.8394 43.0903 215.804
57.8552 69.3766 167.853
78.7106 175.672 96.0501
58.995 147.226 25.4968
54.9812 21.0256 192.086
49.7727 40.1759 214.346
42.2242 193.017 56.4159
37.3531 66.0984 180.253
21.7415 155.23 61.3761
68.7731 141.389 62.3972
48.9296 30.0646 169.28
32.2723 143.458 52.23
58.3673 152.595 83.6745
31.6866 37.9204 190.846
84.781 152.757 75.1215
29.6582 145.417 107.799
66.4813 146.904 25.7897
72.0888 167.91 79.1506
12.7952 117.755 158.395
21.8037 170.217 90.4394
31.3374 148.879 49.0586
57.4142 203.564 62.9871
34.1005 183.958 54.9557
30.5009 45.0114 190.771
57.8493 140.816 28.3715
37.4253 136.506 72.748
41.9287 187.007 51.331
56.8917 137.884 33.4927
69.8542 171.888 27.5361
55.2759 153.028 88.8471
35.1359 137.877 55.2032
78.6274 148.448 42.3554
23.4541 95.0481 159.876
31.4252 55.7132 201.068
17.9989 165.985 81.1507
41.2434 174.982 28.9883
31.3589 187.664 90.3065
42.7707 31.9276 177.275
60.6288 25.7815 173.241
68.2862 66.7875 206.005
33.4524 47.6335 208.345
65.2353 182.572 88.5962
43.2386 69.2306 208.095
69.3248 26.9332 177.461
55.2004 134.683 55.9484
80.6262 48.0664 191.318
33.7619 180.369 47.2039
58.1204 162.208 91.0633
36.4665 57.8984 209.84
53.53 135.116 43.1684
33.3669 40.1899 208.112
42.846 40.6262 170.42
37.553 197.936 71.4618
33.5312 90.4352 189.048
33.2761 62.8141 185.39
28.6794 152.852 45.6677
50.8946 131.694 54.6631
42.1881 54.0423 165.59
73.3332 32.3982 165.995
60.6056 160.958 23.4814
46.5297 193.653 52.7136
16.747 150.555 72.7414
58.8154 134.758 50.5241
19.7288 156.846 86.0964
61.8379 75.0639 170.591
30.6971 57.2656 195.143
32.5496 36.7375 200.275
15.3794 158.425 81.9614
36.4347 147.043 86.5312
60.2533 206.318 72.1208
43.2672 73.8082 188.632
47.1342 192.016 42.8472
65.7854 189.621 42.7536
34.5253 63.6355 197.209
56.575 49.372 218.354
30.5604 167.594 95.8875
43.0994 23.714 191.136
31.8227 52.106 204.894
43.3836 24.7905 184.288
20.5508 146.75 82.0016
44.7531 28.3174 173.008
51.7913 57.9728 162.009
36.4353 35.445 179.254
24.5588 162.315 91.8661
38.8436 42.2864 214.157
27.62 130.859 131.768
39.3697 67.0938 175.858
83.3671 170.93 87.7942
28.6014 49.4575 197.175
26.5848 151.239 50.9188
21.2311 150.702 85.1619
36.4117 35.229 207.08
25.2552 140.55 118.786
79.9563 58.5889 195.095
8.83307 121.168 158.674
46.8109 75.2608 181.821
36.9675 186.382 95.9502
36.0588 137.772 61.9291
51.7323 159.118 23.7348
35.0378 174.149 35.8713
21.4523 42.2322 195.614
41.4813 72.8775 198.405
29.3274 199.49 59.7974
44.3045 35.3169 168.352
47.1188 60.3303 164.223
37.2539 68.6013 193.038
40.3803 27.7815 193.656
43.3071 33.863 211.715
67.7516 184.696 96.5676
44.2146 155.529 29.5586
25.4057 182.192 64.9129
44.2771 140.397 36.7442
11.5632 181.233 90.7337
38.3685 27.7845 186.712
33.5724 186.257 48.6496
20.418 164.234 88.4244
25.4071 190.067 98.751
21.5224 115.415 163.663
