ply
format ascii 1.0
comment Created by Open3D
element vertex 273
property double x
property double y
property double z
end_header
18.8916 72.7148 90.8139
26.1687 93.5873 64.9118
103.092 109.767 55.8211
20.5834 60.0056 92.7246
33.7844 108.694 60.1698
25.0224 67.7277 59.0296
19.7479 84.4759 84.6721
20.69 61.958 77.3211
113.847 91.7527 68.9564
25.2202 51.4254 73.3385
25.0076 99.327 82.9656
114.819 73.6829 98.6939
21.4863 87.5052 75.66
30.6783 103.368 67.6245
20.6134 70.403 77.5852
35.7521 78.8583 36.0708
115.345 64.589 77.5331
116.414 73.5771 83.4039
111.161 82.7713 104.029
26.5707 45.9858 97.9713
112.905 57.8035 90.8884
115.669 65.1146 104.475
93.5249 90.3084 127.88
27.9292 65.5035 49.7303
112.942 96.1215 81.9622
29.8091 72.3806 44.7468
27.5108 54.1679 56.6264
28.0526 47.2699 109.545
92.607 112.566 44.0635
96.2047 116.068 54.1448
32.6159 78.152 124.163
26.4641 46.4316 85.1919
38.1 71.2366 32.3949
28.3223 71.4009 115.968
43.8165 121.419 86.2387
116.671 72.5164 70.4893
112.765 64.1593 55.1725
24.4131 60.2063 109.382
42.8337 102.281 40.0281
116.19 81.9055 90.2448
106.902 98.0422 108.3
37.8035 107.319 47.8229
97.7958 52.8739 119.962
25.3207 74.2564 54.498
115.073 80.3254 63.6063
21.372 82.261 94.5919
21.537 79.4749 104.743
48.8224 92.5036 26.5809
111.821 96.5076 95.4221
107.515 52.6557 55.7267
57.4755 74.9774 20.8424
31.2724 109.279 92.1621
36.0058 41.735 58.5541
33.1866 102.456 112.687
107.085 44.3085 92.8062
20.9362 67.9919 101.741
27.0774 100.016 105.003
109.588 96.6522 52.9465
85.1984 30.823 53.9918
31.751 95.0742 47.5722
21.184 73.4088 67.1394
107.785 49.7007 103.311
24.66 99.4884 94.1513
33.091 48.9985 48.7003
100.782 61.3262 122.091
113.093 84.9964 54.655
40.3491 117.017 65.4976
29.9698 100.444 53.2245
26.1291 100.454 74.6567
98.1388 36.7958 97.394
54.6871 21.1771 87.5721
92.1337 41.8662 114.777
43.7731 114.76 49.1949
100.383 39.774 84.8054
112.126 73.138 52.5501
33.8517 37.1843 80.7318
34.7725 110.415 107.695
40.9723 32.5087 102.49
46.6333 30.5011 61.1622
77.4553 98.1989 133.551
99.4395 35.9888 74.0171
112.307 78.0007 109.779
72.6911 21.5871 96.7469
39.8291 118.169 77.5761
113.998 57.0192 100.385
35.2877 63.6517 42.1127
39.8932 31.2817 92.5574
41.9159 48.9162 42.7825
45.3984 124.206 76.2685
37.3198 46.9607 120.092
107.36 91.1512 113.555
27.7702 50.6841 65.1124
84.5634 115.968 42.709
35.4639 96.7918 121.199
87.7376 120.104 53.0003
37.1244 65.0965 128.107
39.2555 117.751 92.1682
84.0806 125.825 68.0751
32.4774 87.9937 43.1295
31.1966 40.0387 94.2227
98.896 117.907 77.6166
104.341 111.332 92.0602
108.202 106.717 80.0261
68.7998 100.337 23.7622
97.5061 118.546 67.7909
34.8279 113.658 98.6642
63.7851 21.2923 66.63
27.909 83.8918 51.9718
35.2251 54.6751 42.8187
104.621 61.8745 44.748
46.1556 58.1724 29.5656
56.2826 97.148 23.6479
84.4588 91.9299 132.801
111.494 55.0582 65.0695
36.3231 39.9836 110.819
99.7761 70.1623 123.568
77.6226 126.884 62.0695
63.5118 81.1053 18.977
58.1144 112.337 35.6601
43.7051 82.0014 133.48
83.7462 24.9617 88.9114
75.644 122.887 49.8225
76.9775 28.7424 53.0861
103.027 77.8223 122.964
45.7411 72.4286 26.862
76.5326 68.9784 20.9889
69.8542 102.269 132.167
39.5185 59.0478 36.115
104.939 44.4617 73.6623
110.74 53.3481 74.6084
36.394 36.6282 67.8464
108.147 79.3728 47.2849
44.5991 33.7095 113.148
91.972 32.9097 60.1846
65.1694 27.6872 55.552
79.5164 73.0372 137.89
94.899 82.06 127.114
43.4596 91.4126 131.426
42.8841 112.715 113.788
51.4374 64.1476 26.0366
87.0774 75.8177 25.0794
81.513 26.1958 58.958
89.5426 29.898 94.5651
39.3832 94.4951 35.5874
88.1799 100.123 31.0232
56.0136 55.2491 27.1509
66.5424 73.1262 18.6725
65.7639 18.5546 89.6981
109.394 50.0713 84.5119
85.1168 59.8832 27.4733
52.6332 95.6223 131.517
91.7612 31.6857 85.2036
88.3371 37.4513 45.6937
96.7542 52.4621 38.8585
26.585 79.6351 115.762
106.585 104.714 99.7362
104.398 79.9911 39.5795
87.1424 31.6131 104.886
76.8239 129.179 77.1117
53.4877 104.056 30.6692
30.8562 61.1594 118.762
80.9612 26.009 101.001
100.521 101.227 114.207
42.8727 71.2424 132.794
84.5001 111.457 120.947
52.2297 58.0247 134.229
113.961 65.69 111.614
75.4455 49.0447 28.6063
46.8087 109.167 37.9618
62.3976 106.087 27.7005
92.3925 110.598 116.551
54.3157 30.8695 53.213
82.5741 26.7604 70.0731
76.423 113.549 122.41
88.3041 75.3143 132.318
103.393 43.467 65.5807
42.4019 57.9717 130.461
86.1521 102.172 125.679
75.0753 79.3927 20.0851
97.7021 117.072 97.346
93.6242 104.556 37.9694
61.7287 92.7176 20.7167
49.8058 24.9073 69.2607
93.2685 59.0163 33.9688
72.0046 20.137 79.9212
76.8828 22.5765 72.4105
50.4494 27.6951 106.317
66.2578 129.41 70.992
97.7999 94.7828 35.1193
87.6969 89.7166 25.4332
64.561 80.174 139.94
77.0805 64.6376 137.245
79.1922 107.325 127.491
103.433 87.5597 118.311
78.1182 90.2053 22.6333
48.6358 125.67 93.5031
72.1574 49.393 132.324
98.5234 110.262 107.975
56.0708 126.371 95.1947
67.9893 87.4211 19.4357
62.762 93.8279 136.223
66.6571 41.2638 32.9015
43.3619 39.8095 48.2947
90.6675 59.256 128.452
64.2207 127.998 60.6278
109.952 63.7726 115.592
88.9932 117.848 108.446
95.8429 78.7474 29.6434
80.3466 101.016 26.7089
94.8244 99.8534 123.934
54.9097 47.4072 31.5795
64.3919 122.229 49.2513
72.1065 23.2048 61.8463
90.255 46.6577 37.2524
66.3377 114.921 123.037
48.4851 41.7003 40.7872
70.446 90.1187 138.532
50.2368 80.7581 26.8802
53.3137 82.9151 137.034
27.3303 87.9716 110.765
74.8835 124.769 107.449
46.3791 118.541 107.295
102.385 49.0444 112.741
44.5358 27.0248 79.2267
79.6129 41.9564 34.4668
69.0465 31.7436 118.48
52.0156 84.517 23.0565
86.6934 127.085 82.7662
90.3743 29.9678 74.6158
52.2722 127.823 75.1476
65.0511 42.0823 129.094
75.1034 110.085 32.7807
53.6004 123.507 53.9933
45.2354 35.6019 53.1946
74.0722 80.6844 141.313
56.6274 67.4054 136.877
76.1996 120.005 114.827
82.4647 125.235 98.7194
63.0722 69.7036 139.399
107.077 88.2323 42.2531
57.4003 38.5607 36.8714
79.6249 61.968 24.2634
69.1499 130.426 87.1241
75.323 28.7128 112.525
27.2367 90.6824 115.068
110.227 53.7144 97.0434
74.536 31.9253 45.8659
62.155 35.225 123.032
61.2943 18.5183 75.831
66.1161 28.7914 49.4468
60.8835 122.57 113.324
58.7672 33.5194 44.8286
65.6004 49.0637 27.9575
52.6927 113.802 120.231
98.6115 38.8345 61.3834
74.3422 35.4826 39.1451
60.465 106.6 130.185
67.9124 64.0762 21.0331
100.997 42.3544 56.0745
96.7106 45.4457 46.8284
104.284 95.1903 46.9115
56.5864 118.997 44.1419
56.8013 29.5619 115.975
43.8296 101.836 125.31
64.8783 53.2463 135.024
63.2655 127.986 102.413
82.2709 52.9941 129.264
58.8461 22.9153 100.408
69.6519 115.942 37.6653
75.2143 40.6979 125.581
62.0006 64.996 21.4905
54.1008 46.942 131.144
46.0716 42.4577 125.497
