ply
format ascii 1.0
comment Created by Open3D
element vertex 830
property double x
property double y
property double z
end_header
118.884 201.506 143.341
54.9293 237.732 114.705
134.631 227.847 118.044
109.887 49.6862 29.9935
118.514 91.4921 33.3847
129.649 203.406 120.778
134.174 78.2455 44.2066
133.816 223.706 108.389
61.5019 191.797 127.872
79.3352 253.054 151.152
122.603 78.2351 31.0294
131.512 234.422 132.857
55.6753 241.189 139.191
109.065 182.509 124.327
128.669 249.024 121.509
63.2005 219.519 154.295
55.1962 226.039 145.254
122.386 199.245 134.409
61.099 200.16 113.91
98.0113 129.669 57.0652
129.517 93.0942 45.1694
87.7039 49.7769 29.7298
126.365 225.492 142.787
130.74 209.271 129.692
129.519 106.126 72.5192
93.3219 57.8774 28.2401
69.6815 256.062 139.994
125.324 195.771 124.783
130.425 242.793 113.503
127.964 215.01 137.024
48.4818 218.212 122.057
121.569 43.5098 60.9132
62.3072 251.21 126.181
128.273 81.8316 77.736
49.5583 229.512 124.813
132.7 238.584 121.76
126.167 90.2959 39.159
123.699 118.218 63.6507
116.92 104.558 89.5564
106.576 76.3873 25.7731
49.088 216.736 130.694
126.869 47.3797 62.9869
89.3405 53.019 104.633
129.182 248.215 130.352
102.048 51.4273 88.0606
99.0222 267.418 130.137
125.896 46.5776 53.7341
116.432 264.782 129.464
56.7289 234.686 145.887
126.517 59.3821 33.11
118.212 123.01 67.8497
80.3256 260.73 146.355
73.4755 185.46 141.915
124.278 254.754 112.269
135.216 215.866 120.217
95.2075 182.084 138.021
104.578 30.5749 54.6768
81.6231 116.909 46.3064
133.559 72.6894 37.3095
131.335 93.0727 53.6468
52.236 241.114 130.989
89.5297 23.2761 67.1999
128.342 88.0437 72.4962
116.31 114.18 89.2398
82.6491 21.5576 52.0344
109.887 58.4226 28.3167
102.953 190.984 146.091
65.1979 255.267 131.844
106.165 99.3302 31.9722
70.4084 180.304 126.781
57.1411 208.571 108.824
76.8739 179.585 123.234
107.457 262.572 106.633
127.992 100.992 78.5127
77.7342 26.1801 44.2202
114.591 112.548 44.2789
71.9116 59.5636 108.054
108.195 111.267 42.4573
112.448 266.298 119.945
133.197 58.6536 61.6794
101.284 95.811 34.2918
70.3573 108.491 109.559
53.3258 225.703 112.758
119.632 58.6947 31.198
102.786 135.469 72.3566
112.217 94.7141 31.1335
110.746 117.247 47.2634
124.361 100.981 45.7302
104.26 56.924 90.0936
108.298 105.331 36.6392
90.7486 267.449 136.453
85.9236 95.608 112.145
62.8583 249.324 140.986
85.3973 181.373 109.833
126.265 110.406 78.2358
82.8264 107.571 44.3572
95.9341 136.403 85.0386
121.44 46.2913 67.9499
116.79 256.982 108.282
81.3376 33.4322 88.2793
92.1704 130.813 58.3307
58.2246 198.903 134.65
122.346 212.9 144.923
116.739 36.7406 46.3667
116.459 189.597 133.105
135.715 77.2399 51.8795
103.127 87.9523 105.883
128.793 223.891 99.5522
109.736 35.4468 41.2653
67.9448 32.9266 41.9687
131.757 214.303 107.37
57.4098 245.775 131.933
72.9975 30.8724 40.4509
105.2 201.58 152.609
110.778 33.3154 48.277
113.651 126.262 70.9592
69.3418 102.919 112.477
132.081 83.6704 41.13
102.965 259.622 149.073
84.218 96.0644 36.3726
62.0164 24.0914 77.3804
126.075 83.3535 35.4431
90.5636 92.6234 34.8805
133.697 73.0691 56.5024
83.3293 46.5272 94.0665
81.3872 87.9883 42.2169
111.933 110.314 96.1141
128.166 106.377 60.8993
128.485 233.761 101.905
60.9469 242.391 110.621
51.6674 55.4219 107.26
64.6277 191.177 138.258
100.998 120.839 48.6766
132.686 84.5099 59.0734
87.2193 91.9026 118.415
105.258 31.9398 44.5393
132.77 228.845 129.198
112.214 40.4503 37.0888
102.073 74.4256 29.8318
78.3984 129.413 57.7511
34.041 100.526 88.7848
134.79 83.0332 51.7851
127.451 53.1219 66.4893
62.484 55.0682 37.2825
70.3407 88.2972 115.105
84.6111 177.082 129.391
53.7322 58.4878 42.1781
92.3047 263.578 143.609
120.748 101.214 38.297
74.0637 71.4684 122.871
89.1056 260.274 148.243
122.996 245.588 144.234
101.878 112.377 42.5814
120.012 86.3083 35.2668
36.7942 103.555 82.5905
63.1866 231.851 151.587
68.1096 249.844 110.478
100.073 28.8938 43.7276
70.4352 22.5457 77.0833
125.279 88.6815 83.9507
121.62 42.8539 47.8748
82.0225 135.02 63.2781
67.7019 24.6367 85.5723
102.144 106.167 38.0237
83.2403 238.134 160.248
51.594 231.603 134.877
109.686 96.9597 98.065
64.3925 29.0484 86.1451
63.6824 127.352 65.7047
92.9252 56.0884 97.1821
115.051 58.4989 28.6733
93.223 256.881 102.691
128.311 100.974 67.5607
51.3945 65.9907 110.17
103.586 56.2744 30.3837
87.4085 181.827 140.83
123.666 258.236 123.112
116.941 119.167 52.5836
106.379 62.8685 104.193
43.6382 112.272 96.995
97.5739 128.438 93.0808
85.1374 76.6163 29.3237
119.507 257.175 135.817
101.041 269.628 115.3
50.1669 236.994 122.851
119.304 188.612 123.925
64.6178 43.3803 96.2166
94.8153 123.547 99.1757
103.857 45.2992 31.2781
113.906 101.014 34.7597
82.5914 101.22 114.191
74.2897 95.3013 39.2065
118.603 40.4529 54.4379
60.1234 40.9584 101.793
80.3192 90.5746 34.1323
103.789 128.54 90.5915
56.5726 72.7406 112.001
45.3442 67.0039 51.1578
72.7975 257.42 112.423
74.8598 262.397 115.718
113.583 54.4914 83.0399
121.851 254.551 140.597
88.6844 48.765 96.1728
71.8119 237.85 103.262
79.0826 69.8717 29.9263
106.919 269.861 120.71
129.144 52.2415 58.5607
109.122 129.715 64.4394
95.9931 107.302 38.7712
85.4145 27.3728 78.0167
134.243 62.5976 47.0561
104.649 126.667 56.1337
90.0933 138.468 82.4404
91.1536 23.4833 51.9037
56.2362 242.601 123.7
102.472 45.2832 80.8711
89.4849 252.022 154.581
102.873 31.8851 67.1277
77.7067 79.0428 30.5729
116.93 263.316 116.758
102.499 231.079 95.2482
94.8913 31.111 40.8388
106.133 40.0979 36.1657
127.46 115.521 69.4121
55.4719 205.618 139.888
99.9759 49.2116 28.1725
56.7522 124.53 86.9655
56.0955 126.335 77.2397
122.849 52.05 34.8606
67.0205 73.2323 117.902
102.049 82.3575 27.0843
106.725 185.321 134.096
65.9753 127.609 95.6251
88.3383 59.186 101.24
112.609 33.1346 55.2772
86.6679 22.8979 58.5545
56.7919 120.4 100.831
125.582 49.1107 42.8138
128.195 73.4173 69.6772
71.6661 59.3615 31.6378
91.9442 24.4938 60.1764
93.1787 69.8867 24.9396
66.1658 109.042 52.2808
61.6486 62.787 111.144
73.7835 236.725 158.652
121.929 115.293 82.8107
87.3344 104.903 36.8601
78.7175 93.0309 113.502
120.925 79.726 83.3845
121.562 95.9481 37.3855
53.9126 48.839 42.5868
110.995 123.479 54.3025
92.5668 136.754 70.7253
101.036 87.8612 31.8754
92.5472 95.2244 112.997
62.5387 117.521 56.9957
105.878 34.0816 62.8708
81.2195 57.9453 100.754
131.169 54.9919 50.5736
29.4593 79.0866 93.5032
87.3492 30.9528 84.4381
129.425 96.8041 72.603
71.6699 254.425 147.014
99.0384 56.4845 26.9012
80.7294 22.5705 71.519
86.8051 132.179 59.9946
121.812 84.5228 85.3839
62.0163 119.117 101.061
48.2906 72.6196 113.5
88.1878 191.207 151.638
63.0563 184.443 124.986
117.309 235.135 152.632
119.051 217.142 150.816
55.3038 62.7949 111.716
134.266 222.826 126.431
82.884 30.8243 39.1609
79.3833 137.849 81.5099
64.6679 70.9472 112.567
108.459 83.1887 95.8785
96.8599 58.5453 93.0552
128.204 74.8837 33.3772
72.1733 210.963 157.556
87.3936 67.6367 28.0447
55.258 121.397 66.7224
96.1271 95.4899 36.8886
97.6745 178.469 124.816
119.165 113.749 50.1226
63.4818 210.492 152.533
95.8601 28.5576 48.1109
70.9383 261.101 125.862
118.037 47.2819 73.2733
97.9926 39.3417 36.0471
132.048 92.2801 63.7937
64.1816 85.8565 119.705
128.502 74.8046 76.2927
99.1842 262.305 106.464
96.4091 124.186 52.7411
101.189 33.7785 38.7876
94.9711 81.9942 29.6399
77.1757 87.287 115.667
76.6101 102.358 114.968
111.753 127.949 77.0175
60.6192 22.5561 69.6875
126.827 200.413 109.858
101.756 102.475 106.702
77.8283 266.736 130.529
79.5217 101.035 40.4152
97.9707 136.076 79.3244
68.0617 22.2633 57.7354
80.3316 191.137 150.459
68.3799 50.7641 106.482
111.923 66.8252 25.8359
36.8579 79.1509 64.2196
78.8198 26.5262 81.9059
89.6192 43.4689 93.3826
131.571 82.8639 68.358
77.4748 19.7549 62.3987
67.0754 240.074 153.553
75.4779 137.667 85.7232
72.8807 194.49 103.021
63.8244 96.5929 45.0622
123.108 116.426 55.9711
107.895 131.405 78.5069
86.8071 109.812 108.147
111.493 123.929 88.2702
107.94 121.234 92.6157
84.7429 61.5833 27.1582
44.326 63.319 109.433
75.5158 135.523 92.1075
63.0874 105.622 112.062
81.5693 127.728 53.4473
130.617 207.191 108.885
104.437 87.2363 110.656
81.0352 267.573 136.934
84.5362 121.181 102.636
119.061 231.775 95.0858
61.7243 111.57 112.13
74.93 52.5334 105.574
54.9548 27.8901 60.2644
44.6989 42.4016 57.6698
118.64 70.0346 29.4788
128.344 88.6247 78.294
80.7378 39.1536 92.2689
58.7886 127.574 69.9479
98.4466 212.861 158.637
90.7941 26.2932 75.2397
29.5358 81.4004 83.6879
71.8279 93.0796 113.113
84.0691 264.696 112.062
79.6977 122.724 105.251
128.101 111.471 65.0849
99.1599 181.186 110.708
115.791 107.343 40.5431
77.6183 43.105 102.2
30.7867 75.3873 78.191
128.866 94.3189 77.9146
127.784 246.435 137.236
62.8823 100.04 112.906
72.4425 70.0293 113.751
94.9058 265.749 114.442
116.238 42.1924 62.6678
121.702 214.57 98.1892
56.3862 220.421 146.267
114.229 124.691 60.9893
98.9265 63.7691 91.7061
75.1358 262.323 139.791
111.003 240.975 96.1521
89.9937 33.1683 37.5727
76.4685 185.485 107.375
96.9926 236.461 160.611
63.5679 88.9263 112.409
51.1081 211.128 135.058
72.8265 132.469 62.6056
59.2877 93.664 112.849
94.3842 247.162 157.895
46.2637 99.2382 106.464
130.838 93.961 58.7969
79.6094 180.164 136.592
113.261 87.3175 98.8971
63.6517 34.9836 94.0385
109.857 52.1931 89.0963
103.04 133.035 64.6039
115.637 187.757 112.625
122.21 119.915 74.4433
100.66 95.421 108.123
87.3833 135.35 88.6127
115.158 85.8522 29.8575
70.115 225.067 159.353
110.313 72.0238 97.5176
33.2074 83.334 75.5231
58.0734 99.4956 112.96
51.1348 215.944 112.357
39.3274 104.372 90.3671
70.6155 47.7339 97.2039
88.8934 184.831 102.596
112.881 73.8599 26.5515
104.388 68.191 90.1457
94.1987 121.374 48.1923
120.959 74.6357 84.563
87.2972 126.242 52.0135
105.325 87.5352 99.0864
78.3874 34.171 35.8357
75.3396 119.686 108.462
29.5334 74.6173 86.6196
54.149 121.858 75.1049
34.4872 82.9507 103.375
95.9363 30.5088 63.8211
126.388 234.026 144.191
90.8567 36.2092 84.2763
93.8289 31.4521 80.4676
110.679 38.1851 65.9646
97.4563 67.9203 96.024
68.0223 257.428 118.907
61.839 240.855 146.154
36.2963 89.1759 73.5496
135.039 68.8283 45.3961
132.376 75.1677 62.9305
110.424 82.27 28.1449
57.5903 88.4895 48.4919
128.224 54.0379 42.5908
54.5584 214.624 144.47
92.8775 179.032 112.813
73.4022 37.1601 92.9703
93.4947 267.205 122.226
44.4 80.414 113.114
123.596 106.577 45.3227
99.8148 254.279 153.795
117.917 64.8713 83.0889
111.808 200.666 96.247
74.4144 59.119 114.216
96.5229 108.328 103.458
97.1592 41.2453 83.4235
46.7956 47.4924 101.214
120.343 243.669 99.9202
110.749 252.292 101.111
133.592 88.8329 50.1944
117.705 49.2764 33.0271
105.152 84.5279 89.9711
105.914 102.901 102.797
94.077 75.2026 26.5268
95.8128 116.159 43.0375
46.9865 40.7573 52.1691
116.973 43.6695 36.8051
64.005 79.0039 45.3197
59.8792 190.638 115.501
67.0183 110.51 106.749
83.6882 21.0608 65.317
47.7153 33.6516 64.0402
77.248 22.1236 77.0122
77.5145 136.415 67.8115
70.6092 128.297 58.3143
59.1066 47.2091 105.71
88.5566 117.452 46.0149
64.7303 46.5598 106.816
89.2481 139.73 75.3772
109.562 235.546 156.112
54.4129 115.622 63.4536
65.4938 42.1009 102.427
54.7316 40.3088 97.3497
67.0204 202.23 151.791
104.057 132.023 82.1188
52.8846 47.1812 102.718
78.6811 245.276 100.859
86.527 176.623 121.071
112.862 38.2984 59.0273
110.773 77.1666 88.5295
91.3934 100.647 39.1041
105.214 65.18 25.9084
30.6668 67.6676 85.7906
44.382 113.871 82.1354
111.924 85.0077 89.3503
40.2618 102.27 96.0778
122.324 51.2425 70.9055
126.016 60.9904 73.0298
70.9796 123.008 54.3672
131.907 86.497 64.6089
116.662 122.152 80.2973
84.5309 138.953 81.7047
77.2721 57.6198 108.513
106.346 247.516 154.483
113.759 258.258 146.212
100.367 112.468 101.022
81.279 137.993 88.1579
110.491 188.836 103.544
55.3693 110.484 105.063
38.9467 48.4632 73.2627
45.3823 38.1001 80.4211
53.9396 27.2492 69.3029
100.521 114.327 96.0446
41.8825 69.5769 110.197
95.2138 63.7091 26.7729
109.343 79.9395 92.2467
56.2967 34.6668 48.5933
128.704 97.8906 49.1833
70.335 135.512 79.4814
50.0748 41.8931 98.2449
108.609 268.464 133.016
78.7679 246.426 157.387
109.008 72.9374 84.7701
90.9772 102.776 109.792
128.728 102.362 53.9017
119.976 63.6106 28.7265
114.076 250.154 150.021
89.0464 130.264 93.7913
81.5578 106.856 112.534
50.2097 115.807 99.9984
113.267 53.2712 75.2547
71.9912 19.8458 68.4151
66.0629 83.7972 113.26
101.878 267.502 137.885
105.853 112.095 97.9256
60.7279 122.255 59.7955
53.7017 119.981 89.1367
80.0718 204.526 157.281
82.4642 53.044 30.2662
85.1467 24.1706 46.3656
117.62 57.0962 73.5137
64.0619 79.6255 111.64
103.512 62.2046 98.0135
104.354 63.495 87.6605
107.796 90.7315 31.3709
65.2332 132.304 88.3241
98.5941 193.691 97.79
45.1373 59.3016 50.2086
68.8396 36.3518 88.0588
79.8022 122.697 50.0564
88.9616 209.348 160.375
125.08 106.833 52.8558
35.7788 76.0862 105.534
44.6035 50.4453 50.323
58.6572 129.364 82.1928
73.8872 116.439 50.5735
75.6349 48.627 29.7988
81.2596 137.792 73.7202
131.025 93.4881 68.6271
43.087 110.58 87.744
112.077 228.358 93.7656
96.6311 106.797 108.225
74.4622 28.6586 85.8917
61.1834 55.5139 109.301
103.343 72.7961 94.8769
67.1919 115.275 52.6496
67.3389 24.7784 50.0875
96.3521 135.738 65.3497
79.5516 92.8623 121.013
102.513 202.381 93.8241
51.2442 33.8796 85.7516
87.9559 42.331 86.8747
108.405 81.8043 105.111
82.5389 128.654 99.0616
66.9206 46.7528 32.5464
56.01 25.8755 83.6916
119.706 59.792 79.4869
92.2236 108.247 105.671
65.9905 56.114 109.487
38.61 101.736 74.1307
51.0004 117.571 92.8783
53.1188 74.0699 116.049
119.9 44.1589 41.2063
88.5452 99.8212 117.185
73.3666 38.335 37.9239
79.2714 131.565 96.6815
78.4438 226.686 161.439
71.5201 106.545 47.2385
79.5798 51.8329 108.617
120.237 109.524 49.377
46.6917 30.825 74.0883
117.455 58.5832 85.01
94.5819 63.0124 103.255
65.4534 131.353 74.7057
107.476 261.203 143.233
36.9645 96.5264 75.1989
60.6939 76.6363 112.235
125.188 95.5823 84.2766
56.2561 195.432 119.611
78.3901 46.0336 97.028
44.1316 100.434 66.7588
97.7644 96.3849 112.032
129.96 61.6811 39.3981
112.922 209.761 152.623
78.0359 43.2941 33.6309
58.6255 77.8263 49.5426
107.939 89.8887 93.7454
42.6998 89.0293 110.952
37.6196 55.2769 86.3514
103.862 120.458 95.9443
74.9478 107.767 114.004
127.897 65.0825 63.5892
119.178 95.6113 91.1232
103.57 93.6718 102.978
40.635 75.3087 111.518
118.615 87.6908 90.2034
34.2642 79.9399 70.9213
36.2867 68.2813 104.044
115.339 46.018 66.9754
125.861 243.557 106.251
95.6462 188.855 99.0178
100.249 220.755 161.195
66.4006 96.9779 115.612
31.2483 70.729 94.5133
114.111 94.0865 93.6614
95.3026 34.6151 70.9656
60.154 117.169 106.851
82.6803 114.566 110.751
36.7932 53.2515 67.4834
89.3077 119.634 99.4782
56.9896 54.4585 107.434
85.0797 219.392 162.123
94.5936 49.3142 29.198
108.844 65.6434 85.5043
67.8056 135.991 84.2283
85.0272 42.9875 32.6708
103.95 97.0387 99.2204
105.48 59.1252 83.1284
50.5541 104.884 106.159
96.9892 42.1391 31.7225
104.137 54.4482 80.4247
57.0337 39.354 44.3641
82.7358 266.818 123.411
120.739 107.705 83.9025
67.1731 116.453 109.477
95.247 34.8268 76.9377
33.64 96.11 95.8747
52.8913 28.9204 74.8982
103.292 74.4744 100.326
42.7814 52.7447 54.7492
118.667 195.549 102.932
95.7964 222.169 96.6857
71.8016 93.7221 120.249
105.588 183.124 109.633
74.7272 130.756 98.6645
60.8567 70.1106 43.7487
87.7501 28.5785 44.3933
105.105 118.222 47.3131
100.992 61.4297 25.5919
32.3414 73.655 72.2722
65.8602 64.0418 36.2794
115.666 71.5628 89.4412
55.1708 107.84 55.7301
96.7026 84.5449 33.7003
71.2963 40.1984 95.8812
126.426 54.8804 71.7935
95.7156 116.128 100.444
100.989 40.2591 74.8376
40.1812 45.6359 87.5796
47.8979 34.5797 79.137
35.2404 96.775 81.0834
31.2418 91.5837 91.9944
56.2082 105.179 111.347
92.208 52.4197 92.2197
89.1365 247.509 98.8172
33.8378 75.3353 98.6349
94.9237 26.9283 55.4129
48.9198 57.316 44.6984
36.0292 51.3473 79.8601
56.559 34.3201 91.8742
71.2359 209.246 101.26
75.2164 138.282 75.9866
72.2052 23.9195 47.9629
59.4266 56.4473 42.6023
58.4294 98.43 50.0061
56.8789 195.271 130.465
61.1563 197.099 108.48
71.241 128.625 96.3089
88.3072 55.9432 28.6484
92.0759 46.2357 30.9542
122.217 54.4864 77.8863
66.6513 196.764 148.343
75.7263 111.812 47.165
68.4 79.4342 116
63.2148 21.7187 61.8429
66.4933 120.869 101.33
98.4083 29.1696 55.7078
100.315 45.5665 73.6822
60.0964 124.002 96.6451
38.9857 44.7595 68.0442
76.9112 82.8187 36.9017
70.8056 99.737 117.457
56.3303 80.0746 111.104
109.186 54.2058 80.799
70.154 99.6805 47.8356
39.6196 87.0422 62.9649
75.1891 115.606 105.034
97.925 73.5155 30.164
111.886 46.854 72.3076
52.2693 96.3665 113.206
78.4793 179.917 112.983
65.073 193.196 144.194
107.701 49.1094 76.992
121.554 71.9219 79.0951
108.322 37.2547 55.7306
51.4176 118.155 72.3492
62.0508 132.543 79.6924
51.0661 111.709 105.5
90.6352 40.5536 31.1111
61.6378 42.4663 39.3971
122.061 191.938 110.3
92.447 28.2627 71.0991
101.278 36.1531 70.1952
33.0592 71.1516 68.05
35.7248 90.569 102.298
65.8082 50.8121 35.3762
119.785 92.5122 87.6247
73.1411 46.0034 100.506
65.6885 239.747 106.263
98.1047 47.4278 85.888
72.3334 218.214 102.068
73.6328 87.1513 37.7708
102.322 50.673 80.0478
39.8038 66.1554 63.1561
68.586 133.63 66.734
76.8605 21.3878 52.557
70.1601 65.2645 116
86.0616 84.5674 29.7606
56.17 85.2864 113.131
50.4056 112.418 67.0473
101.467 245.326 96.9339
133.637 65.725 61.2448
61.4918 217.488 105.299
66.2702 226.57 103.908
82.864 131.068 93.0826
41.3845 47.7568 61.6202
105.514 39.2222 70.4975
65.0573 38.1195 38.5949
95.3854 210.677 94.7071
67.9581 79.4342 35.5527
35.209 61.9103 72.0273
37.6613 62.3539 103.218
31.6173 87.1919 85.1676
61.1807 128.958 88.75
43.9222 78.3642 55.7148
63.7344 86.3922 41.8019
94.3617 46.5722 83.4053
32.4414 92.7033 84.5047
48.1374 33.81 69.0419
95.3724 55.78 88.7157
80.3496 195.05 97.482
94.9363 42.6537 77.0223
70.914 132.236 90.9849
66.7632 184.447 115.093
35.6265 69.4384 62.4245
58.5865 103.556 53.0889
58.6791 40.0128 95.0657
67.7624 135.538 72.4862
57.1991 208.149 145.846
82.1749 202.293 96.4765
85.9751 39.0043 36.2977
45.0913 44.2986 94.9195
43.1018 103.082 101.337
52.2514 106.91 61.7573
57.2872 70.507 48.0655
59.5755 47.8964 40.3045
42.328 41.3988 63.4673
116.709 71.7792 81.5189
52.3205 67.6167 45.9622
59.2624 63.8698 44.2665
49.8896 120.547 82.0079
125.576 116.819 75.4188
50.2363 86.8321 112.773
45.617 94.9629 111.3
45.2422 66.994 60.1811
87.6547 200.074 157.376
112.987 101.229 95.3674
49.4853 80.44 112.418
55.1591 68.2881 53.3184
60.9999 28.6853 47.6454
110.107 41.2262 72.1014
56.2608 31.7535 86.0708
62.4633 64.3791 39.3898
89.553 116.133 106.255
46.4019 116.572 89.4936
46.2097 73.7018 57.1404
62.9887 81.2279 39.8143
42.794 35.5374 69.5542
92.2206 117.006 94.8825
116.288 66.0436 86.6659
50.4334 90.6511 57.0539
70.1666 119.362 101.898
59.0606 99.4489 60.5488
128.652 70.4408 64.8286
31.995 85.696 95.232
53.3402 93.3981 50.6777
51.8582 83.3161 53.7672
78.5443 256.561 105.061
54.1569 30.4738 53.7627
96.6879 41.2571 72.5171
48.487 33.8788 58.9119
53.1316 208.024 123.705
106.502 44.5418 72.0916
52.9052 75.4151 45.4953
79.1039 111.922 111.578
39.7223 108.762 81.3733
71.3813 263.142 133.796
40.9944 42.4497 83.9393
95.2606 37.9363 83.0994
117.575 78.3674 30.6026
92.5555 127.502 93.4488
71.8047 42.3486 32.5051
41.8225 48.6289 94.5062
89.3842 50.6564 88.3531
122.194 101.684 82.0532
123.401 68.5962 31.5117
57.382 112.997 56.2754
76.6492 265.584 123.766
49.3454 37.1592 90.9897
92.807 103.635 114.646
101.86 42.9164 68.8143
39.9751 97.1497 103.548
36.7293 61.0889 94.3146
47.0262 107.441 68.821
109.455 47.0315 67.6249
41.362 55.2536 58.8994
77.996 59.0238 27.9999
60.336 128.066 94.0536
124.453 69.9446 75.3682
64.3185 65.8783 117.68
41.4683 106.977 73.4446
72.8648 81.6573 120.263
67.2364 73.5791 36.2304
38.703 93.556 70.2145
38.906 54.4961 94.681
111.621 104.263 92.379
59.8642 99.13 55.5786
42.728 96.0599 66.0388
72.8616 68.5995 28.9812
48.3973 113.673 74.3193
44.1504 54.0254 102.085
46.6928 39.88 92.9591
90.9834 82.3877 31.993
33.7113 54.5899 72.2866
