ply
format ascii 1.0
comment Created by Open3D
element vertex 1045
property double x
property double y
property double z
end_header
122.282 36.0832 82.0205
169.765 145.378 130.821
114.811 197.764 91.911
56.6296 125.737 134.185
169.599 137.905 140.173
140.967 38.1869 104.892
171.304 101.566 115.255
170.606 86.7604 136.518
154.844 185.328 110.069
167.46 157.455 137.142
125.893 31.7864 101.52
126.044 197.953 159.781
87.9198 195.89 109.658
151.379 185.727 144.108
134.946 203.872 125.292
152.459 143.38 172.714
166.834 72.8191 109.021
167.168 133.529 100.039
128.718 131.044 184.074
147.541 192.984 147.551
162.904 141.023 162.753
50.7666 61.624 94.311
137.299 104.311 43.0362
144.357 183.126 166.556
48.925 122.214 117.018
170.613 87.4513 127.23
97.0537 52.0461 151.811
132.174 33.0302 109.905
48.7241 136.552 78.9914
166.863 167.775 122.761
165.14 135.1 156.572
160.945 179.418 120.631
168.795 157.973 128.245
62.4741 152.618 131.425
169.603 121.913 149.176
53.1777 109.429 131.791
41.9334 107.121 100.654
43.8447 99.8075 111.065
114.736 208.377 132.985
121.527 207.574 127.811
160.987 177.417 112.502
161.776 132.071 165.699
169.474 80.0611 125.208
151.599 55.5576 136.997
157.356 105.39 58.2903
120.769 155.858 184.342
162.738 127.454 69.5008
132.587 194.476 91.7775
107.245 193.383 79.407
170.272 110.282 105.749
55.7111 129.429 53.9317
94.0344 102.919 26.6288
165.6 151.593 150.073
115.837 192.004 168.853
167.075 128.156 104.726
159.404 58.0183 122.263
168.945 98.7792 101.936
138.818 136.135 183.092
164.636 119.615 76.5588
41.2846 113.455 76.5264
147.463 186.819 152.681
84.6338 185.939 79.9854
165.763 106.139 158.479
46.1724 83.6479 116.414
67.5683 175.011 87.8148
130.938 201.485 145.149
143.768 78.3587 172.454
49.6044 75.5715 111.933
165.543 112.693 88.3203
155.118 169.246 92.5713
165.815 97.0841 95.3955
42.542 123.642 85.0439
67.4663 177.002 109.792
155.91 56.2116 95.8756
121.867 57.9513 53.2122
153.246 87.9771 57.616
140.542 172.621 70.4139
124.313 139.462 35.6091
167.862 89.3397 98.7801
167.591 84.261 143.264
164.624 168.44 108.588
155.136 135.774 61.0704
97.3991 176.345 177.19
148.08 87.1574 51.8293
104.405 115.805 28.694
38.9043 102.958 71.5345
169.862 94.81 121.718
105.817 31.8892 80.3939
169.279 149.35 118.491
114.955 201.465 155.751
170.23 95.1836 141.71
158.745 180.412 135.467
115.624 133.705 28.3896
145.779 47.741 136.328
124.682 31.6808 94.2686
133.524 182.321 166.523
65.8674 150.436 65.436
86.043 172.891 60.2806
144.508 141.695 180.032
156.418 150.893 168.732
170.683 126.675 135.858
151.804 72.3333 66.5435
118.082 55.0865 176.415
168.561 82.1812 102.101
135.653 197.701 149.631
162.143 163.093 153.626
124.313 176.471 61.7627
168.556 132.948 114.093
62.8015 165.883 115.374
98.5284 179.181 64.7271
156.533 72.5434 148
71.8249 141.986 48.4351
165.219 156.554 111.623
163.984 70.1818 93.7901
104.109 41.6631 144.256
148.575 155.387 60.1786
146.331 105.605 45.8307
154.75 53.0673 127.165
137.027 130.522 184.207
155.029 178.252 145.016
146.706 114.243 47.1475
162.481 111.801 72.1519
92.6356 207.227 141.332
111.162 186.614 71.718
49.4502 65.0589 88.1352
154.696 187.958 133.985
168.546 148.293 141.398
79.6564 197.975 144.726
143.757 134.409 44.7982
148.414 99.3489 177.84
150.706 49.7892 132.275
169.064 140.633 150.68
155.918 104.189 173.152
121.057 34.7257 140.073
164.95 96.928 155.089
61.079 96.1278 144.797
153.837 87.4119 164.114
40.5623 90.4927 71.0453
39.2816 100.166 101.075
73.0646 138.274 167.09
164.275 134.964 76.5941
143.049 41.0878 98.1967
70.4353 167.382 160.947
38.2375 108.448 83.5095
120.918 39.1543 147.793
56.1941 54.3224 74.0827
169.224 100.906 133.904
164.276 138.423 84.2291
40.5074 116.421 88.7749
157.17 65.0943 143.254
166.437 103.602 87.7829
145.672 112.531 181.174
159.085 145.12 68.8869
69.274 104.927 160.831
103.882 137.741 34.7136
169.178 98.2092 151.183
140.65 37.24 119.441
61.0151 134.862 152.273
165.774 69.7795 123.207
73.0659 181.423 91.0666
166.734 157.642 145.296
60.1146 114.889 145.568
142.029 96.7616 41.201
150.42 192.499 139.245
76.0072 125.541 170.075
52.4783 135.342 113.996
149.562 180.577 160.999
106.925 201.772 93.9025
142.024 191.402 149.811
148.538 193.792 133.057
46.1573 129.197 101.35
113.591 35.2221 137.436
159.135 79.4312 71.0723
99.28 189.272 76.6677
157.213 172.956 97.8742
102.301 108.183 25.3679
49.988 76.6357 120.388
169.667 132.554 127.54
80.9922 141.293 174.69
68.2124 181.632 117.826
149.129 76.4299 167.858
128.706 88.0161 35.6335
64.0181 165.902 90.2783
83.9824 99.4376 169.462
66.3198 53.9835 125.666
156.54 84.3546 62.706
169.901 119.233 124.411
120.9 194.951 164.062
167.604 110.622 95.2562
132.959 124.703 185.971
164.342 81.2545 146.708
113.265 33.0299 82.0024
124.483 190.852 170.797
140.625 125.467 42.0407
44.7567 69.1938 96.5986
147.772 173.787 166.834
169.072 111.203 147.906
120.864 185.282 74.4421
121.143 147.17 36.5987
51.2356 97.5272 127.951
43.9853 80.7538 105.216
110.239 38.0729 146.807
38.3915 103.862 87.853
157.364 54.6384 102.335
120.919 31.0035 105.408
156.777 167.989 162.553
154.988 58.7634 85.549
59.4012 114.571 137.254
68.3288 182.081 103.489
141.36 125.415 184.416
150.232 186.583 100.653
104.982 28.5572 109.782
143.283 77.0777 50.4083
100.536 207.245 107.955
119.03 194.583 82.4579
131.316 147.093 40.935
47.8635 65.0587 80.3675
126.744 40.7275 147.428
133.231 193.728 162.867
50.8135 85.984 126.684
127.98 185.831 172.932
91.8901 154.502 43.8137
58.4363 142.221 61.318
143.557 40.8975 129.897
156.929 156.645 75.1671
53.0011 118.096 129.146
98.4132 194.386 168.919
69.1407 185.187 110.066
113.03 208.144 140.606
141.213 177.725 169.059
117.993 30.9904 94.8514
147.921 57.5972 145.562
108.915 31.649 133.132
153.882 52.0461 118.301
105.864 208.229 139.639
63.1852 169.593 97.6825
82.9443 148.173 40.3699
120.228 125.765 186.322
135.188 201.724 138.818
172.716 106.473 130.029
117.278 98.1972 29.0335
51.162 137.358 129.336
168.781 143.118 116.432
136.807 67.121 50.829
128.023 150.183 185.835
124.977 136.659 186.193
169.326 89.2057 107.34
126.053 206.415 135.225
147.066 42.8756 107.59
116.356 48.0945 152.256
109.153 60.5426 177.017
142.925 196.249 142.983
130.022 46.3278 151.026
119.839 154.246 42.3268
132.965 37.4863 90.3201
168.134 157.519 118.389
97.9159 30.3409 82.0878
138.734 179.272 74.349
129.15 185.379 75.0657
109.558 205.411 113.052
162.707 64.3477 98.6279
126.828 153.79 41.5186
127.699 66.5362 167.654
62.8956 157.468 148.406
85.5323 108.063 176.141
42.9568 93.4747 113.514
72.0838 176.359 158.616
44.2952 116.145 108.967
160.461 94.173 67.823
142.296 153.087 178.981
60.7159 82.0323 137.638
167.394 116.774 154.996
62.0294 141.339 68.5035
57.3648 153.705 114.676
64.7241 140.976 51.7631
171.573 116.55 142.402
152.983 63.7356 74.9063
57.2201 163.16 99.1194
58.4746 165.639 121.238
147.343 96.4912 47.8631
150.291 76.7221 159.837
145.352 45.7982 117.834
126.381 32.4196 129.234
133.07 141.212 185.29
140.583 199.813 129.849
142.171 67.927 58.8984
102.891 190.49 172.31
91.2651 37.0867 69.942
62.2859 154.785 69.0834
105.247 116.874 184.957
43.1706 87.3558 104.47
124.616 199.627 146.841
163.239 101.944 77.5896
169.414 122.27 112.323
97.9952 184.087 72.1834
54.7854 60.6548 78.3264
67.8657 167.035 77.4333
157.244 69.7334 76.813
40.486 103.355 63.9277
69.6455 181.962 144.518
149.225 106.442 179.477
44.6172 72.0033 89.6871
138.577 50.1829 144.916
112.841 77.3166 175.873
135.191 75.0475 44.1605
170.505 116.673 132.592
103.765 127.285 183.228
82.4816 117.43 171.316
104.289 205.997 148.366
121.769 79.7796 178.702
63.2437 134.308 46.3624
122.164 71.073 39.5461
138.421 136.652 40.3697
133.786 36.6517 105.911
159.596 55.0459 111.901
109.979 134.477 28.1073
74.9199 193.859 134.91
160.715 90.7643 157.129
49.7149 129.383 117.289
142.86 58.3772 143.528
51.9963 148.929 105.1
110.76 111.915 186.447
120.766 207.064 145.923
110.2 95.1421 183.39
135.832 38.9634 130.348
64.9244 160.113 74.6201
68.1707 142.696 159.3
170.704 108.51 136.876
161.586 64.2801 114.184
58.9438 129.642 142.916
133.099 42.1124 142.413
92.8026 189.253 168.273
164.914 143.25 90.7157
43.2299 84.3142 66.2503
65.1669 147.889 53.4146
49.5302 109.318 123.711
131.792 80.8758 179.338
42.9659 114.112 69.1004
130.173 69.9306 172.518
146.578 166.196 173.729
162.933 108.056 163.99
127.207 191.798 164.854
56.4471 150.976 91.7249
56.3267 65.0341 122.403
105.941 205.312 122.022
54.7119 143.043 70.2912
131.814 170.76 62.4219
54.2449 136.11 92.662
56.0905 157.894 126.941
118.455 106.359 26.6835
150.084 93.5207 168.747
69.4919 178.489 151.488
46.1917 73.7112 72.6512
149.109 70.4124 162.649
82.5115 134.192 174.005
134.397 39.1099 118.632
167.858 142.794 110.034
123.589 197.709 89.7238
48.9508 136.455 94.772
167.957 95.4938 146.488
146.356 40.1723 112.866
51.2928 60.8718 104.112
74.8339 64.9358 45.0622
145.832 120.703 182.093
40.3718 94.8796 86.5855
146.012 40.1302 122.604
42.6925 84.5238 96.2708
108.943 209.503 127.898
141.552 52.0624 73.0819
130.034 43.8301 72.7831
104.418 35.7682 132.181
124.803 160.554 178.813
77.824 166.182 62.8717
96.5365 111.929 26.1771
121.561 180.596 174.883
48.3307 97.8677 116.695
46.6902 112.869 51.1987
51.1817 141.213 84.1436
146.143 131.531 180.424
157.218 116.346 56.6893
114.593 41.2936 151.064
162.801 64.4738 105.312
104.329 129.76 28.4015
72.2952 188.055 101.563
93.2802 202.77 116.153
99.0279 203.108 98.2535
114.961 160.187 181.869
158.575 122.229 171.071
91.0914 184.761 72.535
102.833 62.8978 39.3061
61.8333 76.4757 45.7666
164.927 168.274 141.313
103.135 184.22 176.094
153.878 179.865 152.167
99.5882 206.057 118.089
62.2388 144.587 150.885
138.862 66.0676 166.284
142.366 199.84 136.298
135.568 117.203 186.625
160.872 63.1451 133.296
162.58 153.256 93.9358
157.272 130.248 65.4501
132.971 197.562 156.883
121.049 202.491 153.198
152.857 163.781 170.449
138.297 183.502 80.0189
57.7105 145.006 126.185
92.4714 155.846 180.618
81.3293 90.3583 164.24
159.394 79.784 158.049
62.1518 137.16 136.629
42.8758 122.317 73.9874
120.062 94.7656 183.599
162.806 74.6444 136.288
72.7348 188.098 138.422
154.377 175.734 158.097
106.4 159.679 183.484
98.0176 168.104 180.465
169.698 130.777 121.336
150.528 47.3019 102.951
130.749 43.7732 136.864
136.572 105.336 184.994
154.972 48.1618 108.813
124.229 180.927 65.3754
137.017 178.915 175.13
119.915 203.151 99.3196
163.571 115.523 83.0455
66.715 177.662 98.4887
76.9565 167.006 165.44
48.1597 68.6949 103.505
98.8987 35.6043 130.753
61.9739 152.098 144.187
110.401 197.644 84.4206
93.5639 195.468 85.6132
37.7511 89.295 95.6298
143.83 195.188 107.993
114.92 182.898 178.29
138.61 72.6716 171.512
37.8354 85.6658 83.9356
135.242 151.858 46.2524
56.3183 150.581 139.025
65.1056 86.7215 37.3123
154.74 128.282 168.378
163.517 162.551 100.232
124.671 43.2663 72.4351
125.723 31.4749 122.475
76.5289 186.584 92.7648
128.446 60.7667 157.262
108.222 144.744 32.9597
122.993 52.5859 153.525
100.714 207.539 139.601
170.091 95.6209 131.012
99.1707 35.7511 138.993
146.026 66.2953 158.397
148.592 174.604 78.5144
52.2575 68.5495 71.2368
135.329 101.369 35.9807
91.0637 162.647 48.7471
160.203 162.88 88.7727
108.31 30.5201 121.191
132.825 140.305 37.455
162.186 147.603 79.2029
96.2323 196.579 93.3905
156.141 95.1949 166.506
108.97 198.026 162.85
112.299 48.7961 57.7987
54.869 161.999 107.377
130.784 65.7822 47.2958
57.7909 105.066 139.374
94.531 29.3472 121.767
42.9107 111.475 61.3242
151.362 127.306 178.481
163.653 80.7757 92.0712
55.0569 74.0488 126.94
116.348 29.0466 123.077
85.6251 178.796 68.1551
55.2639 121.358 47.0495
53.54 148.205 112.644
167.138 149.227 100.367
159.686 172.179 105.591
130.967 190.833 81.4958
52.8525 131.145 62.4119
102.549 124.361 27.5713
69.1502 61.6078 140.387
132.11 180.129 68.8293
83.1078 154.957 49.7219
116.041 124.833 27.3004
151.76 186.733 123.481
59.1859 58.0082 120.13
52.9673 151.092 97.1119
148.625 55.6001 76.788
140.298 85.2686 44.0442
165.727 88.0795 81.5705
126.654 74.9318 176.275
168.811 86.3722 113.886
107.506 64.0546 162.644
78.8791 151.303 46.1203
147.408 129.401 47.0656
148.586 62.8561 67.9015
109.657 107.589 25.9903
116.427 182.795 66.1673
144.65 159.782 176.898
101.187 27.7383 116.013
98.0858 205.484 146.487
153.953 63.0705 138.185
174.03 111.294 121.42
71.3228 158.897 63.4459
110.699 30.2892 127.546
111.692 66.675 38.4545
65.7727 117.398 156.604
149.672 192.525 125.628
58.0051 56.7226 85.7543
169.051 114.451 109.414
164.617 144.155 104.039
96.0514 204.153 110.095
99.538 156.517 184.168
75.2088 114.918 165.919
159.347 86.8069 159.617
158.54 143.483 167.288
124.382 96.0767 30.3292
47.753 130.381 86.4517
133.243 52.1624 149.969
161.496 171.786 146.045
115.043 138.174 188.44
88.7562 183.097 167.488
141.14 188.184 157.117
146.213 47.7326 88.4265
64.8874 130.279 158.826
62.6844 122.409 147.863
106.869 174.798 55.6081
103.104 97.1 26.8505
81.7414 197.684 119.799
62.6437 111.096 33.4441
149.137 190.498 115.612
109.872 86.9457 178.875
164.792 152.036 155.99
140.639 162.474 172.486
86.7977 203.992 139.518
123.709 141.09 187.992
96.517 174.33 57.5977
91.2021 203.153 151.511
115.214 127.188 188.588
134.92 37.2235 99.5943
105.495 132.305 187.422
133.02 197.937 97.3443
106.69 28.7959 93.3039
137.511 193.396 102.035
148.821 48.0156 97.3539
166.889 112.339 141.611
120.976 78.3374 38.2614
114.011 89.7945 28.8708
46.2731 121.177 100.732
120.6 32.7926 133.133
51.987 144.047 120.47
128.283 201.28 152.182
136.347 163.824 175.756
129.513 54.5012 57.4343
66.4204 177.834 124.999
68.5826 123.219 163.195
124.105 122.402 28.0756
107.733 31.9672 87.051
44.131 96.7958 63.6272
58.7187 90.5028 39.8011
100.224 163.584 182.604
165.819 89.862 87.7374
133.84 49.6337 66.7645
71.6489 188.543 123.921
132.226 111.787 42.9625
127.331 206.043 120.462
40.4172 78.4792 84.7727
93.9999 43.2693 143.507
93.7303 121.887 27.5688
50.2935 59.4347 83.7336
152.889 96.0897 52.9895
87.6013 81.1315 167.087
132.531 154.29 182.738
166.424 131.057 90.8966
60.985 172.116 104.301
170.459 114.21 119.924
114.9 161.311 45.0767
110.669 28.475 105.634
65.508 178.149 132.721
162.759 99.1138 72.2593
149.318 151.231 176.747
116.258 35.0913 143.627
169.809 79.7422 134.226
114.045 28.4789 91.9108
95.0401 136.474 34.0838
64.6613 69.0928 47.2304
137.335 191.87 154
114.498 205.6 105.042
138.88 42.2105 90.1779
149.319 73.516 58.4494
97.0359 127.231 31.7413
65.3974 44.0714 109.619
135.531 93.387 37.8366
69.7316 155.038 81.2127
81.713 180.477 166.505
92.2339 202.231 103.396
100.271 74.6832 33.9641
100.329 85.0332 29.9355
74.6643 194.683 127.169
120.22 187.168 174.338
112.138 143.534 189.165
74.4496 139.113 40.3935
128.625 40.2899 82.9525
59.5185 153.558 85.015
97.9667 28.4697 91.7947
77.26 192.612 106.841
126.243 110.679 29.5552
78.8054 159.67 55.796
129.445 132.194 33.9936
141.613 113.99 38.4329
128.579 202.227 100.669
60.11 158.077 90.394
71.4146 127.005 33.4184
100.883 61.5442 160.584
73.3356 178.819 81.7257
138.095 42.2441 124.731
165.536 123.163 158.878
98.8694 206.438 131.589
59.912 136.237 53.4428
114.754 26.467 100.74
144.057 61.6827 151.217
68.3461 96.2564 155.364
62.292 61.4083 130.548
95.0411 183.457 173.265
92.5238 45.8753 56.0633
63.2554 149.625 155.636
58.1485 70.8804 133.21
98.9166 60.0664 43.1514
82.0392 108.725 25.9973
161.329 98.2684 160.23
90.9066 196.045 94.6208
136.274 188.41 164.934
93.9429 28.0627 114.55
119.594 207.991 108.645
114.472 36.2674 73.096
102.064 37.859 71.7012
94.5063 26.828 108.085
56.7653 151.64 119.791
59.3254 168.091 109.231
104.573 197.819 88.1759
63.5819 107.38 153.359
69.3625 79.4884 35.904
134.579 126.09 36.0298
158.665 102.742 207.218
77.4869 157.899 170.83
74.4826 151.796 167.44
63.8009 44.1189 81.1855
123.994 52.9415 61.6595
108.893 206.286 101.545
154.984 152.207 67.6893
144.722 185.147 160.016
118.176 28.1413 117.396
142.477 59.7526 64.9525
90.0802 146.874 42.1163
66.7114 167.236 131.111
124.52 62.2672 163.679
147.16 86.1064 171.5
89.8124 33.9473 77.2091
70.4817 108.006 32.3664
162.642 78.4679 83.9781
95.1267 131.577 184.309
60.6557 155.502 104.578
91.3187 71.9273 35.3148
100.912 32.2571 74.8736
80.6155 139.581 36.9129
59.0932 48.2877 83.0928
120.145 146.145 187.614
49.475 97.1582 49.2224
50.9172 88.7885 55.4149
53.5343 137.079 67.9495
83.2236 198.725 135.272
85.956 49.8966 147.985
140.7 61.0568 160.108
130.877 174.295 179.724
83.6349 37.4967 70.792
165.796 79.0537 117.433
119.572 190.532 78.8205
61.6928 176.129 108.588
107.306 43.5493 152.932
56.3507 137.113 133.85
100.062 47.2229 54.8747
79.9417 87.6053 30.2236
38.8756 91.2025 79.9529
58.933 111.971 44.0834
167.595 56.2046 157.026
61.3592 173.938 122.539
110.323 150.836 187.504
54.1807 53.2161 94.565
78.3899 115.094 27.0071
109.051 58.2013 45.674
128.698 33.8874 117.391
123.25 176.182 178.716
92.7223 34.7661 125.035
71.2153 167.083 69.2772
148.2 120.285 45.167
87.7265 200.202 118.511
162.421 173.12 126.028
123.822 101.509 185.803
40.0912 84.5864 73.7882
69.1702 181.279 138.102
108.97 123.515 189.323
159.054 156.264 81.9871
93.2184 121.236 177.967
104.996 138.467 187.522
60.1767 60.8059 61.4565
49.4809 104.45 47.5546
81.9375 193.547 96.6664
62.3336 158.809 137.963
98.3441 198.441 164.125
127.973 201.123 110.792
46.9403 106.354 54.3891
52.1383 116.493 51.6376
144.524 195.176 118.832
140.813 83.8684 176.767
68.4606 57.1616 134.237
118.344 170.71 60.8374
126.471 110.457 187.395
136.274 44.5297 80.3515
116.697 150.138 186.537
79.3492 185.157 85.4541
160.233 75.1458 79.2758
139.011 146.513 183.847
49.0925 138.936 116.481
161.73 72.7149 141.842
109.837 178.943 174.941
158.563 159.99 161.484
53.0864 145.686 78.1662
74.3949 188.708 114.268
116.562 30.1677 129.494
134.823 200.756 109.587
55.5423 81.518 133.676
50.8408 63.13 72.3494
81.6649 189.082 159.296
107.254 72.5181 172.347
63.0682 154.093 78.3951
50.3359 136.558 103.898
100.574 201.454 159.119
110.383 172.468 180.568
99.3683 138.189 29.6845
148.931 144.273 53.963
54.4566 54.394 103.36
71.9291 172.711 78.8412
122.45 65.4141 43.9562
55.591 68.166 65.9398
145.86 174.718 84.4518
113.521 194.997 171.232
41.1398 75.7819 77.2804
137.35 167.907 64.4803
119.515 67.7596 168.101
60.8355 116.693 37.3845
141.392 147.075 49.8727
146.93 158.101 213.598
119.515 44.6282 63.9901
82.6811 31.2093 105.955
65.2603 48.7294 113.278
84.5698 28.8995 100.746
97.6017 67.1159 36.8449
89.8524 176.131 173.668
150.691 167.096 165.104
101.861 155.056 38.6641
136.794 47.401 75.3385
155.633 126.051 55.289
138.725 59.5959 155.745
104.637 196.322 168.542
85.5631 51.3663 49.9198
142.973 163.329 62.6252
97.5613 92.8988 27.2409
133.745 43.3278 87.6639
132.742 35.7679 134.909
159.02 173.762 151.762
84.9026 34.8406 76.9665
109.175 35.7659 69.5207
103.852 54.8042 47.5176
105.237 207.441 115.898
84.835 165.917 54.3795
153.508 117.601 177.912
75.4222 192.501 144.38
86.6562 197.456 95.593
85.5888 33.1811 96.9843
84.8191 189.512 87.8485
135.049 90.7569 182.111
113.14 55.4904 157.567
90.4383 28.955 92.0114
85.2011 197.752 156.846
104.271 98.2684 182.776
149.981 55.1127 91.513
107.061 178.293 180.534
45.1729 68.6547 75.4413
44.6492 101.319 56.2363
65.4397 51.4468 73.0605
158.256 57.313 131.044
61.4729 80.8213 40.2607
58.3585 125.977 44.0308
153.02 45.9799 117.676
79.504 47.0721 58.5394
84.345 151.71 176.55
116.638 70.8303 172.404
60.1113 163.18 140.619
45.896 127.763 80.6267
78.0214 192.564 119.698
116.314 145.865 38.4017
65.6905 166.141 150.153
90.3836 32.2072 81.9888
93.2475 168.715 54.3206
77.6125 35.8257 110.432
43.3043 79.2697 72.3808
62.8076 42.9619 91.8441
125.634 118.85 187.668
105.937 49.5724 156.338
40.6693 97.2345 72.1858
100.116 195.416 84.4768
147.152 182.569 91.454
52.8349 150.449 87.5436
107.506 53.5882 153.789
83.3145 31.1712 118.895
122.675 87.3865 182.21
57.6385 141.392 144.153
59.3531 66.2693 53.5451
85.1783 138.97 38.3581
80.5815 164.489 171.741
133.107 170.457 177.131
91.904 63.4814 40.5305
111.381 102.284 183.551
100.906 83.3949 173.212
111.525 118.521 26.7229
98.1618 105.644 181.362
76.3551 151.363 66.0172
47.8976 130.587 67.3292
74.0276 146.089 168.892
125.2 105.329 38.0286
128.638 96.8467 184.726
58.9417 147.719 74.728
161.822 173.673 130.95
98.1694 147.757 186.857
61.3329 53.141 117.077
139.276 56.013 66.2245
130.478 163.091 50.8023
69.7234 40.1203 105.468
97.7514 137.831 184.684
53.0524 90.7559 44.6062
89.3594 57.1585 43.9291
53.9949 149.321 127.628
81.1102 201.947 128.953
47.7067 78.5748 61.9373
76.3314 175.845 164.54
159.688 87.2165 190.877
71.3639 36.7219 111.543
140.995 197.521 113.92
58.3938 56.9986 111.437
98.9238 164.292 47.4048
70.6183 55.028 53.1702
69.9234 86.0485 32.5062
100.363 42.4038 66.6506
61.7866 170.143 136.279
58.9338 99.9241 37.4447
73.0338 128.499 162.876
101.027 147.875 33.3165
125.044 206.19 114.596
150.11 154.458 172.269
86.2585 137.773 182.52
49.0653 120.107 59.3246
168.227 109.088 123.005
117.289 59.7948 46.081
87.4256 43.5335 60.9027
152.795 164.769 72.2073
118.892 106.132 183.163
117.148 176.371 63.8066
93.281 79.9394 29.0153
88.7912 147.89 182.705
89.201 194.835 162.913
120.6 201.771 116.008
55.8902 79.9314 51.1299
83.8939 62.0803 44.8437
83.9802 102.451 27.8037
91.019 38.3043 132.644
63.3713 93.9547 35.2663
65.3091 57.6484 58.2115
137.384 157.759 181.594
59.7102 166.745 130.541
121.344 136.121 29.0962
84.5445 197.662 125.302
46.3209 73.9285 65.4647
55.6714 155.321 103.72
110.384 81.7344 31.343
81.4388 77.3168 32.5726
108.779 154.764 183.969
76.1716 109.611 169.322
71.7888 112.779 29.1363
62.5859 108.263 38.9643
60.1642 51.118 106.832
128.556 159.871 46.8881
96.1825 27.0381 101.888
80.8132 71.8096 35.7248
117.9 33.1802 83.5285
149.411 168.356 74.0815
115.639 172.03 52.2629
124.476 167.887 183.003
91.7306 87.5581 29.798
65.3294 172.457 144.68
126.815 36.7022 139.627
90.4959 142.928 182.181
54.302 118.924 56.9042
103.88 169.624 51.2121
72.2556 119.998 30.1109
88.0343 128.988 183.047
69.0997 156.314 158.132
105.912 206.434 106.976
131.861 55.6703 153.846
106.838 52.8549 52.6494
70.407 181.478 129.812
120.583 168.911 54.0878
95.0011 51.1686 49.5986
91.3963 132.841 38.324
88.2716 56.1382 152.313
74.0713 185.585 151.679
69.4792 127.652 158.804
110.057 204.08 157.783
51.767 81.5867 55.788
116.167 41.4129 69.2693
58.9391 150.663 79.699
164.434 65.7133 127.943
78.4961 64.3056 151.453
51.6602 67.1511 111.947
96.7062 78.3083 171.085
98.7087 159.602 42.3946
78.2642 99.8943 28.5661
85.6716 114.027 25.972
80.3664 173.746 67.6317
162.109 66.6821 118.255
146.298 56.2333 80.6741
134.329 112.067 34.0992
74.7807 155.287 53.2451
70.2092 44.1076 120.397
68.9725 172.262 152.195
46.9765 89.9497 59.5128
133.725 159.67 53.884
141.304 97.9233 181.924
106.163 210.649 87.7107
71.1436 78.8891 151.855
124.706 48.3634 60.9761
97.0953 204.01 155.462
71.3534 159.806 160.385
130.103 96.277 33.6955
110.705 167.53 183.814
98.2248 41.8338 61.6786
85.553 80.4762 29.5752
87.6081 28.2541 111.155
107.835 207.506 77.8635
108.213 94.6544 26.8775
62.1819 47.2937 102.838
71.1888 41.5702 78.9592
65.6619 74.2242 143.187
75.1329 36.7447 87.9917
79.2127 72.2936 40.4373
82.4233 151.284 55.7361
100.104 70.8913 167.117
56.1478 63.8115 115.997
75.3367 96.4808 164.618
68.576 147.66 162.74
51.7142 168.293 112.451
54.0964 144.941 134.549
73.3896 50.0973 131.233
141.488 184.623 88.3698
79.8156 125.82 31.9897
80.1394 38.2237 125.012
83.138 43.4156 66.1066
43.6906 89.7789 63.8265
54.1891 98.7806 44.6125
109.195 177.095 61.9553
130.592 165.845 55.4555
99.984 27.9956 87.3078
106.243 144.993 188.302
79.0381 37.1226 92.0773
74.0949 189.625 148.093
78.2339 69.6133 46.3409
125.627 57.8565 160.804
102.013 27.7312 99.4436
84.7961 170.204 172.46
47.2869 125.025 62.0771
111.137 40.894 66.0316
92.0499 203.966 125.939
66.5295 50.5021 120.236
47.6348 95.5078 56.1266
61.7172 122.482 41.0557
75.15 36.9571 96.3895
52.6811 109.078 44.3965
90.8399 203.185 121.996
100.466 87.4022 178.511
88.0175 120.439 26.5296
84.3528 129.642 29.6909
56.2208 84.2615 44.7459
52.585 63.383 66.2164
111.964 65.9973 167.808
97.8558 131.226 41.22
61.5904 52.9462 78.2676
70.5977 73.61 145.936
92.7708 60.7435 157.918
119.203 200.722 95.3378
110.19 154.18 39.1425
70.5242 46.3629 69.5527
163.155 81.1636 194.688
75.91 41.2995 71.998
93.3376 29.4955 86.6337
91.5823 37.8505 140.219
102.099 145.435 185.971
89.3719 96.9035 176.566
78.2908 37.788 81.3613
84.2932 31.7135 89.0166
82.2543 33.2029 113.163
61.1387 72.1452 53.8828
44.4337 76.9627 87.6377
131.601 57.0999 160.133
63.2271 45.1252 98.0556
58.7355 53.3123 89.7253
79.192 79.7151 160.807
120.69 197 85.7968
90.9926 142.181 45.1349
56.0493 88.6137 49.6918
80.9725 48.0539 139.736
78.787 182.019 77.3107
113.256 164.26 181.581
120.182 116.196 183.747
69.8467 76.696 42.2207
57.0809 67.9458 59.3953
140.154 45.1217 84.2223
128.335 165.851 178.869
100.779 198.123 91.3409
67.172 38.3772 87.3175
121.637 77.8982 34.4824
92.7037 115.398 183.363
86.4022 126.679 175.642
56.2399 102.599 42.229
71.5755 44.9746 124.956
85.3392 201.832 148.529
86.0658 159.678 178.608
70.2643 101.45 30.7
83.7654 196.127 106.089
148.45 165.459 67.9172
108.954 26.4355 113.357
157.272 157.686 157.89
51.4398 74.8746 62.1124
95.5291 148.131 34.3179
