ply
format ascii 1.0
comment Created by Open3D
element vertex 280
property double x
property double y
property double z
end_header
112.402 48.5115 84.2029
104.905 63.0054 63.3985
82.9943 82.498 58.9017
93.067 85.0007 53.3455
94.9244 57.8166 31.1791
120.816 46.3478 64.5884
118.082 47.2279 45.293
99.615 45.6965 63.7971
104.14 64.1601 32.3155
106.937 44.2116 61.9823
107.341 59.6902 46.2422
102.472 77.5589 47.4227
116.105 65.7584 42.3651
94.9806 24.8069 52.2444
94.9316 74.1332 88.3419
116.279 71.583 75.2396
109.31 74.8853 80.4556
99.2754 35.3864 66.4734
90.9226 79.8085 72.1834
90.5908 70.7824 39.5929
93.4739 68.2861 92.8274
72.4751 39.763 96.2407
87.2627 62.8278 101.803
83.7959 75.674 40.2825
110.646 71.8141 53.6777
82.5487 50.4605 87.8136
77.5057 36.3335 42.5942
80.769 85.2763 79.018
71.2471 87.6786 54.2245
109.586 63.1983 53.204
76.1929 68.2499 93.8351
83.9268 61.6964 85.4711
94.1581 56.8063 102.777
102.069 66.2417 88.4174
98.9149 80.9543 74.5053
71.1317 29.2571 80.0969
118.216 73.9735 62.9876
79.9674 46.6661 107.008
87.6521 71.7549 94.0379
93.195 78.1543 40.9653
97.3064 60.576 89.4426
92.028 72.1877 80.412
83.0301 73.0054 48.105
85.8563 49.4595 53.1196
85.7967 31.038 49.0993
117.889 43.5642 71.851
69.7514 36.1423 44.7227
83.6287 44.7965 35.5328
102.363 76.2882 86.7382
101.88 53.8681 33.0251
96.5861 81.8893 63.9278
96.7545 35.925 36.772
81.3003 50.1939 42.2903
72.5134 55.7564 27.6058
100.097 49.9408 77.9911
69.7082 82.5498 88.0979
84.0739 31.6461 90.7372
81.8372 66.4931 41.95
90.3488 31.8414 59.6972
111.744 55.6214 42.3838
109.216 36.6989 68.4859
97.0794 40.353 42.4268
79.1546 64.2249 28.4786
79.0534 44.0833 94.7157
79.2151 64.9189 73.8956
111.793 37.7986 58.3079
116.402 45.253 77.5218
121.339 50.8859 75.3616
113.507 41.7968 66.4517
90.9238 62.5926 95.9909
83.2024 82.4128 88.2799
91.0969 26.4382 69.4708
76.5489 46.0203 44.7051
85.6036 70.4208 76.3906
93.5524 75.7888 50.3443
98.0037 46.7994 37.4305
110.042 39.2943 43.4761
71.6638 74.9777 52.7888
104.459 36.2369 60.8212
96.033 23.9884 60.3768
121.484 59.9892 72.2612
87.5571 40.1975 73.866
120.281 54.486 65.666
91.14 39.1899 94.6361
102.332 42.1191 31.9551
87.1671 63.0159 32.1229
74.5257 54.4517 88.1044
114.038 59.4395 89.8391
85.4995 70.9192 83.1373
86.7663 80.6747 82.5913
63.6704 53.6513 97.7189
100.221 67.4956 96.7012
115.52 59.2535 75.2864
120.872 51.4444 54.3695
88.9072 51.1374 30.7846
54.8488 75.8752 47.047
91.0596 56.5918 79.1727
72.042 69.4145 76.9715
106.869 66.7889 94.8083
65.024 33.026 92.55
94.2235 66.8867 43.0953
83.2824 38.5999 50.2307
63.9532 32.7205 77.2319
109.967 74.4236 88.1065
105.832 59.4551 89.8639
82.6004 56.8693 103.669
118.087 56.1298 57.5267
65.408 71.2657 92.0125
98.988 80.3355 81.2986
57.3444 83.6004 54.8949
109.02 38.7542 35.8821
120.007 67.5475 54.5689
77.7579 38.3568 62.0259
102.423 50.6054 71.8205
50.8989 79.8449 53.0366
89.7645 34.4094 41.8395
110.787 78.7526 61.3922
65.0953 47.2956 99.6906
112.997 48.0437 47.3824
74.6656 75.0237 60.195
62.2784 40.2791 45.4638
66.9538 49.2756 35.4324
56.5449 30.4458 77.9582
97.1803 40.4925 57.8019
58.0433 70.8622 52.0172
78.861 47.5524 54.7952
73.63 50.4433 52.5044
62.6823 89.2891 74.0741
111.017 76.7636 71.0892
66.9294 41.9098 93.9314
91.2302 40.5609 34.778
76.0904 61.5688 84.6416
100.397 41.7671 79.1656
83.0054 25.6881 69.894
81.6315 85.1602 66.688
73.022 53.9336 62.6076
109.921 60.8806 76.1655
60.1164 76.2249 75.6277
83.4501 43.9496 45.2072
56.2216 76.573 68.4079
108.579 49.2965 55.3995
99.1866 67.1448 81.6564
64.0369 28.1177 82.6482
75.4532 44.7809 102.752
72.2884 50.7585 78.5451
109.118 48.2294 39.0313
75.8065 60.614 106.85
120.763 58.4711 82.942
118.404 64.8926 68.7296
49.3155 81.0122 71.5365
79.7875 69.082 88.6878
45.0449 76.3433 69.4202
79.5827 29.6945 56.0176
76.9838 79.5092 82.0922
56.9913 33.1132 87.6617
87.5429 42.2287 60.0322
102.037 24.6742 62.2217
67.9762 72.7782 85.7253
53.7626 83.5733 63.5695
70.4732 37.1177 77.4889
65.7515 56.2452 88.4761
64.758 45.9281 79.3902
74.1799 35.6374 68.6546
73.1059 70.5861 69.0336
60.5589 40.1864 96.3177
88.0483 24.6617 57.2462
83.9396 65.6941 95.1258
84.9109 59.5313 75.9815
104.152 47.4748 83.4453
72.0183 41.7367 58.1482
81.8903 38.237 69.505
71.6765 63.5126 67.8651
103.231 58.6454 73.4935
102.019 62.9711 43.9837
73.1415 62.7985 54.5091
71.9357 76.6416 89.6074
102.986 48.581 89.9903
91.8966 82.1888 84.56
76.8998 76.5954 44.8813
87.8313 52.3303 107.595
114.118 61.2211 81.4853
69.3771 58.2312 38.7931
114.178 58.0066 35.882
75.4156 32.3653 49.8853
105.192 28.5742 56.565
60.2664 79.2254 84.2588
84.2536 57.9004 48.8366
110.139 72.9932 45.2172
44.5656 79.7588 55.0876
78.28 34.284 80.6672
80.5537 75.2197 68.5512
65.9753 89.5719 63.9271
66.6701 44.2102 51.8797
77.3398 57.6325 50.8171
103.413 84.3925 58.8432
65.9546 36.962 63.8913
88.8621 31.7503 67.6819
59.2213 46.8781 90.9347
103.708 38.0125 74.0796
56.0627 59.7372 41.7955
86.1309 58.402 41.3441
82.204 56.3645 27.9342
81.1316 79.4146 73.1985
102.985 77.4288 65.0864
83.4737 46.5476 82.7937
111.828 64.2879 70.0058
83.1068 90.0386 50.2681
71.2412 70.661 47.0864
81.2896 35.2532 100.01
73.4234 71.6105 32.0785
94.3397 63.1455 78.379
71.5909 43.9139 36.519
64.7736 40.2747 73.7721
78.5217 67.1386 102.689
63.9025 84.4101 58.9935
84.5214 42.4756 98.5759
77.9391 57.4195 73.5635
106.889 42.9354 85.6044
89.0875 48.9571 70.9357
97.3813 58.9122 38.5158
102.831 75.5805 58.4082
66.3885 72.8765 35.4163
71.0804 89.9698 68.3086
57.4118 53.0227 96.2954
102.032 69.1882 40.0544
72.8729 64.7043 59.7054
108.799 43.0962 74.6654
85.825 51.2898 77.2954
90.637 53.2292 38.9392
88.0668 83.736 42.2327
73.8073 28.1822 71.0491
69.8017 62.0777 27.1076
86.8902 89.5733 57.4659
88.6995 46.3911 101.508
70.0877 78.9871 76.9071
77.9766 32.3699 85.6992
93.1577 87.094 47.3407
64.8677 87.2322 82.9546
75.2112 70.5817 37.8133
58.7712 75.5006 59.1063
105.811 30.2095 51.0949
78.5719 34.079 75.3374
60.805 48.8636 37.4071
95.6346 54.379 70.7949
94.0899 42.4232 84.9611
76.8263 46.9151 26.6123
105.006 29.9129 65.2057
72.565 81.9609 66.7015
54.845 87.2708 72.0026
54.3834 58.3201 93.7837
104.107 37.8221 45.642
72.7793 32.9629 63.7598
68.6043 60.2821 77.3502
70.7029 36.6785 52.1791
65.2708 73.8115 46.653
109.173 52.8999 61.4988
48.49 75.0981 89.0846
56.3624 44.3109 58.4639
56.4101 57.9726 83.6231
66.9009 51.1455 50.5156
64.4308 70.4499 71.1691
77.9297 48.2654 32.0856
67.478 78.3599 56.0091
88.5384 42.3302 87.1734
56.3799 69.5699 42.6601
74.6427 87.2144 74.0128
92.0094 49.6781 93.7325
70.7849 54.2858 104.882
96.4883 51.6767 99.3703
76.2802 56.9866 65.6569
72.3193 48.2202 93.1392
65.3174 52.5713 82.7231
107.168 66.7347 40.5908
87.2346 79.9917 47.6586
80.752 45.5653 61.2966
83.2668 48.9138 65.3475
61.5194 61.6304 34.1546
48.0618 51.7247 86.7782
46.8258 74.2923 57.5274
57.453 51.6364 43.5237
