ply
format ascii 1.0
comment Created by Open3D
element vertex 577
property double x
property double y
property double z
end_header
75.7208 94.0553 110.235
57.369 63.1899 106.387
59.6132 176.892 64.1852
72.0506 129.747 69.8635
47.9486 59.5107 143.872
42.4011 51.4063 129
73.0619 119.87 85.7628
53.3657 65.1798 81.9505
45.1431 167.589 35.5218
62.0739 49.7298 125.343
52.591 169.844 62.6445
36.6224 194.318 47.8164
41.4036 102.835 83.1838
32.7413 32.1218 131.801
68.4831 46.1804 122.292
65.5239 68.7392 115.432
44.4735 33.3183 112.114
62.0852 42.744 145.247
60.4251 68.9708 76.8552
38.9537 86.9217 117.638
51.7573 96.5319 76.5765
60.4772 43.6249 132.592
54.6199 42.0538 109.903
74.347 129.581 96.3318
45.1048 150.869 69.9252
55.7898 54.17 111.637
64.5661 36.2223 122.168
32.7313 123.785 155.594
53.3315 60.4119 126.979
37.5722 177.871 56.1204
61.0469 107.684 93.6159
62.7476 111.875 88.0486
80.3619 124.075 104.076
62.9712 181.259 50.9113
65.8956 158.818 52.4592
66.3889 28.2621 126.227
41.5457 132.512 66.0556
67.2294 63.7342 91.3854
64.0171 88.9071 151.455
73.2393 127.077 107.794
61.1691 57.9888 138.774
72.6585 74.7447 115.826
61.3369 48.7093 114
56.1228 59.8218 95.1632
38.9194 88.5888 78.1256
78.2955 81.8276 96.3653
56.4877 103.944 157.327
42.352 143.508 55.742
66.3261 124.162 60.2278
48.9193 43.1079 114.152
71.136 37.2754 134.223
37.4379 197.08 64.2691
65.6068 28.4674 136.155
64.9479 116.554 150.995
78.0297 156.281 61.5473
77.8936 120.192 94.2862
35.7204 36.1262 117.392
67.5201 74.7908 102.36
36.2143 173.739 69.1429
59.0006 67.5175 116.038
64.1642 75.1492 96.1231
55.4571 76.3975 122.92
55.1629 37.1286 138.414
57.4257 79.253 146.453
48.6629 51.9925 155.186
52.6885 30.2961 145.726
68.8227 68.2967 84.4253
62.4091 55.5771 120.564
30.2538 60.1888 123.476
61.2677 34.4563 132.101
47.1434 121.008 88.0939
40.1485 25.8638 143.744
70.1654 135.371 55.3346
51.6198 59.4542 102.256
66.5532 107.501 152.206
26.376 108.742 157.817
45.0937 61.6977 137.547
68.3315 74.4027 78.9585
40.9055 79.3186 79.1399
31.0348 57.1117 148.704
48.7408 82.7749 75.4121
41.3741 21.5903 134.985
74.4566 101.306 98.8
48.6277 67.1656 111.34
39.7239 114.343 156.711
54.9033 60.6985 136.971
61.1972 63.6932 84.7824
76.5895 76.8486 105.021
66.9717 124.679 68.1917
53.8096 172.711 71.4583
66.6316 122.305 96.8043
34.8419 171.527 59.3537
28.9308 103.518 166.082
65.1749 81.2221 125.912
49.6648 66.9439 134.445
63.2923 104.428 158.017
48.353 111.75 108.938
46.1951 163.791 42.0568
76.8528 100.347 115.517
36.476 98.8777 113.348
51.8164 83.0478 89.9318
73.8866 81.3478 84.6398
35.099 115.359 168.735
68.3553 82.1233 85.1847
64.6827 83.9087 154.948
56.0101 38.553 117.338
53.5026 88.1235 74.5923
40.7603 46.2584 110.413
79.2964 117.84 85.2893
45.7523 163.572 66.3588
45.8584 21.464 127.883
81.0638 114.229 103.725
51.5583 83.5193 134.296
55.3266 20.4859 127.175
43.5471 71.5745 161.058
64.9694 90.1508 159.983
70.8473 100.847 118.947
68.7924 94.516 116.934
51.9406 100.267 102.772
59.045 85.5606 80.1039
45.9422 146.181 62.1585
70.7119 145.61 76.7712
55.7926 125.912 75.2385
59.3835 85.5699 140.047
61.1206 77.0397 105.514
61.8915 39.5958 113.959
42.6857 70.4353 131.791
57.8909 84.9019 90.7767
63.5579 32.3476 145.901
79.4977 104.592 105.101
46.5651 29.8087 145.883
58.6874 106.708 117.478
52.7431 127.034 92.2809
44.8394 74.1404 78.2802
38.8951 111.916 82.8945
62.4396 95.2284 158.929
59.3417 76.1584 71.3201
78.2363 140.623 76.0469
59.6792 96.5702 120.789
24.1033 109.03 149.182
27.3654 51.3427 139.483
37.5504 70.5898 92.8034
51.1448 196.428 60.8488
57.0319 91.8106 98.1282
38.1489 49.4417 152.144
53.7063 111.017 77.6213
62.2557 87.5739 97.8254
60.403 131.697 78.3577
68.6915 139.787 46.337
57.7044 32.2189 113.444
63.818 142.304 73.0839
63.2191 61.6286 95.5886
62.6159 150.903 52.5779
55.5904 25.5536 117.196
27.1039 53.2361 131.013
37.6666 108.865 169.003
36.7357 74.9636 148.26
76.6366 153.334 53.0537
53.9641 125.366 154.243
73.1468 117.504 102.785
64.6836 51.2578 132.926
71.0455 84.8746 117.745
51.3499 179.937 74.6234
59.4863 123.967 48.969
62.0788 173.893 57.4417
70.3411 119.04 138.966
37.336 95.5373 82.9241
57.7774 95.193 170.331
44.5631 83.8904 88.809
56.4213 144.595 84.6973
56.7654 114.845 93.9781
46.246 90.7228 79.3785
69.3785 45.0705 142.949
56.0011 86.592 168.935
43.7399 106.02 133.688
62.4559 101.109 99.7649
48.8521 90.8549 177.122
36.0482 179.055 37.3949
79.6375 122.8 114.008
31.7556 193.426 54.5606
70.6174 103.46 134.2
30.0089 114.432 143.928
49.7685 41.5594 147.429
56.6825 100.023 131.782
62.7231 94.0883 103.134
58.8075 164.554 53.4348
75.319 74.9753 88.0791
32.9732 36.4059 138.897
66.6551 67.2969 105.461
48.4928 101.932 166.334
46.5341 185.887 74.3515
56.6754 113.73 83.9311
42.4665 95.5188 78.8952
28.3451 177.604 48.6809
70.7021 147.824 46.6963
38.4426 108.058 137.581
61.529 84.1833 167.624
48.3992 123.909 148.557
47.4121 20.6972 137.332
68.8986 95.8366 139.141
47.8267 117.506 148.917
70.9545 94.6561 148.344
52.2832 181.521 57.7385
24.3775 43.1474 141.905
69.8867 100.012 84.7883
75.6924 126.941 87.3551
56.9559 53.7629 126.555
73.7725 158.246 66.7598
49.0138 29.8912 116.504
50.2268 130.159 54.1777
66.5573 35.7518 138.248
38.8442 106.278 111.699
46.6942 73.8295 95.6774
51.4189 184.932 40.4833
31.6135 47.7356 128.112
69.0217 158.74 72.3304
58.3393 66.0095 92.1656
39.3982 61.1108 148.409
37.436 174.892 44.9395
52.1562 71.9669 156.016
59.4135 23.2428 134.271
66.5144 112.456 133.259
46.1464 101.06 107.332
34.0442 78.5769 84.1358
68.2376 56.6851 138.779
51.0508 74.4812 149.492
53.8777 151.119 59.5195
40.3292 58.1337 115.786
40.8577 40.6956 133.453
25.1174 92.6971 138.658
71.8558 141.85 72.4222
53.3659 87.1494 174.42
46.373 79.3921 102.173
36.9869 64.2002 121.77
57.5978 183.162 60.7739
29.4451 68.2954 136.317
39.8331 115.543 170.963
63.7273 106.649 80.5369
38.2429 38.0019 148.261
48.0608 23.819 119.477
42.7926 32.4892 123.94
34.723 79.7874 94.7699
69.416 151.947 68.5765
47.569 91.0629 107.971
46.4322 83.6205 117.433
76.02 138.941 61.0973
56.8648 159.705 66.6804
63.9333 100.925 144.406
64.7651 99.2777 123.162
44.9551 27.1449 123.943
77.4765 107.023 95.8757
53.0988 86.9257 101.876
54.202 91.2592 121.765
56.3644 75.3622 151.889
63.1004 99.586 136.002
38.2017 108.577 178.266
28.4324 178.752 70.1065
50.5957 100.798 122.464
51.1914 127.746 112.655
52.3917 125.87 139.433
51.6045 61.6155 120.681
52.3254 75.3806 77.3532
41.8941 71.8958 103.907
43.5585 172.72 77.7261
62.3604 157.31 63.0603
61.6434 112.025 99.6864
61.0198 127.625 149
72.0514 81.8628 104.963
38.8069 76.1851 99.5195
46.8902 137.471 49.3877
46.4726 187.625 37.2943
46.8601 66.4144 126.177
77.6544 112.532 92.6018
54.4457 69.7736 112.229
58.0616 139.182 44.3176
61.1745 148.067 84.8174
45.5692 193.443 71.6218
41.1104 103.12 156.058
40.3449 97.8305 96.0999
55.1973 147.809 49.4536
34.2701 53.4363 121.04
51.8003 155.94 72.3915
53.1698 155.926 63.7436
45.801 113.327 85.2976
27.1054 110.461 173.629
48.7527 115.564 157.987
51.947 106.097 137.05
36.6076 72.4679 84.5431
59.41 108.723 160.601
60.7837 94.1876 84.2768
71.5383 49.3947 126.221
67.3022 40.7158 115.738
55.3353 131.41 108.228
48.3018 190.882 60.753
57.9069 165.167 42.1123
40.961 102.406 173.963
64.6386 110.8 158.542
71.6312 52.4874 134.803
59.8317 136.78 101.67
44.2773 111.972 162.285
67.3872 38.4935 145.983
60.7087 98.8426 81.0736
64.6914 84.0743 109.01
41.9343 190.439 46.3484
59.1376 124.149 97.5226
70.2054 39.7053 125.041
35.7788 47.4332 117.344
44.0575 79.3784 134.148
51.4628 104.842 176.116
73.2663 103.073 142.832
46.5709 141.152 70.5532
62.4825 154.917 79.4339
63.1998 138.55 64.8931
75.5743 92.8834 98.5083
44.464 96.7133 164.379
59.9605 94.6128 148.363
57.3593 93.4188 132.448
57.2905 179.279 38.6792
52.9817 118.803 156.662
49.4207 77.9723 82.4592
63.1276 88.7877 144.529
50.5945 40.0307 158.861
49.3374 175.578 31.734
64.627 99.3055 154.684
38.3924 168.086 43.5883
63.0643 130.762 105.93
27.8786 62.7319 140.841
41.675 195.408 53.1387
52.3369 96.3231 84.4014
46.8126 117.749 165.561
57.6371 132.138 46.4575
69.0179 91.1243 95.145
61.5967 71.8125 91.2632
54.9694 107.665 171.136
54.8684 78.6629 137.528
47.6365 86.4812 170.773
55.3585 152.006 79.9519
45.3703 94.5442 178.656
68.016 131.194 47.0321
59.1638 105.798 79.4636
56.7322 104.409 88.2086
51.6947 94.5263 116.725
54.5741 193.891 56.2303
69.5894 148.776 55.4958
27.5783 80.9152 165.169
57.4559 140.424 63.4147
56.5714 125.729 109.293
61.8949 113.346 122.266
31.3575 48.8573 158.6
74.6633 122.085 59.2647
73.2746 88.0608 103.695
57.0184 154.896 54.4318
52.0087 113.93 117.588
45.6881 101.126 172.434
33.5979 24.5554 137.314
50.8262 140.335 80.1957
30.9174 97.6092 176.797
30.8513 45.3444 149.188
70.8294 99.5493 104.558
43.8745 56.3505 157.407
37.2472 99.6447 178.082
46.516 50.7469 148.418
40.471 85.4778 157.023
76.547 86.4947 99.3361
58.5079 81.204 116.324
29.7575 39.5932 144.828
73.3062 81.6577 92.1884
42.735 179.815 75.5075
58.4107 107.262 108.644
55.4692 54.891 120.604
43.3154 165.446 58.9661
58.3214 33.8236 149.277
61.628 111.684 166.369
63.527 30.2708 116.582
49.585 187.407 51.6345
67.3715 123.279 74.5663
34.1497 29.6347 144.548
52.7371 186.413 70.3106
47.9317 77.8715 139.769
27.5826 96.9212 151.906
60.2174 95.6869 139.669
46.8094 84.9246 96.1398
53.877 136.089 54.7522
42.0086 71.8121 112.423
39.9224 85.2417 177.662
62.238 125.993 74.348
44.3255 166.026 74.8477
52.4495 52.9482 132.741
21.7888 92.404 162.178
35.7872 68.7642 131.016
56.1774 95.2372 91.7368
71.4426 133.299 110.296
53.2232 177.286 60.9372
33.408 113.415 159.004
60.5639 157.793 51.5033
58.8405 122.8 158.233
48.7594 47.9195 139.117
25.8706 41.4579 151.148
48.8536 73.2142 116.506
43.7646 117.819 153.947
46.1099 196.869 62.879
32.8464 76.5446 161.434
28.8589 84.4141 141.654
62.6463 178.771 42.7168
47.4271 64.9638 104.734
63.5003 122.026 153.59
47.2079 123.705 65.6639
50.7462 119.578 113.473
52.8603 118.388 163.08
38.5144 191.011 41.4378
49.3543 79.88 172.954
52.7198 120.002 105.305
72.9704 101.53 152.116
37.8297 90.7371 111.249
52.5422 76.2 140.948
41.5711 53.5215 110.778
46.9724 84.3188 128.696
34.03 85.8644 153.642
62.719 118.505 53.3559
44.731 62.8076 98.2613
67.4091 150.015 81.801
47.8038 106.78 80.1479
69.2218 98.5882 153.689
62.6948 99.9086 165.349
48.9843 96.4071 174.224
28.8602 84.1447 151.261
47.3067 37.1854 153.367
59.7881 101.263 116.556
62.6505 161.061 70.2495
37.7292 51.6573 161.797
40.9809 101.017 164.87
53.332 119.526 61.2172
50.3665 134.577 77.6777
40.2405 79.8886 106.689
59.7151 99.6635 109.381
46.8294 106.432 117.374
66.0845 90.1042 108.78
23.2939 86.8857 144.952
32.6338 74.8275 154.828
56.4768 134.952 76.7516
43.1017 183.52 44.1627
66.8658 152.021 63.732
56.4564 184.35 52.1258
39.2491 92.8897 90.9923
33.2236 81.0986 138.105
73.7908 98.7602 139.043
45.1723 102.488 112.555
47.2666 49.2132 162.106
37.6067 93.2759 179.437
75.932 134.436 76.2508
55.4111 101.089 172.356
49.6501 40.1973 140.833
60.5064 142.98 56.8223
59.2401 89.4606 159.848
66.4902 107.442 112.694
47.1283 73.4608 88.7092
58.2844 185.265 46.1152
41.1582 107.329 90.4164
60.5135 110.169 131.853
37.0585 83.0993 132.3
50.9068 124.892 73.8147
53.8401 110.978 164.398
44.833 74.3176 169.863
34.0714 103.867 138.973
51.0354 78.1036 119.248
49.9941 67.775 90.0303
33.6942 189.096 43.1358
63.4745 117.838 63.1111
31.6873 95.1055 103.062
31.5259 43.936 136.296
73.7029 158.006 56.2003
67.7193 159.777 61.1836
67.5311 125.02 121.157
47.8895 194.804 53.6494
58.535 118.223 133.155
36.1051 102.202 106.321
50.7011 30.555 131.465
45.3048 36.7758 119.134
37.757 41.032 123.942
41.7617 31.2604 147.976
27.7955 97.92 161.81
42.9197 105.991 99.9177
65.4616 105.434 104.02
39.8163 65.9932 143.871
24.5162 56.6307 149.066
44.9573 108.198 149.285
66.8154 89.8626 123.462
55.8955 113.493 106.599
53.0517 123.141 52.9833
55.3975 109.989 132.791
67.2409 67.3299 98.8868
47.8717 57.4272 115.737
51.1186 97.9903 108.027
59.0874 86.6357 155.23
32.5665 82.436 101.942
47.9731 96.9315 129.71
57.8472 154.291 71.7333
39.5886 96.0086 129.905
69.0737 125.472 47.0828
37.0784 83.6078 86.626
50.3295 160.192 49.1785
36.5195 44.1536 130.732
47.9249 105.703 90.1085
71.7664 154.236 79.1016
54.0345 190.928 52.6362
26.4161 181.226 59.0172
48.1721 146.829 47.2985
47.0449 112.272 141.367
40.3922 76.8702 160.855
46.7601 91.4731 120.071
40.2014 184.448 78.6597
69.6452 97.977 91.7941
48.7027 177.982 58.9091
53.1131 132.26 97.9916
59.3068 127.905 141.869
77.078 114.947 109.132
29.8344 175.46 58.2553
42.1629 80.2233 94.2605
34.9954 99.8886 94.2894
77.2742 113.449 116.417
41.8293 169.606 49.7615
50.906 185.254 45.986
70.9925 110.475 103.165
60.0194 115.617 78.1363
46.5562 88.7034 163.178
39.5289 110.601 144.404
64.2829 124.268 117.883
52.1139 141.166 59.5684
46.4701 77.9117 146.39
48.355 137.793 61.6586
60.056 99.8427 159.619
60.8336 77.2526 77.6686
52.0715 118.583 75.589
44.2059 80.7313 111.907
60.7128 123.37 102.894
59.2004 29.5468 133.255
72.6026 95.6388 95.4291
45.761 129.674 76.5001
42.8332 98.8204 122.479
68.9108 86.1355 93.295
34.5932 77.6532 170.773
61.028 125.899 121.566
74.138 98.6758 92.2722
54.6898 188.498 37.865
55.535 86.2435 160.591
57.3576 107.786 165.763
52.8967 74.5065 164.393
42.9893 76.3332 110.753
22.2117 110.135 163.866
63.056 75.6087 85.5418
37.6353 102.692 101.376
21.9127 99.4479 166.128
49.5974 112.456 92.4917
44.9135 132.148 56.152
49.7359 89.8524 96.2908
65.4133 101.301 83.3905
30.4354 107.871 173.816
66.3439 131.966 116.446
52.239 126.935 105.616
47.0285 162.326 55.1109
36.8436 95.7436 103.205
36.6445 115.638 143.572
37.3741 102.535 134.422
27.0213 117.549 162.91
25.9586 86.5771 170.507
47.1701 76.7896 162.088
59.2593 100.018 147.839
42.5566 78.0673 141.955
60.5057 76.0489 110.857
67.5613 100.525 159.684
42.5918 130.966 52.5415
52.147 162.981 56.5961
49.0616 111.972 167.802
62.6574 124.127 142.584
36.7571 99.7455 121.11
56.1343 113.278 70.0125
36.5646 98.012 162.728
