ply
format ascii 1.0
comment Created by Open3D
element vertex 1335
property double x
property double y
property double z
end_header
201.265 58.5266 141.286
190.252 37.9724 109.921
194.834 113.886 108.091
190.398 123.822 86.4503
178.451 70.0721 178.032
209.632 62.8771 108.415
192.591 57.4319 141.975
212.897 76.2702 134.589
184.252 153.635 157.548
189.698 176.172 116.339
168.073 34.774 179.482
187.099 78.4018 73.0449
143.628 141.039 32.4625
204.228 113.516 114.797
210.527 99.6496 146.494
202.71 146.553 148.263
195.797 108.447 116.498
181.246 181.331 118.572
190.46 78.6292 144.781
187.184 143.382 155.081
182.052 129.696 132.44
189.965 164.372 130.256
200.256 131.67 160.549
200.367 162.91 130.588
170.429 31.0695 135.182
160.592 42.5641 156.089
160.321 96.7171 197.714
152.778 161.96 40.3799
185.035 165.848 101.939
151.759 24.4639 119.707
187.953 147.507 87.2046
127.423 186.734 156.288
192.377 78.036 108.611
206.877 53.5778 119.041
132.455 162.911 172.902
189.086 111.213 69.2047
192.113 76.4347 56.86
213.801 118.84 132.226
215.762 102.594 134.181
186.851 66.444 181.648
201.299 46.3124 93.6483
198.802 72.464 149.665
142.917 130.641 52.1135
208.458 110.55 129.953
193.36 157.029 131.331
206.846 126.461 120.633
196.874 124.396 126.687
195.291 139.578 125.701
181.378 47.8511 56.2884
204.627 145.845 123.312
191.717 127.804 78.3131
189.337 171.192 125.873
189.218 148.482 105.716
178.904 166.428 85.5407
209.085 68.8651 115.751
199.282 77.0245 88.7089
188.04 60.2982 62.661
204.722 121.769 137.128
168.596 152.742 59.3771
157.756 171.938 72.0422
190.822 147.616 162.218
157.507 160.336 47.116
139.373 197.427 148.068
169.451 80.1249 185.92
149.864 199.223 138.616
211.207 56.4462 97.1258
187.643 106.76 166.339
200.361 118.589 158.283
208.431 71.9666 128.03
179.178 47.7366 70.972
211.629 105.387 140.682
198.379 51.3941 134.251
188.347 64.2004 171.856
206.244 135.831 137.544
201.442 78.8644 96.93
176.07 72.0659 54.1724
165.329 175.324 86.0834
186.885 156.341 121.056
199.791 70.2297 99.8312
201.744 137.964 121.015
200.367 98.1616 69.9383
161.623 92.2927 169.588
192.093 129.368 104.475
198.915 44.8134 123.618
186.888 157.375 102.618
202.723 152.981 134.288
179.284 160.184 80.1071
200.869 48.8986 84.4575
213.253 93.45 140.576
195.853 162.477 115.094
185.728 56.532 161.02
203.744 154.353 124.719
201.305 55.6287 81.0205
140.484 104.142 192.098
200.31 90.4602 121.391
180.921 107.652 71.8191
206.529 143.198 131.129
181.837 63.4962 52.1487
152.135 153.714 37.0808
192.992 65.0015 149.046
197.869 140.184 160.321
208.67 135.645 150.668
187.564 154.62 91.6709
156.323 29.0919 61.4264
183.539 59.0169 133.698
196.95 141.393 110.12
199.603 82.5186 170.234
200.993 93.305 144.184
148.861 96.1021 208.641
192.949 77.6884 173.831
154.513 185.854 153.721
170.545 155.025 91.6041
171.034 132.224 168.169
185.41 75.8632 116.477
203.578 130.147 128.967
195.663 42.4177 88.3269
185.699 153.883 83.4091
209.412 116.196 121.399
178.704 83.0307 71.6643
187.938 40.7331 123.002
181.796 173.504 122.109
149.94 178.346 156.917
145.149 132.509 35.3705
202.729 101.646 144.323
185.752 64.3761 162.365
160.191 29.1037 86.7543
167.521 137.91 53.8624
193.254 129.314 164.372
171.684 41.9684 157.03
164.437 74.18 199.472
202.764 163.336 121.987
173.625 47.8982 197.734
175.411 105.263 175.03
198.782 149.858 109.42
183.954 97.1372 91.8671
187.169 162.465 86.3967
154.049 195.818 109.137
188.452 57.7203 181.031
174.42 49.5045 154.843
201.232 83.6811 139.76
155.617 136.192 47.6684
151.146 28.7368 78.52
196.055 73.4089 166.705
200.585 85.6345 84.2252
192.33 68.8608 76.3824
203.031 157.576 114.155
196.282 84.9353 132.095
157.437 157.129 77.8768
177.066 86.804 129.163
203.031 62.1369 85.5282
202.945 63.1486 117.83
207.853 145.045 138.96
124.75 146.133 177.634
191.981 172.353 135.564
196.978 92.6272 65.5064
177.108 152.893 78.9741
152.774 165.704 53.7838
157.344 148.205 65.6204
198.965 78.2513 73.3377
172.752 55.0539 179.382
154.237 82.9359 203.946
182.901 101.305 170.192
181.11 39.6647 111.525
190.422 62.7761 156.203
158.076 74.0481 192.889
204.749 50.3982 128.694
209.222 63.1637 91.8203
150.09 142.304 39.4154
195.539 121.99 73.9394
206.19 117.135 149.498
190.997 87.9551 146.812
158.161 149.467 56.6898
174.954 173.591 81.9868
155.6 152.754 46.6674
197.888 40.7973 98.0949
207.201 125.887 149.749
191.022 104.23 133.882
190.027 38.6406 74.2779
199.051 90.2388 165.7
202.339 46.1003 115.498
179.043 96.7445 161.586
197.287 153.214 124.322
197.559 94.1426 113.76
167.473 44.1111 135.822
191.018 98.2713 111.167
196.349 54.2628 117.279
156.633 147.485 41.5871
207.976 127.087 142.118
185.367 48.7177 172.267
190.014 93.5895 103.829
186.892 85.0616 180.234
127.924 197.937 122.579
130.94 104.338 186.078
180.918 160.152 141.005
180.982 110.044 158.42
174.04 186.416 120.915
193.613 126.192 116.944
217.416 96.2522 130.175
184.244 71.2205 167.17
154.912 196.503 97.1118
181.892 143.693 103.121
206.941 87.9332 118.211
188.98 43.2711 130.995
188.022 138.495 161.779
150.449 193.494 151.767
203.91 83.3918 147.455
157.081 20.3259 109.69
174.371 38.611 178.052
179.772 41.8407 172.672
154.885 187.448 92.5884
139.947 193.221 139.814
156.165 184.432 78.6004
195.518 76.0084 66.2493
162.749 156.871 122.893
143.556 102.86 203.579
208.202 116.99 97.8762
178.179 97.9514 101.162
163.899 36.6285 138.007
210.244 68.7118 83.45
159.305 69.9422 184.368
156.139 38.1521 128.115
187.843 47.9982 188.112
192.245 142.557 134.972
193.837 121.17 147.147
214.832 119.826 139.977
195.648 123.856 98.8628
175.787 145.737 157.519
140.924 155.299 34.4274
191.078 76.9446 164.442
185.826 52.6132 60.9186
192.616 112.955 95.9072
211.606 55.9653 70.3758
205.372 92.3321 112.004
160.618 108.303 70.2036
144.354 197.33 89.8073
207.208 106.414 120.253
137.699 172.549 151.329
190.758 133.371 84.8684
196.141 44.7174 131.573
180.153 88.0957 63.1933
197.11 154.456 143.828
207.998 98.7078 112.173
153.288 146.416 33.6422
207.111 61.0055 125.693
160.926 158.143 62.8323
137.063 124.816 50.7974
179.968 159.111 127.577
194.072 65.4156 57.2675
203.743 85.0271 76.2487
122.449 150.589 43.5023
170.03 51.0831 170.817
164.352 181.55 80.2258
145.382 23.6429 127.775
129.388 23.4526 119.215
152.091 129.333 53.3285
152.93 96.6696 180.617
214.423 100.795 109.185
200.408 130.156 117.659
150.08 170.151 152.58
141.23 160.276 61.0861
190.604 86.2486 107.953
144.983 57.6552 165.308
171.503 29.4379 120.722
195.942 78.4885 81.6056
206.182 136.624 128.702
171.243 141.111 69.126
177.352 48.169 167.399
212.708 131.902 133.49
188.655 105.49 78.2756
137.575 178.674 75.9969
195.191 136.171 166.456
199.326 147.771 138.454
146.574 20.7787 111.53
181.112 38.2829 129.848
191.118 122.678 161.573
204.587 130.025 155.045
182.221 152.201 97.3378
135.532 160.872 38.8498
134.194 148.345 176.474
170.882 163.245 84.1966
181.091 182.568 109.952
197.46 171.261 121.027
190.527 108.75 106.378
171.039 180.816 113.897
190.61 36.8418 100.871
178.97 60.9461 167.013
177.808 142.468 74.6851
187.878 148.293 121.501
167.447 97.9318 189.473
135.909 166.933 55.9543
205.445 94.1556 75.2942
145.926 164.995 67.9245
202.56 82.9936 126.832
182.574 42.1346 84.041
200.814 107.483 130.422
146.781 150.224 171.261
130.995 154.454 34.1425
163.311 151.188 49.9644
164.874 27.6857 142.349
208.92 66.0088 133.68
167.44 147.879 67.2583
192.853 116.905 82.9365
169.167 190.655 99.6968
193.954 111.126 126.657
183.359 135.821 70.1051
180.96 158.756 113.956
180.044 71.58 108.338
110.549 157.053 178.655
155.472 187.978 120.42
146.53 200.404 102.113
143.72 29.3609 75.5593
195.889 157.492 105.976
143.031 168.568 50.3191
173.004 171.429 144.22
202.751 55.9554 110.847
180.234 131.031 85.7755
200.742 60.1022 102.105
172.704 126.326 102.271
170.612 54.2314 61.052
185.36 145.082 95.8324
210.428 140.166 144.343
197.308 127.305 154.106
117.898 182.433 152.984
192.156 135.906 114.028
187.128 134.592 76.1826
192.996 52.6753 80.9955
148.267 171.998 73.2328
164.491 94.5614 179.966
155.586 140.82 75.8616
201.311 89.562 90.9835
162.309 97.8112 75.1371
165.218 89.8217 195.45
149.774 167.064 45.4185
214.302 129.88 141.901
139.436 200.045 134.503
175.032 45.2202 134.496
177.569 39.3398 185.643
200.261 68.8514 72.0441
192.601 65.6446 135.219
169.247 174.77 75.2426
135.921 147.296 32.1128
186.02 128.075 66.3477
185.63 77.1024 181.134
158.344 87.0292 177.006
190.224 97.6699 130.15
215.501 111.845 112.501
179.519 104.096 63.5658
178.94 170.917 91.0773
133.334 198.572 141.042
150.409 110.526 188.49
172.804 38.2339 111.207
176.016 50.5504 126.29
157.159 33.8694 136.623
188.739 70.9712 157.594
191.68 84.5297 86.5053
128.763 195.082 101.038
202.169 99.7386 100.53
202.272 41.3589 106.384
175.156 31.4274 128.016
194.594 64.0547 84.1878
144.704 148.986 34.4993
158.771 27.6402 74.6263
143.437 111.495 196.076
156.708 40.9569 164.665
208.774 78.6456 86.7015
187.978 165.834 117.1
171.408 167.871 138.185
175.175 36.4503 167.803
162.611 39.1723 129.522
199.448 80.463 158.747
122.237 116.11 51.0043
202.071 127.452 107.596
169.922 30.1145 113.668
147.408 156.532 51.3398
200.259 62.9034 130.28
184.671 122.247 137.406
195.588 76.7657 117.533
175.572 95.8021 80.9441
182.631 97.0859 71.9401
166.506 73.225 180.243
188.054 146.157 129.004
194.199 130.954 69.836
164.258 36.981 109.442
157.853 65.8937 51.7416
187.038 112.194 77.7962
189.176 109.371 152.909
173.274 108.663 166.467
147.456 192.701 144.364
197.474 119.004 117.04
179.114 163.95 105.788
206.281 119.896 128.662
184.679 83.9254 151.328
182.606 46.1016 135.303
168.795 43.618 76.01
204.673 100.242 126.016
179.888 74.6232 156.598
177.779 135.809 110.786
196.57 39.5575 78.4923
167.283 36.1399 170.317
167.646 174.14 102.017
160.187 76.4004 56.9056
194.612 89.5485 96.8133
181.577 124.482 104.041
202.82 93.6644 104.776
196.076 56.0604 89.1505
184.114 90.0821 73.4008
187.575 53.816 70.1612
203.64 60.5973 71.7573
144.303 122.756 56.3989
200.86 107.002 96.8354
198.99 147.194 155.791
177.74 96.2676 61.7454
187.573 104.126 97.0911
170.487 56.7553 143.41
192.938 99.0078 89.5267
203.26 93.4866 81.7058
198.918 112.818 90.0432
184.649 134.852 171.898
188.064 114.712 166.096
144.718 166.68 56.7423
166.433 184.297 107.904
172.689 55.7532 150.385
159.185 131.911 72.5347
210.179 125.984 132.41
147.294 157.444 84.9946
198.604 98.919 150.242
174.339 45.5243 107.926
206.4 106.733 108.968
184.627 64.1761 99.5174
139.345 109.596 181.081
181.01 55.4974 152.613
172.067 71.448 157.176
183.936 162.79 94.1232
178.869 93.6615 177.048
191.975 173.266 108.893
201.819 54.0775 95.3591
199.987 83.7282 68.0615
169.023 168.821 66.8493
205.139 70.0779 107.007
170.94 47.0363 178.552
201.479 68.5388 91.3312
190.25 66.4112 91.4213
209.201 89.853 135.019
191.154 68.5221 114.137
129.337 94.9417 189.915
204.91 139.803 155.696
138.945 115.834 57.6905
184.698 76.53 59.9877
178.137 79.5083 174.484
128.246 96.0468 47.9703
170.794 84.0442 194.774
151.608 90.8799 202.39
205.671 57.8193 132.823
171.005 118.405 145.992
180.492 45.5719 99.3478
142.424 166.206 40.8748
204.068 108.212 140.9
185.213 179.124 104.025
189.022 117.224 117.388
187.812 94.477 172.834
137.416 205.832 100.839
181.654 115.998 82.6688
179.579 78.2973 98.1812
184.916 127.47 168.433
208.835 50.7383 77.8517
194.843 145.263 118.066
200.661 92.943 135.841
186.197 119.343 98.5415
196.58 98.472 77.8386
187.812 126.787 123.446
176.362 181.144 126.421
130.834 129.727 179.917
175.676 54.8814 166.045
206.01 122.932 101.26
181.651 107.77 85.9552
131.165 111.58 54.2014
166.944 67.5021 52.3349
152.832 113.91 174.134
132.505 181.944 145.025
188.438 138.959 123.049
175.567 44.7886 191.699
176.905 135.422 79.3447
181.641 165.633 123.437
192.166 94.1415 138.326
128.448 189.082 119.836
143.679 95.6264 50.3206
180.649 50.7671 159.407
140.215 123.887 182.627
213.326 109.216 103.932
207.498 60.1033 78.8921
185.467 67.9322 81.3757
162.606 168.469 125.457
206.502 51.5068 69.5697
137.117 98.1345 194.885
147.526 183.2 83.9865
175.05 179.706 104.742
182.821 131.291 146.03
201.105 122.045 149.437
143.136 144.012 177.396
185.033 88.2867 96.4335
181.719 61.9552 184.141
193.609 81.582 123.108
144.925 103.615 53.6074
167.875 188.15 127.498
203.948 90.1164 69.5262
206.875 55.5858 88.4582
185.982 138.025 139.006
142.175 90.2498 205.284
108.049 151.336 172.647
145.595 84.401 199.002
186.461 93.0535 181.89
120.814 126.507 181.293
148.611 112.658 179.988
189.548 59.447 125.349
159.723 26.1459 122.289
177.857 75.6392 123.971
176.843 60.0893 60.5563
193.79 44.1382 104.439
176.34 74.5237 62.7315
179.544 52.1839 194.052
202.514 42.456 81.6727
186.426 103.201 67.5443
167.634 136.243 81.0368
123.951 179.944 56.6524
168.897 38.8554 192.733
174.268 91.2631 193.152
139.595 133.449 39.6231
208.711 86.9919 127.265
199.204 114.181 145.955
166.445 49.5767 156.615
163.648 192.56 106.315
200.991 114.679 138.419
144.935 34.7018 54.7684
214.077 122.146 147.624
151.962 176.394 148.28
184.441 77.8056 170.848
175.86 156.858 99.9485
149.859 190.229 127.619
171.764 65.994 58.4129
156.154 86.3533 196.216
135.809 198.878 96.1024
154.731 49.5456 160.298
189.99 109.303 89.5361
128.36 201.464 134.295
195.584 163.125 140.68
153.967 75.8455 48.5583
188.734 83.7855 115.04
182.195 132.453 122.728
176.854 151.541 125.147
180.048 148.019 85.1081
173.301 95.8272 183.061
161.517 81.8985 201.27
195.092 59.9634 108.565
183.981 102.948 161.273
158.493 50.7863 151.795
149.387 38.9311 168.685
200.59 140.819 143.459
183.527 83.8304 82.027
180.628 62.6013 73.8687
129.486 188.433 138.84
129.176 122.705 180.97
190.04 51.268 135.144
147.709 77.4233 201.671
200.377 58.546 66.364
158.878 45.7198 188.413
136.346 82.0508 193.674
193.78 95.0576 146.198
159.407 189.085 147.827
149.342 104.106 197.021
173.355 131.684 146.612
178.52 125.547 67.1448
202.404 118.206 105.876
168.697 170.556 92.2302
123.924 190.381 148.492
189.346 95.3932 164.564
124.061 164.183 167.799
182.78 90.3219 104.393
170.215 64.5246 179.681
168.135 124.586 72.6355
178.247 54.9741 53.894
160.026 144.019 51.5987
134.644 156.207 176.736
154.807 164.92 158.122
156.056 56.6549 124.779
193.139 49.8095 94.7024
126.106 168.128 50.0801
146.254 114.621 54.3553
190.453 86.7946 172.604
174.846 43.5228 122.449
192.18 145.614 143.722
155.908 120.636 169.884
167.106 81.8349 166.485
138.575 185.597 134.081
187.59 62.5979 107.31
195.281 60.8188 76.012
214.599 130.439 149.869
161.802 45.8358 51.6269
183.978 81.7715 159.205
190.661 49.8449 125.173
161.688 105.806 183.796
162.995 183.139 100.672
202.489 80.1301 120.397
133.132 179.934 56.5144
187.81 44.7987 68.0874
195.137 72.7274 130.607
151.056 159.461 62.1952
168.46 37.7927 66.7672
151.696 157.498 160.122
166.774 141.599 168.07
172.084 100.814 62.6369
190.142 172.38 101.566
159.343 171.2 148.512
141.219 126.261 43.2933
156.567 181.931 146.805
200.731 116.584 131.453
151.953 49.1165 193.216
166.5 50.7612 200.34
143.023 165.042 156.158
187.317 120.322 74.6714
121.635 160.429 175.089
172.606 156.482 150.245
166.745 58.881 182.419
156.498 24.9155 129.629
135.138 163.128 47.2469
175.129 139.837 173.053
171.725 165.138 104.632
134.393 171.708 42.7393
184.674 56.0211 173.276
112.103 164.233 166.851
181.147 102.676 153.115
165.02 188.32 118.723
198.959 138.014 137.108
180.89 95.5304 152.245
164.126 22.8869 133.476
187.436 40.964 94.2796
192.075 85.2057 71.577
123.047 178.928 65.6622
155.903 188.955 84.8418
165.337 189.66 91.8335
185.727 72.5285 101.93
192.487 77.1756 134.92
175.065 145.281 166.735
135.01 173.913 50.3914
157.256 168.071 83.0776
147.875 132.124 45.066
166.193 142.945 61.2513
153.894 75.7097 207.888
161.26 179.142 94.7711
207.127 64.9134 101.05
181.646 112.374 63.7647
178.247 68.6522 161.786
178.322 120.108 143.797
196.34 93.3076 84.5931
181.073 79.2578 144.253
140.097 152.448 56.9172
189.874 126.908 151.201
130.373 127.462 44.1553
210.029 116.727 107.932
145.048 67.6571 192.618
198.456 72.9592 139.043
164.557 154.37 111.243
185.134 131.483 155.226
174.389 73.8166 183.555
158.229 51.5293 200.132
194.09 98.9439 122.767
163.993 43.201 173.313
187.127 71.0067 52.7981
161.115 174.082 135.831
167.931 159.998 76.9033
160.978 106.077 192.811
177.304 119.256 96.7206
157.527 185.782 111.701
159.402 162.074 140.911
187.849 109.957 125.881
199.079 147.237 129.932
123.76 172.132 61.0189
188.637 45.7179 86.8828
154.336 150.89 163.076
174.749 146.217 81.7533
211.804 92.3508 119.961
116.656 187.544 142.21
140.676 34.0643 134.159
174.312 147.509 145.665
144.375 67.2706 47.8995
213.962 111.14 135.568
158.973 37.9525 191.081
158.27 135.779 55.1264
192.851 76.4836 153.608
196.34 57.4272 58.2233
187.188 150.388 114.08
165.151 157.501 157.699
197.748 89.941 106.018
153.795 96.6872 54.2633
175.744 172.273 104.178
167.75 111.64 76.2961
153.63 57.5387 189.267
144.517 180.846 150.53
143.038 130.703 178.165
156.422 46.3349 110.408
151.032 70.6453 155.028
161.896 139.529 67.745
157.878 25.2419 137.587
183.607 96.1513 111.243
186.046 49.2828 107.155
155.065 176.593 139.435
207.998 110.843 93.4097
167.22 130.863 67.9619
169.099 124.67 162.111
173.697 167.429 118.21
190.237 70.3347 62.5647
135.94 157.914 53.4516
172.761 113.718 65.0586
152.747 65.4607 187.614
125.189 141.182 33.6273
161.824 58.4138 65.3938
167.892 57.7543 125.81
160.72 179.347 73.9161
179.151 89.5506 185.254
177.954 112.843 146.747
138.665 172.239 69.9088
163.422 145.383 74.1202
140.143 187.983 83.9786
159.164 163.44 150.89
161.37 60.0936 181.952
186.481 116.139 157.536
195.968 47.3377 110.73
146.637 155.223 70.2302
182.335 49.1587 91.607
165.341 161.488 69.9124
128.596 173.949 149.555
134.891 192.784 125.589
159.63 60.4761 58.8145
180.444 48.2096 63.7813
147.787 189.459 159.705
158.676 193.649 141.026
170.415 157.795 129.609
187.446 60.7814 115.595
181.864 147.242 162.718
183.15 59.4512 90.5661
188.224 161.68 147.853
130.444 179.147 159.259
156.029 58.463 197.177
197.532 123.996 110.379
163.072 59.4597 192.698
154.631 50.4571 54.3279
154.017 71.0301 200.82
166.215 40.5566 100.999
192.448 112.655 141.55
197.672 53.0204 102.551
182.434 163.851 132.969
173.695 118.821 156.378
182.264 141.762 89.4985
164.179 167.435 76.1412
185.908 56.3025 98.8023
158.503 128.774 57.1337
129.567 145.757 55.0206
159.295 131.495 168.527
196.565 113.933 152.841
177.822 87.0985 170.398
172.38 57.7706 189.312
194.411 132.026 121.914
186.996 96.6353 119.831
135.567 198.609 108.753
163.764 184.223 141.146
150.804 38.5926 50.7101
198.082 166.801 107.573
191.323 153.441 151.252
189.053 45.89 77.0368
123.517 101.726 48.9018
177.822 77.9993 165.355
189.839 139.215 147.237
177.079 133.926 162.271
161.356 129.573 45.2058
184.574 125.114 156.721
208.04 101.565 132.313
182.299 138.325 131.851
170.795 137.84 111.379
188.598 139.706 107.975
173.198 80.3898 158.477
150.217 39.6116 176.739
168.374 130.158 76.8429
169.702 170.104 111.728
143.313 185.868 121.768
155.26 42.2104 54.6139
172.561 57.1261 197.225
185.819 92.8817 83.4995
212.075 97.8759 127.161
173.614 99.7159 143.644
209.42 113.52 144.005
185.107 114.795 148.581
175.23 98.2686 69.3891
181.854 73.6563 149.746
169.649 96.8134 112.854
199.311 65.4317 138.752
179.238 53.6292 183.196
150.289 31.6444 133.335
179.961 67.4553 87.4691
172.586 42.4995 83.5987
134.772 128.034 36.0735
145.958 158.682 38.0569
188.769 59.3854 54.3782
183.329 107.024 142.815
190.847 118.518 131.404
135.118 144.386 40.8474
210.482 103.272 97.9056
191.363 95.8207 71.095
145.194 189.631 91.1709
171.444 134.13 87.7219
155.16 180.802 123.686
154.747 124.696 60.8263
200.389 101.765 120.718
145.714 75.7247 47.1469
184.259 138.399 115.171
152.183 183.846 104.776
136.774 192.726 156.053
183.403 38.0687 102.48
126.393 153.524 179.858
176.782 63.3511 188.278
180.39 75.4262 81.7145
207.392 73.8946 94.1654
164.282 40.2932 58.6298
182.849 116.963 90.5522
138.59 186.056 106.671
143.86 99.1783 177.894
153.584 47.6941 127.886
132.354 138.042 49.8196
183.089 60.7264 147.463
133.986 139.446 59.5711
203.387 74.2869 79.3187
179.443 80.9425 186.318
164.19 52.9846 184.959
191.158 85.2324 154.471
199.976 88.5156 151.72
185.791 99.0414 140.505
147.321 72.5826 58.8989
151.931 102.527 69.0757
172.386 153.211 115.321
177.073 91.8377 91.1566
151.706 28.0514 70.0304
145.092 192.286 106.293
185.995 34.8163 116.781
152.552 84.7505 183.929
169.246 71.0929 64.7216
155.716 46.8786 70.0133
168.23 43.3439 185.194
139.932 185.149 161.725
204.552 42.7827 73.6216
181.116 110.439 97.2223
135.148 191.416 90.3455
137.848 83.3062 49.6407
161.522 29.2825 115.288
200.471 71.6386 112.659
145.089 172.546 142.893
187.829 154.387 143.386
169.517 131.865 154.168
132.653 135.784 32.4132
190.977 131.193 128.358
184.307 104.276 105.264
122.153 89.5497 46.6179
169.305 121.668 79.1963
201.164 119.555 91.826
145.977 185.704 141.78
203.032 147.804 116.731
125.44 163.987 41.3832
194.676 43.6983 117.739
180.509 150.888 169.625
189.965 73.9664 123.012
195.869 105.304 142.735
142.697 157.414 169.012
166.98 93.4421 156.122
170.551 38.8966 130.371
171.22 99.1744 170.838
168.926 143.472 121.49
163.643 49.9868 165.869
186.371 119.913 67.1243
116.156 176.025 51.917
193.376 80.8095 101.058
176.172 61.6479 92.5817
185.243 46.6634 180.004
162.457 101.787 162.086
178.569 35.1254 119.564
135.384 173.414 60.9122
160.301 33.5975 69.5228
166.334 87.1099 185.297
176.377 138.79 92.5571
164.739 177.058 68.0532
146.044 139.01 171.505
180.71 63.7384 173.953
171.494 59.3509 171.575
148.32 139.128 163.07
171.536 143.773 76.4499
172.447 102.043 90.5086
115.541 198.352 134.649
174.373 62.6522 152.848
197.911 116.01 123.535
135.895 196.191 117.85
176.188 113.009 79.5656
161.926 82.2418 192.64
159.951 29.4681 104.912
190.24 143.54 169.324
156.033 82.1855 166.121
180.635 152.754 149.789
135.207 90.4259 198.405
166.226 152.704 150.794
138.202 205.276 91.142
169.494 160.759 141.921
167.346 157.385 101.602
217.699 97.6936 117.817
176.794 103.364 80.3538
163.868 70.2859 60.8563
126.632 127.458 50.6456
169.467 134.862 120.426
166.328 134.281 61.3725
183.585 89.7591 160.622
173.858 165.557 130.014
142.035 144.07 46.8402
136.869 95.167 185.906
139.636 73.2665 198.768
174.045 132.842 65.0126
166.555 116.143 165.019
136.996 165.622 66.6845
155.429 54.5752 181.444
157.077 157.119 54.0178
167.744 24.7741 125.888
128.839 166.164 153.983
176.274 91.0637 154.257
171.565 89.8145 163.435
147.461 176.517 81.161
167.722 162.178 114.884
134.346 170.202 160.614
153.146 144.501 46.7435
213.367 99.8774 120.192
146.356 179.879 135.265
135.633 102.313 51.7875
186.004 80.1478 103.236
155.718 35.5769 106.533
159.414 90.1091 187.819
176.05 126.994 140.123
183.391 67.2533 118.037
140.715 176.857 160.773
150.329 133.244 71.5678
186.498 56.1844 84.8587
182.285 49.7022 78.3733
159.152 168.004 62.6334
174.391 82.1817 79.8248
125.291 83.3783 48.6998
194.652 100.215 100.37
175.742 61.7646 129.613
168.819 35.3273 75.8547
154.429 33.4985 99.3317
173.009 98.9942 152.014
149.203 193.645 134.684
183.538 113.942 139.791
195.286 91.148 158.471
201.727 76.4454 125.601
166.771 143.559 98.302
165.913 107.884 169.232
168.805 49.7088 129.08
190.359 78.2711 94.1176
172.242 64.644 103.671
186.986 58.9017 77.0168
144.784 120.285 62.9624
176.537 172.378 131.087
188.938 162.71 109.11
154.947 98.1995 61.6928
149.089 186.593 114.094
151.42 75.5482 180.06
169.292 150.059 103.033
160.567 103.028 173.261
136.564 91.8988 47.8697
161.735 78.2034 65.8158
162.023 180.749 116.618
132.923 185.937 97.2502
180.183 66.5612 125.534
137.37 25.6806 134.054
188.711 132.9 147.051
150.738 64.2271 167.038
137.263 140.91 170.864
151.228 94.9443 47.1422
183.878 92.0689 145.246
167.169 95.2928 88.9673
157.136 187.883 133.378
205.672 79.4442 133.618
157.671 135.816 62.568
177.255 65.2456 147.015
168.923 85.0315 175.132
166.488 63.5473 131.42
193.765 92.7385 127.525
189.304 53.6799 112.282
157.983 37.5042 170.514
172.21 66.9109 170.878
174.18 95.6394 137.089
183.383 110.725 172.296
195.794 133.833 131.888
162.268 183.41 87.4203
171.912 46.1966 59.8695
183.009 144.297 145.667
174.19 87.8449 177.431
162.018 146.333 89.6333
136.518 181.87 90.3697
161.501 38.7365 199.301
150.759 45.1274 152.583
195.547 39.6239 67.0829
166.359 68.9674 151.978
167.35 178.169 129.822
142.611 56.4402 192.05
151.237 124.854 177.657
134.673 56.8972 181.918
128.076 147.928 34.9727
173.278 134.533 138.853
148.217 85.0669 46.2748
196.218 64.2667 119.328
177.793 114.828 165.213
161.336 69.6098 175.233
175.083 119.656 72.3841
177.004 56.3028 121.043
120.907 199.854 127.721
157.837 106.599 200.569
172.092 54.9721 77.0977
144.759 71.555 175.195
165.04 44.2827 113.244
177.2 73.4103 69.6926
138.803 73.542 45.6209
143.229 95.1005 200.258
156.077 105.014 170.491
190.895 112.573 135.06
179.64 122.25 163.095
173.971 126.231 91.6164
186.54 119.022 125.074
186.244 68.1524 151.22
154.847 62.8254 177.328
134.855 124.524 173.955
166.421 44.5456 149.374
180.765 87.9104 111.322
157.696 56.6025 170.4
197.273 49.6535 66.8718
131.142 177.187 80.2146
168.755 44.779 165.329
167.809 174.62 119.628
171.194 126.297 121.423
151.33 54.1348 153.815
188.022 68.1582 126.075
160.361 154.423 86.5462
168.032 124.433 140.635
172.089 163.253 94.4555
151.038 44.3288 184.9
152.708 111.579 165.711
160.992 154.593 136.15
181.607 70.5119 94.9983
122.38 182.434 143.611
164.257 181.808 134.111
166.1 165.922 146.024
161.998 164.293 91.1722
117.724 140.602 180.297
154.656 127.559 67.8179
177.511 54.2872 134.034
184.116 83.9001 137.054
169.956 50.3686 68.751
141.768 23.8035 119
178.868 144.332 110.482
118.014 197.379 118.478
145.03 33.4234 68.4166
153.441 178.967 130.853
186.929 95.5361 61.3744
160.853 131.263 114.602
215.582 108.534 122.248
164.882 118.636 155.828
125.541 190.466 90.9507
120.901 133.829 176.803
154.313 36.8683 79.5313
126.075 156.954 40.1337
162.288 52.7518 70.8422
193.225 63.7057 67.9628
166.576 152.391 79.9334
136.068 116.67 185.758
135.784 157.684 159.731
177.413 127.759 157.261
163.734 46.9608 83.3512
170.322 152.839 142.411
165.814 35.5462 161.313
99.2513 176.662 150.739
175.978 148.396 93.5308
190.041 103.051 148.048
170.153 103.777 156.771
162.712 50.6281 143.538
172.07 144.889 88.189
161.118 144.724 82.6267
160.59 151.986 72.6899
147.018 49.2469 50.2825
154.486 174.192 90.8155
154.553 29.4813 112.386
204.44 49.3906 107.606
135.723 116.459 177.628
184.054 67.3123 133.22
171.407 129.2 113.64
166.781 103.452 136.159
183.491 77.4024 90.2058
121.137 144.229 47.3483
187.368 127.491 93.2268
184.287 148.152 135.568
166.046 145.274 114.492
172.986 81.6961 109.2
173.599 115.27 136.864
146.323 78.8835 185.823
187.073 87.5678 124.821
146.59 37.1494 78.3992
160.352 154.688 102.611
171.151 91.5953 63.6395
184.099 47.6641 118.49
179.436 70.8652 75.4888
160.26 97.2017 96.9493
149.254 149.921 58.0818
170.186 150.641 161.668
174.611 63.1824 66.3117
168.594 72.5998 164.099
170.777 111.03 150.435
162.969 43.673 68.8241
151.339 49.5953 174.779
126.477 182.982 86.3271
167.006 89.8433 74.2274
116.598 194.209 139.911
158.5 64.7084 170.277
150.474 74.2764 190.242
147.981 141.686 51.3177
180.241 61.1363 108.327
157.138 156.105 148.016
147.564 60.6409 51.0537
173.943 74.2508 149.583
178.114 120.333 111.185
131.713 161.117 61.1773
166.389 37.1974 85.3908
136.991 193.716 130.981
184.138 143.23 173.689
147.995 131.504 169.043
170.375 106.649 64.8473
169.176 105.671 79.7895
159.859 35.2702 58.2749
180.074 138.104 153.753
116.055 127.875 172.523
158.727 123.962 160.575
165.203 137.23 91.1709
210.161 83.1486 116.985
173.339 140.148 145.519
141.389 53.0797 156.18
115.76 148.343 180.987
180.654 94.272 125.64
169.984 141.316 152.89
131.68 73.7266 187.705
153.04 47.5961 167.466
118.978 154.495 172.814
174.111 106.518 103.393
146.635 80.4055 53.6849
122.94 128.338 40.221
166.456 52.9411 149.179
176.056 52.5749 113.352
151.134 43.4436 64.5622
158.199 47.4472 171.916
87.8601 161.226 169.285
156.144 71.7279 147.458
159.478 46.4891 181.878
142.206 50.1648 171.411
170.941 123.636 85.2931
179.417 115.434 130.825
194.415 66.9622 105.745
109.586 198.921 123.096
147.413 114.633 68.8146
158.49 173.743 118.138
179.117 53.3836 84.657
161.755 133.231 97.3098
146.892 145.409 159.425
171.709 129.181 129.32
152.808 163.851 144.405
141.387 139.449 41.8249
185.996 99.8588 79.6439
125.982 174.44 140.773
205.629 98.3801 136.961
168.25 37.2313 120.581
143.972 156.725 157.928
155.127 140.432 154.629
190.922 75.0172 85.6636
161.686 85.7196 149.792
156.723 92.0317 157.636
143.712 53.1283 57.776
159.448 65.2959 67.2278
146.209 149.4 64.1939
152.19 167.869 137.178
178.779 124.741 119.923
190.855 155.419 137.845
182.332 89.9001 118.586
171.63 67.2079 96.406
146.399 171.468 130.775
147.307 95.8078 167.5
151.212 33.5955 88.4129
130.953 89.763 54.8464
155.812 175.818 79.0708
164.184 48.5367 122.257
143.177 40.399 59.6725
174.677 56.3837 158.497
182.597 44.2614 159.756
122.581 172.199 158.023
156.766 140.926 113
127.425 191.063 109.148
148.719 30.3657 105.649
113.36 154.195 164.49
140.468 164.869 144.543
162.944 73.7456 71.5304
147.877 80.6324 175.58
176.938 127.122 109.346
140.077 177.915 83.9353
161.047 47.1277 61.04
158.092 165.634 103.457
150.374 61.5737 158.192
140.372 41.3749 136.348
115.671 189.627 132.907
159.191 35.5711 181.162
131.426 184.331 127.86
133.17 160.101 165.679
160.505 48.3544 129.025
158.874 45.1087 196.378
164.884 55.5443 132.938
140.005 114.414 173.366
127.882 161.852 161.006
148.836 32.0007 62.4338
166.856 71.8129 145.244
170.227 78.8541 143.31
160.432 35.5453 77.5542
175.999 41.9308 90.7595
138.725 175.238 135.303
105.995 177.327 59.3846
173.537 92.0049 146.18
175.53 101.077 122.857
163.693 98.4638 66.2527
137.291 66.5767 186.843
130.368 120.798 56.0426
125.232 142.011 41.087
159.572 146.529 106.245
161.448 63.1411 146.069
131.199 193.799 153.337
151.554 172.231 105.638
164.82 124.65 149.602
119.482 136.098 38.3179
137.062 23.1378 109.148
138.17 147.465 51.7043
165.393 81.4112 78.7293
165.523 115.097 83.0419
156.673 140.789 163.372
144.793 47.9272 162.343
153.485 58.1097 57.599
119.883 185.29 128.223
162.499 34.327 99.1794
148.264 139.618 75.5285
158.657 74.0043 156.349
157.244 84.9952 52.9166
125.941 198.318 145.745
173.156 140.045 135.284
174.364 159.002 119.989
145.763 121.928 172.796
169.723 68.5374 74.4556
182.99 94.5643 135.251
181.491 103.81 130.666
118.756 163.733 161.615
161.907 174.469 110.378
162.531 42.7933 91.0802
180.634 142.522 123.479
209.867 53.5438 110.491
189.345 87.9958 134.031
135.933 72.5807 58.9852
158.568 174.245 100.482
123.814 155.627 51.2091
175.256 54.1224 97.1841
95.2751 186.074 152.337
141.56 150.685 163.314
180.91 80.7273 110.472
166.136 73.7629 85.8054
178.085 53.5359 103.702
168.367 146.846 138.184
139.941 38.3646 72.6776
198.485 121.984 66.4601
170.008 79.8007 99.8952
163.356 58.9988 138.734
130.365 26.5269 103.922
155.486 111.488 156.417
176.868 145.232 118.196
176.79 83.4977 93.3028
154.304 150.833 154.614
168.491 111.604 110.456
118.187 176.112 145.898
155.132 69.8969 163.584
173.462 91.2777 73.3103
166.842 88.7186 135.283
173.403 108.51 131.624
176.438 123.875 149.623
116.749 95.2282 47.7446
177.783 102.875 137.398
145.662 33.5669 116.473
170.407 75.999 107.528
142.158 108.29 61.1524
178.828 82.6905 121.322
137.775 179.029 139.595
174.829 85.0847 100.333
144.228 34.2564 124.529
140.168 170.873 90.1375
150.212 137.596 83.6129
127.52 170.736 69.0975
149.519 178.037 110.84
146.8 52.5531 181.897
152.309 82.3924 62.7286
122.732 123.732 58.3071
178.305 86.2631 146.558
202.787 85.5783 110.703
150.487 165.455 76.5252
158.003 62.4228 151.677
133.334 32.8986 96.7197
102.432 167.23 161.988
153.86 50.837 145.033
161.293 82.0345 167.332
194.436 131.318 96.0974
113.85 175.622 64.2153
147.373 168.289 86.2066
158.108 134.452 83.5371
140.849 142.723 65.5771
173.453 77.0426 87.4342
131.108 87.6698 188.042
130.457 79.8459 53.6613
116.811 159.338 46.7529
152.247 80.541 190.494
169.22 64.8147 142.467
133.161 71.878 50.456
157.654 35.9969 92.7661
151.691 39.5056 111.954
171.978 92.1885 104.788
160.294 78.5748 175.936
141.849 28.2654 98.3953
181.053 107.403 117.128
137.804 134.654 68.2882
