ply
format ascii 1.0
comment Created by Open3D
element vertex 1549
property double x
property double y
property double z
end_header
155.851 149.899 176.673
73.1125 27.0758 151.838
55.6145 194.816 83.3473
49.2438 168.849 175.847
67.0673 24.5202 166.87
25.9821 89.1012 181.54
29.7155 108.114 188.093
62.2337 184.978 199.69
74.9341 87.719 239.796
54.9385 171.684 200.557
29.158 128.601 165.873
34.4197 127.811 198.865
59.2501 95.1287 239.182
24.4326 96.3002 177.001
50.0861 176.05 57.3129
136.931 100.356 218.195
160.511 118.259 163.921
49.7471 174.414 157.434
50.1461 147.101 217.977
57.0481 193.553 101.144
157.807 138.034 99.1165
55.5864 152.508 52.6759
37.8728 109.918 104.005
66.5079 43.2633 185.843
36.3634 90.5466 217.697
106.647 96.7212 236.538
58.9784 125.197 237.953
156.508 111.294 186.015
38.7211 88.0446 110.77
37.212 41.9993 169.814
30.8174 123.798 181.08
162.004 132.628 164.152
152.017 151.74 191.777
40.2727 157.014 180.275
25.2958 100.208 159.324
159.663 147.986 161.594
156.883 137.348 88.3239
56.8067 183.237 190.351
48.895 160.067 142.415
108.093 67.0362 77.3511
55.4441 172.527 49.3591
69.3818 208.46 118.271
96.5378 122.644 39.8171
160.66 125.913 156.188
155.617 140.434 193.287
63.2873 200.161 167.955
155.652 122.982 194.689
148.002 66.569 140.582
44.6446 104.367 228.821
145.821 123.207 213.782
37.6097 139.477 196.276
155.147 199.805 152.323
40.0293 150.141 191.979
150.923 195.937 171.819
137.234 57.2086 149.78
89.5361 195.039 46.8391
131.449 193.232 200.921
56.4905 164.928 45.0836
71.1291 196.008 194.828
73.2844 166.084 30.7
31.8462 114.954 202.375
34.3205 51.6038 172.692
91.1753 123.007 243.309
48.1017 182.592 76.1468
84.4107 110.79 245.35
146.994 169.862 193.001
94.1225 204.946 115.729
36.3635 145.768 120.985
46.3674 148.418 88.9526
156.526 115.466 89.9441
49.3294 182.308 64.1291
47.8845 159.199 201.335
27.509 120.559 153
40.5408 158.919 115.941
132.956 209.466 180.934
155.376 110.94 96.7163
49.298 177.792 91.0118
51.9332 147.801 66.2625
29.6982 122.591 190.69
82.0054 33.5484 176.312
31.36 91.8931 138.193
75.1014 95.9725 244.439
57.4206 108.434 239.555
160.47 122.922 177.573
59.9043 192.591 152.874
29.7797 80.8539 198.479
69.2795 62.2783 206.633
29.5522 94.2916 202.161
147.332 176.749 186.647
70.616 177.196 214.784
37.4679 153.255 167.055
55.761 40.839 187.862
47.7681 175.144 81.4879
50.2402 153.68 62.0612
37.2683 148.955 176.134
153.791 98.8524 189.927
129.521 71.3117 81.7996
34.8758 146.546 156.897
152.134 187.23 170.376
145.102 86.7152 90.8697
154.337 100.252 95.6084
44.4648 140.168 210.192
35.6755 110.981 214.501
74.8146 178.072 34.3769
138.898 109.953 216.475
137.178 146.98 222.579
159.239 142.039 165.996
151.12 75.7036 138.17
152.79 209.019 144.639
43.6373 113.761 228.448
95.4052 105.126 243.383
52.7974 192.556 68.1236
74.9966 185.302 211.67
42.5376 156.472 144.588
40.9016 100.678 101.89
53.2527 193.373 75.4652
24.79 102.11 170.873
49.1724 154.593 210.763
75.2111 59.0328 191.543
27.6259 72.9743 157.978
68.8689 183.012 208.723
36.7772 122.611 108.895
153.902 162.254 162.473
50.3568 186.064 87.3927
48.754 155.57 153.441
57.6115 31.2968 146.628
87.4138 225.201 134.338
62.9768 205.235 71.6037
49.0287 166.528 197.171
75.7195 104.904 243.743
35.0954 114.359 143.725
92.1368 78.3918 237.762
33.6248 132.099 187.474
54.8826 163.167 209.389
80.2255 134.434 37.733
152.06 106.435 194.893
47.274 127.242 225.35
129.137 47.028 154.346
26.0586 77.3097 165.639
109.248 113.054 236.712
151.509 157.546 181.487
44.5393 36.8189 161.618
43.8083 159.775 98.7612
34.6665 119.348 209.208
155.143 193.382 157.236
37.4916 125.642 210.287
63.3807 203.451 106.45
100.664 129.285 240.539
59.6395 156.771 221.006
84.1764 85.1555 240.543
47.106 169.176 73.2448
108.964 223.317 145.379
148.579 163.411 182.547
78.7415 27.6734 172.633
149.536 135.278 208.685
32.8923 97.3889 210.307
49.2268 162.265 76.7948
48.9143 123.921 231.674
26.1703 81.3952 152.394
74.3822 24.4626 166.491
76.7814 212.99 131.322
58.0167 137.315 73.4519
82.6346 60.8665 206.216
42.5037 73.8308 168.777
47.7661 173.602 67.7704
81.6999 185.69 211.609
33.1 83.2186 136.91
45.3559 149.263 149.155
51.7266 167.937 53.2436
40.5626 141.75 138.641
52.0993 187.581 110.207
93.8737 209.595 109.466
71.6177 126.759 52.5972
38.2865 132.672 201.126
53.3909 89.3557 233.835
159.011 130.717 98.8914
37.6796 138.057 109.947
59.2201 167.242 39.4692
64.862 26.9241 157.808
53.922 184.766 170.601
50.8812 181.656 140.268
88.9787 209.529 189.911
129.251 103.208 223.215
42.06 35.7221 181.511
48.9819 165.605 59.4131
36.102 139.712 143.375
42.2584 134.935 137.42
79.4894 172.619 92.0497
51.4282 96.8647 235.608
54.4166 119.967 237.216
95.1237 193.02 212.788
60.2136 157.169 42.4982
37.949 129.777 127.744
23.7042 90.9948 167.711
63.5496 198.398 137.361
39.3561 153.778 136.217
40.7431 112.977 221.325
35.0643 64.8018 147.938
30.3507 61.8898 169.583
111.032 113.882 42.0261
60.2827 172.685 207.313
47.6523 81.3577 96.1307
115.881 70.7081 205.01
90.3887 182.358 42.8023
53.6163 52.0396 182.73
67.7278 84.6362 237.467
41.3846 126.006 146.592
41.9145 165.451 131.603
80.931 107.889 54.3025
67.6462 91.8761 239.837
35.5497 132.848 161.728
27.6597 80.255 187.283
86.7901 42.2812 185.759
46.8363 101.193 86.6514
44.5999 174.699 125.705
130.15 125.53 229.807
33.7538 57.1081 159.586
133.429 49.5442 133.739
55.6408 146.603 57.9125
148.651 146.662 205.805
60.8719 201.161 77.2403
34.5189 75.1492 144.118
27.6483 97.5812 186.312
118.918 136.608 235.628
55.9409 142.965 227.146
132.191 157.001 224.483
48.7815 60.228 197.372
52.1942 57.5214 213.657
33.5754 130.451 135.363
64.9886 145.718 41.1886
47.9092 146.917 156.49
32.4501 83.9152 149.097
47.6745 164.367 84.5191
144.055 133.381 216.266
38.0256 76.7548 135.671
60.6705 61.4446 220.586
63.6672 178.639 205.703
41.9625 67.2291 121.48
63.7822 140.37 48.6439
69.9332 211.376 147.865
54.4772 193.475 135.469
45.9167 114.449 87.2356
136.831 197.192 192.296
142.836 144.477 215.334
102.909 107.483 242.215
48.4831 66.1148 110.339
67.2511 132.178 55.5565
68.4478 190.513 201.151
64.4801 205.37 136.448
61.1513 51.4993 182.614
140.357 115.665 56.9415
28.9548 75.9448 148.043
50.0033 87.224 91.0846
76.6086 47.1803 182.699
95.9627 92.5477 242.419
55.8471 191.953 164.394
55.3939 40.4993 139.619
31.7761 117.296 183.883
40.5208 35.1245 174.252
75.2211 157.762 29.5131
91.5923 84.714 240.77
37.501 129.592 155.905
28.3067 104.557 146.671
53.8329 159.902 50.0145
40.9971 80.0853 174.468
139.705 188.425 193.583
32.1742 139.715 172.778
47.0367 30.263 166.956
76.6198 139.746 34.7108
40.5095 67.3856 135.437
84.7528 52.4012 206.803
77.3604 145.137 30.2837
55.7498 151.025 220.895
147.619 70.5604 122.02
153.814 95.3585 103.94
144.243 202.262 176.431
82.9056 184.215 76.889
28.6889 101.466 200.135
123.999 119.263 231.171
137.306 83.2525 80.8561
154.855 96.3333 179.036
38.8573 45.7167 176.927
91.0724 178.071 93.8247
107.821 211.969 186.278
89.2612 96.7597 245.213
150.893 207.31 156.072
70.8154 124.91 243.517
79.3113 139.75 237.533
42.4083 76.6249 219.489
45.8765 161.502 165.426
40.0395 140.627 102.981
32.0089 133.713 156.099
61.0968 165.261 215.631
29.3098 78.1216 179.271
32.2808 115.961 118.285
77.3437 203.153 191.93
42.4714 96.1565 224.417
42.3265 122.559 218.97
137.196 174.801 211.002
62.2283 142.55 230.169
37.5251 80.7719 129.517
87.9828 200.451 119.318
35.4928 112.493 123.511
53.5279 171.36 151.084
29.2852 113.528 135.435
30.1833 88.7256 148.448
56.7839 27.2286 180.367
88.3817 132.512 37.5797
51.7979 110.478 236.649
78.1257 36.8464 117.858
49.0856 138.322 220.849
87.907 91.2287 243.596
44.0805 158.316 193.093
30.4543 70.9508 192.135
127.762 117.82 44.9693
62.4103 186.454 189.988
67.9342 28.421 147.205
98.3087 105.625 129.559
88.0211 188.091 211.523
96.0932 151.449 24.6114
49.3082 42.7157 188.889
32.9713 95.9063 146.211
44.0482 152.275 159.907
101.662 113.423 43.2254
74.5741 113.093 245.384
148.55 100.914 79.3446
157.704 188.847 143.055
42.0693 129.595 219.844
137.467 130.438 223.087
142.637 183.59 194.46
150.848 83.203 111.905
91.108 204.75 196.81
50.9976 142.841 153.496
55.3325 187.177 156.253
81.7695 64.8472 229.056
53.1705 135.165 228.435
65.0779 75.0989 232.227
67.4761 153.741 226.209
155.745 101.427 172.899
152.259 132.514 199.697
52.7983 48.109 126.996
144.936 90.3307 84.576
32.7775 117.96 159.223
44.7741 147.147 209.412
89.5826 197.434 63.0977
41.4097 143.036 161.978
53.2661 168.334 142.51
84.4579 201.829 84.8299
47.4929 166.617 92.0723
73.9532 157.598 80.2214
64.406 126.032 240.722
33.3257 93.8325 120.744
146.579 112.947 210.356
43.8359 161.76 184.118
119.953 216.641 176.044
154.546 118.522 146.621
62.1784 81.7909 236.153
104.236 215.789 172.156
124.449 151.109 230.978
84.8925 175.477 123.926
86.0055 126.529 40.1894
94.0876 135.883 31.6257
71.9016 188.703 130.787
82.0346 130.774 243.064
101.465 222.688 102.763
144.835 208.154 169.793
145.536 166.401 202.966
36.1308 51.8611 181.42
109.76 144.604 238.658
119.985 39.3266 160.042
158.187 125.419 90.076
38.4227 64.9429 198.087
55.467 183.208 50.4398
43.8655 76.3783 181.708
145.695 154.806 208.551
136.032 78.1215 86.7643
145.97 206.624 86.0282
101.569 147.75 238.655
35.9574 98.1915 114.091
45.4705 53.8701 169.778
74.2047 132.988 45.1734
60.1185 175.467 41.7373
53.0306 146.649 145.56
62.3327 27.7305 151.132
24.9115 112.717 162.404
73.9696 172.186 33.6925
66.6109 153.648 38.1176
116.778 122.042 38.4112
57.3887 70.1207 229.875
33.1436 61.9306 153.258
71.3452 204.902 125.494
38.6518 52.7155 172.918
87.9926 173.789 36.499
50.9953 173.715 164.528
47.4745 124.902 82.3978
42.9479 52.7743 177.841
37.6346 122.095 140.499
60.5842 94.4669 74.9008
37.7676 51.6222 150.162
68.3725 164.728 221.627
68.1275 54.6221 183.57
46.7687 65.9073 217.822
85.7852 137.494 32.2862
146.443 90.5891 188.829
41.2121 137.015 146.678
52.4968 153.823 146.313
95.7153 206.775 189.831
46.3246 135.506 148.232
34.26 103.678 214.078
48.9841 72.2735 103.508
57.7246 192.519 60.9982
78.0631 218.711 140.886
31.8489 88.6592 185.256
39.3131 144.719 126.453
50.2667 181.7 125.088
131.995 174.525 218.951
73.2575 71.8736 235.352
108.833 173.647 93.056
81.6617 176.089 31.5359
68.4328 32.9517 188.234
91.9585 187.175 94.2708
52.3781 164.841 153.919
127.771 187.55 67.9779
131.112 91.1564 218.893
91.1624 113.572 242.946
140.463 61.5047 120.155
126.034 143.148 231.478
70.1712 139.964 236.417
39.1541 80.2283 185.343
78.9514 149.11 231.816
49.1791 104.377 234.172
42.9434 48.7605 184.837
75.4436 72.0638 78.3388
101.134 41.295 111.622
159.622 148.829 134.227
56.0551 153.114 81.4091
106.606 210.418 126.048
94.7224 176.505 123.876
100.458 130.748 32.6462
41.8835 134.656 209.268
78.1524 51.983 97.5444
101.573 137.126 240.299
70.4215 146.036 35.7746
64.4376 125.476 60.7931
92.438 117.846 45.4843
62.6174 192.289 183.307
60.5135 199.902 66.2039
61.6333 151.748 154.62
137.259 166.209 49.8215
99.2477 182.443 39.2773
36.5906 72.096 130.994
48.6623 146.372 75.1398
52.9183 184.438 59.1804
95.0625 143.101 27.2023
147.496 78.3204 102.574
60.2104 24.8403 168.498
30.7864 87.1691 204.928
94.0144 59.9171 201.217
69.4777 135.838 46.5291
112.632 215.551 178.536
110.612 195.52 138.937
71.506 172.959 93.5348
107.959 135.268 238.414
47.684 53.1371 126.245
124.105 101.732 227.417
66.9534 151.885 147.411
99.9358 206.947 195.317
150.184 75.0262 160.966
74.958 30.9254 185.991
62.8638 198.625 180.459
130.305 166.995 115.743
50.3005 172.993 184.709
57.2781 198.433 123.707
142.913 60.6836 127.016
37.2022 124.875 119.406
51.4938 168.306 186.39
119.444 189.988 215.131
152.029 76.5646 148.061
56.8469 188.345 55.5215
160.57 118.626 114.635
140.253 98.0215 71.2637
143.499 103.964 207.694
46.2726 71.7682 176.989
42.614 148.589 93.2767
28.1158 111.016 178.367
61.3219 181.917 146.032
91.3889 193.667 91.6602
43.4278 149.007 138.688
101.633 156.983 236.739
85.9305 31.4716 180.157
85.7504 64.8022 81.1868
146.133 216.691 143.853
119.142 210.304 118.12
110.348 206.8 139.98
119.335 123.721 236.079
46.1869 170.239 103.368
71.5963 199.14 60.0101
111.548 184.317 66.2928
89.7694 183.857 34.8113
35.4735 88.3062 165.903
117.611 148.406 116.12
24.5911 111.501 173.13
28.0643 96.1786 148.553
157.548 146.751 98.6762
118.28 150.534 108.948
65.6478 26.0358 180.806
31.9727 101.8 161.201
83.3391 71.6664 233.839
157.163 144.433 104.752
157.589 123.352 113.989
73.6387 26.4698 173.604
62.5075 188.912 53.4263
122.084 169.185 37.2848
65.2553 172.275 214.858
134.399 218.695 160.912
138.948 66.0657 108.878
76.0503 202.286 115.466
99.4601 78.7132 236.398
32.651 68.0193 162.466
40.1957 58.2024 143.665
157.181 144.04 74.8957
100.55 84.9015 238.205
34.8365 108.712 149.699
140.675 148.305 51.7064
75.4759 108.583 61.9426
32.3418 104.786 202.096
79.3094 212.093 89.0942
138.339 91.9881 75.1114
33.4803 78.3537 207.746
92.6326 93.579 60.4446
91.1892 194.927 105.656
127.323 60.2878 95.2715
135.482 61.0959 154.937
26.2927 117.27 182.327
41.874 147.321 201.43
49.7055 27.8745 180.356
55.4006 30.4963 187.794
64.7123 162.138 35.79
119.509 177.898 147.951
29.451 107.356 140.406
30.7627 122.019 136.516
71.7985 211.931 136.327
62.0795 65.9737 226.469
104.168 179.201 223.455
61.3343 190.06 142.827
52.4205 77.8846 230.465
55.6404 152.637 155.472
134.964 60.7525 115.364
62.1715 115.881 242.151
69.0433 115.518 245.113
108.13 86.4309 122.765
50.9853 179.673 165.919
89.5728 220.476 160.662
112.375 210.277 124.317
38.4154 73.832 213.351
57.939 195.939 142.973
42.3737 166.936 151.632
41.1251 62.2515 130.26
116.876 78.3447 70.1612
35.8279 76.5679 157.005
157.462 110.179 105.335
37.1204 82.1156 215.627
36.0885 93.0225 131.879
83.5994 113.958 47.649
142.105 78.2525 97.4292
118.638 90.9364 229.623
128.267 55.4328 166.076
69.6558 161.497 150.42
28.7144 91.5273 166.658
67.7217 162.229 84.5348
36.0274 70.8918 206.209
144.978 69.7622 114.536
102.901 213.477 117.443
119.232 108.818 230.216
94.776 38.9702 178.514
89.5937 66.6338 231.788
37.9198 122.03 132.843
97.8851 200.877 206.455
66.249 79.211 79.2772
95.5583 185.078 220.98
74.9476 170.27 133.864
120.201 184.422 92.6049
120.543 184.617 77.1507
111.791 60.332 85.0352
124.783 189.966 125.586
45.4374 63.7316 171.345
75.6925 174.906 216.017
49.0734 43.7064 141.299
100.022 207.703 118.595
140.492 94.2981 210.112
127.431 112.838 228.023
80.344 117.122 246.749
96.024 31.8728 136.257
98.7392 193.662 55.0685
50.5016 188.694 121.564
57.4681 175.589 147.3
93.004 31.0743 172.32
65.7891 28.5877 186.106
74.9229 68.4703 228.888
87.5939 70.2615 74.674
61.0178 40.7255 127.573
57.9139 50.3715 114.844
99.1486 211.118 108.52
44.7568 134.93 86.9833
140.296 140.905 119.841
86.9554 25.6092 165.677
138.755 172.062 53.3272
81.8896 98.2217 243.608
135.453 95.2241 211.777
124.347 128.624 234.177
80.3368 161.512 27.9557
35.2951 86.053 156.775
85.7307 216.351 172.634
52.3061 36.3829 145.137
83.4326 198.436 113.182
156.91 130.515 124.429
146.897 172.849 151.635
57.9352 81.6714 233.275
76.6428 198.698 62.9048
148.315 107.731 145.958
81.5338 207.947 187.181
111.888 217.19 127.683
155.348 100.056 165.471
54.5098 185.46 145.245
61.7571 199.488 147.488
110.941 86.2258 233.641
88.3835 184.968 87.8884
94.5407 138.454 240.233
107.319 78.0613 68.9607
102.093 141.962 27.9822
30.876 87.1017 157.415
94.6977 162.6 101.318
87.0196 190.794 113.431
111.03 67.1011 221.536
101.251 222.699 154.127
118.456 221.591 94.0089
110.678 122.409 40.3324
76.9302 206.561 67.2455
74.0368 58.3536 224.274
115.945 195.269 137.278
141.959 173.759 203.722
38.6573 43.8087 159.773
94.9078 177.267 225.386
121.641 78.8414 208.655
117.777 166.585 230.353
122.058 159.176 230.645
146.675 85.6568 168.322
106.144 208.426 135.048
77.1024 127.901 52.0741
105.195 162.673 233.036
38.8011 56.4558 168.102
29.53 112.126 127.571
85.3978 222.055 128.292
78.1375 203.983 126.645
37.3693 138.26 159.062
51.5535 141.226 72.7978
147.62 76.3263 114.232
52.2736 27.4361 172.922
58.1084 174.752 92.3567
135.631 176.587 70.054
153.228 107.093 85.5806
124.605 177.074 222.108
62.3176 166.899 84.3809
55.5513 164.942 88.0804
77.6306 32.4137 180.953
125.508 149.208 112.118
63.6468 203.744 126.395
124.733 176.701 145.639
139.3 159.109 216.929
92.3099 199.5 202.844
94.17 29.2351 149.323
50.2884 158.883 68.81
36.2522 73.2955 200.41
69.6785 160.152 33.6734
57.4459 197.307 92.0645
26.7848 108.493 155.306
71.2398 197.125 132.8
111.503 209.665 193.755
47.0931 72.6336 222.425
83.5917 78.1809 236.198
103.935 198.721 207.395
103.921 193.372 207.949
91.0167 170.539 131.968
76.5331 120.031 49.9607
99.2544 117.288 241.215
152.306 165.323 172.887
58.6485 47.2953 186.187
65.623 207.123 92.5407
80.5652 188.408 50.2211
44.4123 164.474 142.53
95.9114 182.458 120.271
105.025 191.125 71.9948
50.5245 45.8842 134.046
42.1972 67.1007 194.682
75.7376 208.831 178.841
114.783 203.794 199.902
64.0926 204.76 99.4429
77.3073 217.008 155.59
72.1081 197.923 122.289
52.1219 66.7313 183.449
110.225 105.397 238.007
113.405 80.8 226.658
38.5993 66.3171 141.421
55.4141 29.0282 158.795
133.831 59.4645 108.726
65.1116 193.677 57.549
159.364 119.922 123.42
45.3654 39.3415 154.792
59.1848 75.8495 86.988
52.5647 174.458 93.3896
31.4074 55.6048 164.525
77.6803 189.346 81.0049
89.05 177.683 85.5895
56.7645 190.65 170.9
66.8154 174.938 139.4
131.46 145.601 126.693
26.3809 79.7224 172.7
101.652 168.967 228.549
118.772 207.079 136.771
98.8999 225.614 146.141
74.3314 205.712 119.17
124.662 212.87 182.314
77.0589 125.741 244.281
116.736 139.009 30.3109
127.896 93.3977 65.748
64.1926 44.2323 117.776
88.6003 195.3 99.2803
111.489 204.832 112.295
48.279 70.0123 186.731
75.6531 212.051 171.402
71.2933 198.893 66.5876
64.1074 179.259 135.999
79.0721 204.155 105.536
116.574 164.625 105.968
97.0688 33.9735 126.153
134.755 180.054 63.3921
68.6104 60.3223 219.752
126.558 189.722 209.609
112.071 218.028 169.021
34.4021 72.344 158.716
128.802 224.292 118.617
142.018 138.909 129.333
112.428 186.211 55.7634
46.8837 171.221 145.061
103.144 186.63 217.778
83.5964 214.118 108.626
59.4492 112.999 70.2822
159.542 121.827 130.902
104.246 55.5413 92.0207
95.0537 226.404 137.868
131.647 183.792 211.409
74.1774 188.023 95.5601
83.4422 202.276 98.7028
152.11 175.41 169.472
52.0697 133.88 79.6403
84.3989 197.852 68.0323
122.57 47.0407 115.866
35.0641 80.4291 188.858
105.15 204.628 198.044
88.0556 171.45 154.745
30.7781 90.4527 171.905
91.5578 218.069 96.0297
98.857 86.801 62.789
137.264 84.7805 207.102
150.375 74.5787 129.58
111.137 179.907 53.0757
87.0195 144.142 239.472
145.223 105.409 74.1056
116.56 184.409 144.402
118.539 202.369 117.316
158.482 96.6447 136.432
124.885 194.723 65.2804
59.6828 38.7884 189.687
85.0626 57.9314 195.523
63.8596 50.9776 107.475
97.5037 183.815 96.1455
96.0023 174.734 34.3128
150.37 79.9742 121.94
79.8272 220.445 132.106
132.367 85.0453 73.9577
136.387 121.005 220.134
48.2463 51.0101 182.649
99.7426 66.092 75.6248
44.6602 38.3703 186.847
111.363 124.087 236.756
123.343 46.9049 170.544
137.677 65.8758 99.4226
98.991 50.1491 94.8781
88.5345 141.634 29.7208
67.6934 54.6978 100.646
48.761 117.099 231.025
147.35 108.069 85.7545
71.9318 41.0148 184.775
52.6291 58.9778 176.527
65.6554 61.8113 188.359
102.773 198.956 142.486
95.6031 218.674 168.468
97.2304 190.456 134.569
85.6073 169.703 82.6986
35.2818 88.8713 124.013
93.7746 157.379 235.916
110.822 157.757 101.815
55.5542 72.8459 93.7946
53.2612 32.862 152.2
80.9984 47.4175 187.121
60.0632 150.458 43.5139
51.2149 149.74 83.1083
82.2452 209.413 121.604
95.499 79.9381 66.7784
60.9848 63.8799 189.658
89.8528 204.592 69.3959
86.9161 150.718 238.765
106.234 202.86 140.338
109.392 224.33 95.7039
106.78 209.075 144.776
60.9528 33.7096 189.429
96.3044 213.623 89.2828
124.14 44.2404 165.047
77.4819 43.1115 107.787
92.9964 163.73 116.836
139.374 165.016 214.332
57.9975 58.5263 194.483
76.7103 153.432 234.017
65.111 134.727 66.0652
86.619 195.305 122.201
106.43 195.729 138.15
129.678 82.2029 206.326
122.468 38.7139 144.459
95.53 143.707 241.258
86.6937 110.464 52.6157
75.5464 36.9845 186.357
54.1846 185.273 96.677
64.9537 61.5046 95.91
159.479 191.925 124.664
88.3812 38.0044 176.967
123.177 147.195 126.116
140.903 116.796 219.624
78.8773 185.5 122.628
126.027 77.2771 75.2188
101.342 101.36 52.6697
94.2287 215.424 179.031
67.552 63.868 224.489
66.9243 200.34 143.818
43.9671 55.5866 138.135
34.9511 78.4323 148.47
94.0837 197.578 120.928
65.0951 170.75 36.5997
69.2677 60.6843 191.738
56.9697 120.576 70.0404
80.0576 177.506 38.0945
89.3365 170.294 231.151
51.1674 47.5189 187.142
84.7762 183.742 71.0366
121.064 112.774 49.9297
85.0815 181.875 217.825
47.7153 145.702 140.455
118.495 173.888 227.377
97.4881 195.315 141.776
83.5658 161.779 232.292
102.983 185.732 42.6618
96.5272 107.698 47.796
73.1356 63.7649 85.4611
88.2958 102.7 243.539
78.4545 151.424 32.3254
78.3474 173.975 149.07
111.225 162.041 159.06
48.2741 66.1261 192.123
111.805 173.313 118.184
98.211 197.759 64.1074
102.164 196.441 130.451
90.3232 220.182 102.467
43.5755 61.2412 207.026
70.4759 189.167 49.8103
86.2358 173.44 91.949
99.98 186.872 144.479
70.422 202.905 186.204
114.576 147.245 235.167
95.3017 56.6096 86.6275
75.5243 170.415 80.9046
105.235 160.381 25.8711
91.2862 173.856 98.7531
144.364 61.2367 134.229
85.1839 56.7539 217.463
97.6754 202.604 123.043
109.697 153.502 104.655
95.1224 190.41 99.412
121.667 140.558 40.2684
80.8802 197.127 61.315
38.6455 63.1489 162.347
95.3957 164.182 232.945
40.1725 86.0112 120.419
65.864 190.963 131.996
84.2591 146.984 26.4296
91.0288 161.315 93.7154
109.253 220.97 155.707
132.303 152.728 107.468
68.9483 207.274 84.1517
108.681 145.136 27.5343
114.188 167.119 122.838
81.915 26.9236 148.825
126.505 143.217 117.65
92.9933 43.5271 187.235
118.055 183.838 56.1265
84.2557 194.64 81.9999
37.942 104.082 221.915
157.197 102.382 105.044
120.24 199.585 125.191
146.107 96.7901 204.785
118.729 206.182 124.104
106.364 167.305 27.9301
95.0028 128.111 37.6934
79.2549 173.003 218.94
121.02 155.182 32.5434
140.252 61.108 166.139
118.883 181.656 103.344
102.514 190.675 49.6889
63.3269 178.905 88.3811
110.461 98.4169 53.3732
120.265 38.1061 152.129
137.112 85.2641 168.81
104.422 120.291 40.2126
101.371 31.5268 140.165
102.172 192.022 136.323
103.809 115.395 240.113
68.519 197.009 51.412
72.2992 24.5904 160.149
147.156 98.4272 199.223
159.262 106.037 176.372
142.291 128.002 139.103
100.145 97.6908 155.959
27.2846 98.2031 192.491
85.3212 29.0056 170.739
60.7764 144.611 48.4095
101.872 150.61 25.166
53.3237 60.2958 195.789
58.3715 38.7913 133.506
130.731 51.9729 120.073
78.2885 61.3881 200.709
129.953 137.053 132.071
96.2782 223.335 111.299
85.569 140.9 236.044
154.366 82.2673 133.444
72.8924 35.9207 192.433
47.7245 175.81 143.378
57.2473 141.842 62.8875
88.8346 211.517 99.3964
59.4592 59.1345 208.828
109.147 201.439 145.344
129.103 136.481 40.5937
79.5086 197.03 50.1372
130.529 163.537 45.0997
146.072 92.1025 195.169
155.911 139.617 79.3546
88.4536 174.105 111.737
99.6424 211.336 188.333
85.7367 36.339 117
108.419 216.336 135.873
81.6584 154.458 145.874
34.7851 80.865 154.864
159.409 106.798 115.247
102.975 72.4307 70.5718
146.276 180.108 127.298
158.905 107.874 154.893
142.193 137.559 48.9106
99.9018 159.815 102.475
71.635 177.924 135.173
111.572 172.038 35.3348
134.708 119.925 225.569
33.4084 98.9242 156.204
135.909 117.712 47.3102
94.1558 159.712 90.5538
51.5652 62.5104 205.279
43.1306 73.223 189.682
114.928 45.9836 108.021
53.0224 96.1827 81.2423
155.077 131.918 84.59
109.333 89.0148 60.7401
86.1096 133.728 241.353
43.7865 138.843 157.268
38.353 75.0655 140.148
88.3645 175.113 140.687
102.482 213.597 180.585
111.288 36.7609 149.925
151.808 87.2303 104.93
37.5317 69.2028 163.957
63.2835 205.05 85.3932
47.9591 161.025 158.521
90.6241 47.4018 99.0911
126.922 166.745 226.975
107.163 138.152 31.9359
110.129 169.056 230.847
145.252 155.058 58.4151
38.464 138.517 129.593
112.302 46.1256 170.272
56.6132 159.337 140.55
145.203 113.685 64.2573
78.0977 156.332 151.565
118.144 51.0311 103.748
68.9521 64.2809 198.436
116.185 227.159 125.071
126.601 171.123 44.1259
48.5181 90.6418 228.304
63.4207 183.06 48.1946
96.5194 171.881 28.8404
57.0439 158.155 153.855
89.1944 223.704 149.898
130.037 65.9113 93.6338
132.369 139.139 224.648
88.215 102.528 54.1888
91.7754 183.698 74.6484
71.7731 122.685 58.7328
129.57 180.83 127.891
46.8263 60.4294 116.912
89.6373 168.692 106.231
90.3755 165.589 97.9575
106.253 219.3 108.951
69.5885 69.5227 230.205
110.343 50.8222 96.7138
91.7973 87.8246 63.2522
119.932 117.775 44.4124
92.0993 59.7989 217.079
67.6359 202.268 70.8625
47.3813 164.594 185.372
66.5534 182.175 38.9642
79.1895 129.547 42.7918
77.1774 33.0236 129.909
105.196 207.835 95.0442
97.4257 218.956 91.5997
102.572 67.6013 208.09
68.8071 35.2046 130.837
132.287 52.0399 126.11
34.9793 114.301 132.86
63.5656 181.606 43.4568
35.1803 62.2388 167.505
109.313 218.487 98.6723
43.8066 86.7157 220.734
107.232 225.989 106.864
101.457 212.048 93.2109
108.992 219.69 123.173
98.4578 198.438 129.386
89.8384 194.303 68.9958
134.678 140.222 120.122
91.7937 210.602 85.6594
139.254 61.0165 142.453
101.702 204.972 129.338
47.3328 47.0934 148.724
122.462 196.734 120.425
42.041 68.078 167.276
89.9433 99.7542 58.1169
85.5416 214.346 103.801
130.438 98.1329 62.7217
114.169 205.092 137.054
94.1977 28.4406 142.696
66.0188 196.144 64.8447
106.73 174.393 228.204
97.8503 157.831 150.917
78.7152 53.6695 212.66
82.4967 25.6774 160.306
75.2701 193.608 51.8069
68.733 192.974 98.4077
103.915 160.467 155.859
125.901 219.781 88.6847
33.433 133.44 173.895
119.157 172.998 156.55
126.064 83.1801 214.025
141.341 78.8354 159.12
68.3484 199.535 99.1527
66.2271 147.648 229.045
69.7233 203.69 63.1999
64.4565 162.745 151.25
133.249 167.934 45.1388
54.8569 161.476 81.3241
35.7653 96.142 153.124
115.682 105.063 50.5455
67.9135 134.334 236.84
129.126 178.774 143.262
123.412 198.497 101.49
53.9202 105.281 80.052
136.618 215.484 84.7146
97.6232 33.9583 164.983
112.005 184.958 220.119
35.9141 83.223 173.78
75.277 169.371 223.126
78.994 192.506 65.752
82.6142 182.758 37.7493
52.5571 156.259 88.4158
72.6057 158.309 143.321
98.3912 185.02 57.2907
99.829 156.468 27.5338
114.263 130.415 237.089
34.5539 103.392 135.266
147.597 86.6998 97.4819
90.288 213.247 123.456
89.827 148.292 26.7612
104.605 188.711 64.3237
91.8844 184.469 216.574
73.3101 203.353 77.8562
44.6758 58.8197 170.694
125.572 175.001 48.8983
57.0284 162.251 151.052
118.092 212.076 188.368
100.194 160.495 111.693
83.4948 177.328 114.6
102.939 38.6243 174.3
150.132 216.353 119.941
143.38 164.972 60.0228
115.738 204.901 128.959
76.5074 164.319 87.6972
142.553 107.43 151.961
149.56 84.0084 183.262
157.125 125.86 132.912
69.4957 177.907 84.7377
124.65 43.6372 156.823
95.6048 163.181 158.022
78.7163 167.851 226.707
106.987 125.939 34.1217
100.105 176.669 156.511
109.435 210.073 116.566
153.941 129.071 78.3374
84.1221 190.591 44.0193
35.2434 71.8545 192.921
84.6786 61.9739 223.999
112.757 179.121 82.1613
96.5601 36.9035 118.149
65.7127 102.246 72.2877
98.9114 187.625 61.7663
116.74 221.151 118.635
80.831 118.995 52.5675
78.5359 196.444 71.6342
51.782 56.4884 119.484
152.221 160.989 67.8459
81.842 56.3343 89.2195
108.373 110.691 49.9757
107.168 159.491 94.9688
122.558 55.423 101.721
110.378 40.8759 114.303
89.7258 176.358 148.688
112.782 180.278 224.799
126.098 92.6342 218.806
72.0964 52.9735 216.474
120.97 187.259 140.954
106.299 72.3013 215.661
153.394 151.378 67.9731
108.226 32.9314 163.763
68.466 194.254 127.79
117.176 158.392 101.591
103.003 44.9809 103.067
121.79 182.245 144.108
118.919 179.506 45.3572
100.205 162.653 105.824
35.5957 60.2177 157.591
111.872 184.487 150.283
93.9189 130.715 242.183
34.4121 101.967 146.811
60.7608 108.718 75.0458
149.935 132.267 136.678
98.0122 200.06 70.4328
80.4894 217.532 113.492
77.0369 168.533 143.912
75.4197 211.117 117.999
87.9893 175.83 80.2317
128.1 135.577 230.729
73.2457 212.888 94.5806
160.86 128.848 142.099
153.318 90.4445 168.389
156.287 125.239 140.447
40.0692 51.6088 154.749
84.0959 190.355 68.961
140.163 82.3915 174.825
146.77 167.116 174.629
102.366 179.234 98.2466
130.493 173.309 144.853
139.161 71.6549 99.4027
70.642 38.845 120.251
136.422 54.9586 137.841
154.737 86.5272 140.168
83.5979 195.812 104.067
76.1565 78.3277 239.02
120.899 166.649 156.733
157.504 110.227 120.215
125.861 155.286 35.5839
119.552 40.0472 130.279
74.8897 199.734 70.8381
71.0395 176.239 89.1779
130.466 180.02 136.349
85.0952 176.357 149.248
116.257 202.847 110.611
110.523 227.342 135.714
77.0069 199.345 57.5125
90.7284 167.801 228.161
92.6905 189.351 122.365
115.333 153.142 235.017
121.64 88.4103 64.8699
151.753 110.47 77.3352
100.594 135.668 29.7081
143.782 106.589 68.8642
96.9546 73.9424 233.088
68.3787 41.1697 192.822
114.885 98.7468 234.048
84.2914 155.541 27.5307
86.4177 166.15 91.8089
122.855 192.149 131.337
79.9349 181.432 219.274
81.5576 166.991 81.06
120.202 174.504 41.2468
62.727 57.6808 213.774
50.1915 74.0167 226.506
131.872 111.812 221.337
154.051 155.336 163.03
157.364 136.505 109.222
72.1579 181.801 132.314
114.033 215.68 109.71
78.3567 56.0841 220.305
72.4328 56.1053 208.979
106.823 177.837 85.9494
80.959 196.843 123.367
91.4641 153.488 236.433
87.4145 197.915 205.762
67.1324 184.036 132.187
100.565 177.993 34.481
82.1094 215.21 95.5794
108.847 79.4091 231.675
87.1848 169.121 97.1584
154.875 96.3438 141.724
69.857 183.276 42.3942
114.218 192.783 83.2356
115.78 39.1034 168.487
72.3292 210.406 111.465
88.5228 166.553 27.9241
106.77 31.367 144.474
145.361 76.7311 161.102
115.531 215.142 76.7253
51.8287 44.2506 147.762
150.479 148.594 59.6634
53.8159 64.8712 223.143
122.87 190.188 116.302
69.4913 207.284 129.215
39.6356 73.4099 192.349
89.8659 215.418 109.083
93.3057 170.823 84.2623
106.239 178.047 37.7078
101.908 78.3643 127.752
123.951 154.478 108.098
94.4513 180.685 148.07
78.5 189.497 42.5617
127.619 180.511 110.094
94.4455 181.23 106.053
56.62 64.1774 200.677
117.013 220.708 141.568
118.232 69.1199 82.0862
86.1625 183.684 122.104
69.2482 94.724 69.416
115.086 41.9455 126.562
94.4168 192.709 131.441
137.428 152.051 41.9783
82.0742 208.667 82.3151
98.0309 47.9471 181.356
156.172 117.38 104.841
89.0658 122.458 41.4602
72.6788 52.5252 204.372
123.276 179.537 68.4075
106.602 181.084 80.316
107.378 156.242 108.113
98.8266 160.074 159.209
46.6293 71.5753 195.567
86.3473 172.785 225.338
59.5696 162.705 145.608
62.2928 34.2838 142.681
120.79 97.0563 54.7477
66.6794 155.391 79.7997
153.482 122.923 75.8213
74.8303 161.747 149.21
64.2028 31.3442 139.192
143.422 154.368 50.8444
111.134 170.108 161.325
110.05 39.6713 122.243
76.7607 165.432 153.618
106.733 121.706 237.757
73.3254 160.192 229.848
101.635 67.4449 228.598
41.2228 66.6706 211.733
89.7126 57.0911 204.501
95.811 211.589 101.592
159.116 117.034 137.029
77.3342 29.12 138.145
119.844 174.335 79.876
108.162 157.248 112.592
91.3093 174.994 115.507
114.239 216.735 160.769
121.377 95.0081 226.186
105.488 188.268 144.85
77.3615 57.6258 205.895
69.5982 184.022 47.9087
144.552 127.53 131.818
98.0129 141.316 33.061
117.621 197.305 112.624
82.3964 197.107 56.2972
89.6359 33.2637 128.096
131.207 220.376 131.709
86.604 159.235 29.0871
83.8038 176.22 80.4986
95.0999 190.278 74.4295
135.936 105.579 59.9642
151.496 115.333 78.624
64.6713 57.3632 194.983
129.429 218.421 153.183
39.501 61.5744 168.829
94.0696 189.888 68.774
84.7029 192.494 49.6999
120.39 78.661 220.03
118.083 180.777 67.3115
84.6516 183.008 112.42
158.386 112.924 129.027
102.718 185.419 81.0904
101.943 92.7179 240.482
100.962 30.0969 152.309
111.836 203.276 96.5191
47.9226 54.4389 178.609
130.876 69.1303 89.0463
120.676 71.2539 213.632
43.2212 45.7282 146.343
84.202 152.281 25.8402
99.7602 192.933 73.2455
149.288 87.297 159.438
79.8581 161.523 83.1187
31.1658 118.728 127.384
42.4004 47.9197 139.525
86.3689 28.9012 141.304
63.4104 142.277 59.6429
115.801 128.815 38.0815
99.8056 185.177 76.5239
52.0707 57.3508 207.889
101.21 63.7716 198.479
89.803 196.364 55.5608
117.305 199.034 105.528
76.7538 194.24 121.906
98.5177 164.081 29.5624
100.186 171.216 159.074
41.1737 70.8164 200.116
59.1519 56.9826 182.973
116.439 221.84 148.796
145.979 70.3853 148.46
137.349 179.777 134.732
123.874 173.785 150.231
77.5306 208.553 112.63
125.796 170.704 155.692
159.715 112.918 149.809
154.032 93.0907 113.88
112.414 177.791 37.3097
86.1787 213.529 117.457
124.761 223.959 109.769
81.82 37.6857 183.061
108.434 77.8575 222.203
142.93 126.187 60.9023
89.9579 188.74 117.948
140.679 160.004 50.5729
130.828 124.159 44.7898
66.6987 168.428 143.219
118.282 224.42 116.876
86.2676 43.4378 105.726
137.356 83.5978 199.526
116.48 146.393 26.8912
84.604 78.3018 68.9693
60.2039 128.164 68.3255
128.853 53.8266 110.659
110.924 189.389 143.18
101.473 159.475 118.601
91.0371 59.7843 226.002
82.2392 159.542 155.879
71.0033 193.271 55.3526
157.583 133.659 145.953
137.744 124.554 48.4677
116.747 174.75 91.1894
74.8993 208.415 83.1812
155.162 122.138 96.379
122.444 88.0385 221.134
77.3347 26.4202 155.988
154.093 109.498 153.35
125.123 161.92 112.745
71.0191 114.966 57.4256
80.6509 165.808 92.3455
92.0616 178.757 221.793
103.766 165.051 161.431
132.401 110.016 54.3511
30.5458 74.8357 170.676
147.802 149.86 109.135
95.3543 184.737 134.423
122.981 186.109 83.8785
142.679 109.093 143.927
146.415 173.269 168.146
138.689 127.301 131.469
35.5212 81.1902 179.56
99.5713 171.795 85.8733
93.2868 174.711 80.1032
51.4879 62.6348 175.443
109.919 206.204 75.8639
127.656 176.415 54.5641
135.786 207.688 75.4634
119.157 60.5412 90.3588
143.877 69.0562 162.166
79.0897 197.362 204.73
93.3286 171.916 154.435
36.4445 81.1831 163.493
128.941 165.437 122.213
129.222 186.609 123.997
71.7359 190.947 90.0184
114.77 98.4337 228.449
62.1801 103.9 238.387
107.78 66.6183 204.563
104.63 106.028 51.9039
141.837 65.5566 155.081
115.168 197.474 204.377
48.6006 67.5533 174.307
88.7265 32.5382 172.084
137.102 130.759 50.2501
119.357 221.755 106.616
66.6717 152.127 74.2534
118.298 222.176 130.898
85.1368 165.079 158.444
129.139 160.048 39.9488
111.685 201.721 89.5521
64.133 198.629 70.1823
99.17 29.8972 159.251
92.1228 51.7792 213.027
119.822 97.6332 123.582
103.105 46.2331 177.532
143.746 122.305 57.0517
93.5425 40.4311 110.172
117.837 87.5723 223.799
113.598 93.5915 58.181
69.623 206.992 100.575
150.343 138.294 68.3519
115.467 113.365 231.672
97.5943 171.802 101.757
111.21 175.165 158.078
130.402 51.377 160.158
70.8042 49.6791 185.303
92.6184 53.4978 208.121
80.6532 202.377 108.813
125.087 182.023 58.0709
49.9383 136.085 77.0072
36.4794 128.025 141.347
131.897 72.7771 198.447
156.817 209.175 121.863
113.91 213.375 105.671
74.928 200.017 86.5071
102.85 183.615 149.997
113.862 196.426 211.333
94.0259 168.786 120.136
66.4577 109.756 66.1346
79.4947 191.238 74.0539
90.5957 161.033 26.2049
139.525 79.0333 189.498
103.084 219.779 162.419
122.408 85.0202 68.1312
156.15 142.087 115.161
34.0256 71.56 185.956
132.706 71.9508 180.261
120.265 181.063 52.5309
104.262 208.481 84.8275
105.406 210.438 101.398
156.886 146.001 89.9035
96.0672 58.0897 194.414
81.2762 171.207 151.845
124.898 184.787 138.447
140.835 198.518 185.212
83.0942 164.446 29.6514
72.9936 177.83 126.799
121.839 63.7686 205.793
108.875 131.181 32.2926
69.019 35.853 134.594
125.509 45.8885 129.188
137.122 157.094 43.5345
137.079 221.434 139.365
142.83 85.2618 201.68
121.623 212.608 74.1506
134.722 128.667 135.656
104.137 203.453 133.41
60.7193 146.623 68.5464
115.016 73.5172 220.629
77.8601 198.968 93.4229
113.237 151.774 29.328
93.7769 172.281 110.614
122.073 205.149 69.2962
113.062 201.395 140.877
131.847 176.114 52.0668
30.1164 81.5546 152.933
70.4571 185.431 89.2322
79.059 161.967 152.332
121.061 173.261 111.173
76.9315 197.615 126.562
84.346 205.518 127.683
133.857 149.502 43.4431
100.836 175.673 82.0439
86.9703 157.746 151.243
88.0945 162.372 155.829
157.18 147.391 111.204
96.4302 178.682 152.997
69.4296 84.645 73.8711
93.7217 155.461 27.6845
122.807 166.489 114.956
109.958 184.481 41.2676
127.148 181.781 62.2241
146.265 117.08 68.5976
77.7324 191.621 201.215
153.724 194.665 92.0758
32.7783 134.241 167.937
122.647 221.815 121.803
66.6262 146.909 68.6973
41.9244 58.4016 135.294
132.932 175.444 140.432
81.8698 188.896 114.068
43.4408 50.165 150.299
90.6232 164.955 133.638
109.856 205.858 88.4368
107.407 62.2772 199.565
92.2644 166.271 159.057
139.655 104.221 64.1337
141.854 177.825 133.534
129.283 149.532 39.7205
123.427 51.6532 161.704
148.567 122.533 64.2484
115.569 164.271 162.556
110.257 38.8344 173.757
124.475 100.003 56.9664
92.8129 166.907 102.752
141.616 213.477 84.452
110.571 154.891 121.697
76.9692 31.8775 142.588
125.328 156.112 126.473
109.398 36.0505 133.586
112.099 73.238 216.852
74.2739 167.285 149.291
73.1319 199.648 95.0143
51.752 156.115 140.908
78.9956 166.876 30.0762
152.582 130.597 72.5347
77.9524 199.924 97.519
144.16 218.337 128.518
105.171 222.513 132.022
146.639 128.484 138.216
119.87 161.291 154.274
121.378 222.491 85.7629
62.8971 149.276 78.3374
59.9467 62.17 184.371
105.367 35.9939 122.083
129.234 141.731 44.5154
104.744 163.103 125.843
159.299 98.8649 146.518
