ply
format ascii 1.0
comment Created by Open3D
element vertex 371
property double x
property double y
property double z
end_header
58.7945 123.467 63.7362
71.3766 168.034 135.359
65.5654 102.963 82.2795
57.0819 169.299 87.0259
78.5201 69.2547 71.1864
64.0809 153.744 117.199
75.8423 107.73 113.659
38.8767 106.429 101.541
54.9363 60.4084 73.2883
56.4017 109.456 25.7447
57.1932 92.7696 55.8712
79.4123 162.755 83.1881
75.1312 177.946 74.2461
80.8096 61.6303 50.5602
58.2063 127.904 37.2087
67.7875 109.606 46.297
70.9012 162.458 110.2
39.3905 125.347 106.248
44.2731 95.0918 61.3054
67.0278 82.5501 94.6248
74.3709 83.3097 45.3942
61.9842 168.798 53.9529
66.8587 47.2645 53.2068
58.4995 84.8395 44.6797
55.4831 76.6809 73.9803
69.3967 178.008 30.9905
68.8998 176.709 96.6906
57.0388 178.937 90.6426
66.4681 106.467 62.3682
72.9681 157.945 122.171
72.2217 77.4571 93.3316
49.6184 110.135 42.035
75.5216 146.122 80.9864
60.4845 119.897 47.8785
54.4397 28.6425 76.9188
73.6543 105.372 57.2612
50.9736 124.067 64.4346
82.8721 73.6526 77.5103
82.5555 150.073 66.0939
65.7999 120.47 40.833
65.2335 103.079 54.6582
78.8568 160.867 52.7295
70.5915 160.429 84.694
81.9338 73.523 106.127
39.5915 70.7752 89.7441
51.7619 110.16 76.7224
68.0009 122.46 73.5122
55.987 146.567 87.9028
84.174 153.493 104.217
60.6891 159.712 67.8427
66.2716 108.661 34.3987
74.0676 114.93 97.1503
60.6333 72.3195 88.1051
71.0899 70.236 105.62
83.4318 45.9174 67.0938
79.1608 164.855 127.078
68.0597 77.7966 50.6178
63.3583 79.328 66.0256
64.0782 73.0215 78.3937
65.1254 91.5388 48.3443
56.6602 57.9164 47.7869
72.963 50.1348 84.6444
56.7469 76.6792 61.7014
55.0413 124.074 51.6669
35.7068 132.226 69.7299
40.8177 69.7576 69.3297
48.6974 91.7186 78.1134
71.8704 97.0044 64.6673
35.0874 144.738 93.2788
67.8466 70.7604 57.0174
51.7656 112.615 53.5703
56.3257 53.1588 87.097
70.389 61.7936 86.5369
57.6817 97.2895 26.3324
62.4303 103.2 41.7324
78.3588 152.698 42.7338
73.4189 61.615 48.7058
60.0331 133.747 66.1193
74.3455 162.683 103.336
75.0819 112.692 124.354
79.9045 52.5995 54.6327
83.1756 109.412 119.318
51.4684 84.6585 106.46
48.0295 115.902 62.4997
65.5063 175.575 74.9402
66.4216 180.831 68.1215
48.0079 122.586 45.956
74.9174 109.108 88.8159
81.2987 161.288 65.608
58.4639 42.1633 85.0381
72.001 118.696 108.238
40.0822 129.792 81.4552
45.3342 127.95 38.281
57.1471 73.0161 41.111
68.9979 97.3182 48.4475
67.9978 163.349 75.4005
60.402 79.3164 97.281
58.5775 88.3793 104.56
65.5851 56.1744 49.0739
41.2541 92.5426 70.804
56.3412 95.1966 65.8993
49.0313 129.754 83.4197
74.7838 145.824 64.2712
45.8038 83.7654 97.6462
65.7963 181.307 91.4352
83.3989 150.595 123.944
78.2992 94.5165 46.4367
76.3027 137.486 101.686
75.1451 90.6216 68.1835
53.3374 86.8764 36.7324
51.1099 119.562 90.9647
63.4588 82.1207 81.4216
74.5728 144.063 96.1185
62.7798 47.0818 43.151
38.5117 150.743 101.455
56.7267 163.063 92.7618
81.8113 152.45 86.0408
64.6944 163.38 96.9072
55.4095 153.421 92.5361
48.4729 181.925 81.8755
63.088 162.042 86.1449
73.9159 177.941 63.4964
71.724 41.1402 54.2676
78.6428 91.3023 55.3825
72.7136 51.9852 72.3343
48.1449 66.3846 58.21
56.6572 31.3257 63.1868
45.7891 163.267 80.3008
58.4628 101.125 58.9105
48.3427 102.032 28.0095
38.4599 139.773 77.9257
72.738 86.4781 59.4605
78.2694 158.475 74.1059
69.7386 167.221 126.634
83.2744 104.086 104.945
74.6298 153.65 88.757
63.8542 81.3025 110.576
75.7471 189.818 72.2756
80.6383 33.321 92.8702
61.41 87.1648 69.4355
49.883 121.727 32.7906
60.6252 145.838 74.681
85.7781 117.42 108.696
53.5702 142.102 71.4229
74.3868 157.08 139.913
73.7902 171.617 34.9417
40.5168 96.324 49.0919
50.1898 36.0181 65.1945
66.4687 170.07 103.308
80.3212 111.42 94.501
51.1174 60.9729 95.9917
67.9901 78.8983 85.0016
79.9566 137.514 67.8478
53.1217 135.484 88.1638
60.9746 180.898 75.9986
58.5415 107.463 68.9722
50.142 99.6778 35.6429
72.2564 164.488 50.5611
71.494 140.342 122.981
34.0781 118.274 101.717
44.0468 71.7414 38.545
47.4224 57.75 79.9077
43.1684 81.99 67.5711
50.4586 128.382 74.8566
63.0041 60.882 91.082
49.516 95.898 48.5771
44.2702 181.966 73.1168
53.0235 176.01 59.424
42.8682 126.269 71.021
84.1384 45.5538 90.0833
33.8056 58.5571 82.9253
78.5955 99.449 95.6983
83.7047 139.708 105.178
79.384 152.689 114.049
48.0274 136.095 58.3393
74.5343 49.5801 64.0613
84.7572 115.906 96.1869
63.3823 127.306 78.8307
54.8316 139.818 78.5826
54.9895 129.447 45.3999
74.0254 78.8145 58.4179
64.7681 149.302 84.0761
49.4122 162.714 93.6368
48.4354 146.845 85.3041
50.9448 68.1967 92.0272
44.0045 122.734 91.823
58.3453 50.6987 54.2044
76.9256 169.055 64.3822
57.1072 104.578 108.349
59.1815 171.895 79.3887
49.8394 68.2165 77.1174
83.9789 163.048 73.2051
58.2175 115.41 35.7052
50.9884 161.266 68.3733
52.3796 135.298 31.2349
66.1027 149.287 98.0542
82.9393 127.875 122.231
49.0403 140.002 66.0863
46.6821 114.459 100.359
57.0522 169.833 68.4012
48.4375 147.893 75.8415
76.9922 101.569 49.1068
71.1312 84.7692 102.596
61.7182 106.274 102.097
71.0578 173.565 79.7061
59.8599 67.358 69.0476
76.006 162.641 147.521
85.0609 119.838 122.83
42.0422 110.241 93.2671
68.4994 63.4439 75.1267
51.0942 175.572 75.4571
32.9368 133.453 81.4206
67.2952 114.281 69.3408
80.7419 67.3841 84.8976
39.7953 101.769 37.5766
84.4295 58.014 57.0087
42.1274 170.153 74.8499
61.6421 94.8042 96.4876
57.0674 141.728 114.612
42.4674 118.529 71.6901
63.7809 64.2518 63.5037
44.0046 136.768 86.491
49.8639 98.9095 105.168
64.4453 54.5213 81.9683
40.2634 125.302 87.7422
59.1198 109.415 42.3586
52.2321 117.016 69.4698
50.1159 144.096 91.6703
59.4026 103.453 51.7593
53.1171 60.9561 85.179
74.0863 40.47 82.2056
79.1617 123.442 99.9236
54.5441 122.035 98.3007
82.2312 142.573 61.2628
68.2857 139.217 92.1238
78.5269 165.085 36.4562
74.2762 96.531 102.908
84.4763 183.869 143
61.3543 73.0719 47.8536
54.1445 154.893 80.5364
50.9575 118.869 116.117
46.2814 84.6091 41.476
44.0285 113.521 106.252
45.4787 131.803 65.9266
59.4948 62.656 83.1805
55.417 138.309 98.8035
41.1262 87.8782 78.0337
75.8535 122.621 126.384
54.5695 63.9246 64.8799
81.5746 159.309 39.3235
53.7329 164.179 61.5428
75.0981 53.2825 93.603
80.5392 44.8455 96.3575
61.4084 130.676 99.9155
79.6629 168.16 139.655
40.8657 88.0449 85.9523
75.9077 60.1952 61.7249
59.7624 75.3447 106.76
47.5353 80.2554 35.1862
56.7123 158.74 74.7784
38.6776 106.058 71.8461
46.9658 91.4882 97.7194
53.5094 102.962 95.6764
57.393 42.1968 60.5899
44.6725 135.67 45.8822
66.1811 91.9782 106.597
55.0873 178.204 101.513
48.5574 112.185 86.3874
62.9919 97.7252 67.0863
51.7789 82.0412 46.6996
42.4579 81.9502 48.9615
68.2742 155.609 135.478
41.9936 164.582 92.3951
46.6431 134.19 95.2425
34.5632 167.068 76.2227
47.8025 75.9439 93.8766
73.7302 138.114 109.779
64.9979 46.0854 64.8144
55.33 74.7147 51.1424
65.3985 69.8766 113.79
60.1051 113.023 62.4693
51.33 104.976 61.9874
41.2648 77.8619 43.2688
81.2895 146.31 94.4732
61.8388 72.8012 99.352
52.2525 66.6116 47.0295
48.8769 68.9323 99.4412
38.5081 116.139 81.411
44.2482 145.263 72.0852
48.7056 154.966 86.4524
50.0022 48.8789 86.3298
67.922 167.57 65.085
68.9206 143.58 81.2147
70.9112 125.404 81.8436
46.0458 56.6303 64.8791
46.4597 175.868 87.781
76.2996 153.171 102.851
56.9605 122.664 108.442
64.2662 82.9696 122.946
84.5559 154.351 93.4219
50.3931 100.723 116.669
38.5248 134.107 96.7634
81.6184 112.031 131.239
73.0876 102.933 97.906
36.9448 82.0732 78.3839
59.1987 40.7681 70.3489
47.7129 141.66 102.378
48.8509 72.5152 59.7586
36.1452 82.8485 87.9123
83.2638 140.912 92.9045
42.0688 67.2802 81.0302
54.1049 170.021 103.65
53.9112 35.2965 81.7158
58.1733 43.2411 76.0772
82.2111 122.548 133.936
49.8932 134.846 38.4927
68.0549 137.545 102.18
43.1221 78.5271 57.2053
57.2359 124.916 84.1994
59.0751 121.611 72.819
68.2672 145.672 109.089
81.7036 133.325 95.8524
48.7821 81.6786 52.2573
48.2257 95.9979 86.0573
58.6452 184.479 99.6994
50.0088 103.311 110.374
40.3899 120.297 97.5542
83.0116 140.114 115.614
68.4878 150.491 89.0196
47.0962 171.116 65.5759
43.3184 160.765 73.1554
49.4541 81.0677 85.7809
45.8951 104.707 48.6535
62.7877 91.6117 113.534
60.8221 76.5538 123.363
43.5662 103.126 54.8463
65.2462 111.195 79.4559
42.3428 154.461 73.3666
48.8091 67.1576 67.6566
66.6655 129.153 85.3315
71.8241 79.3862 111.051
33.5996 143.173 66.639
43.6597 104.815 32.9869
53.2555 97.1536 80.0973
39.9509 146.074 82.9724
56.8956 64.8698 108.091
57.5375 55.5933 62.8965
49.5408 171.011 82.272
38.6705 172.051 80.3164
83.3742 59.3363 66.0564
79.152 121.739 117.789
50.5956 72.1168 47.1349
55.6059 94.3716 86.2023
43.6055 94.4394 90.2881
35.6666 165.512 85.0348
72.752 38.2575 89.4187
41.72 153.317 95.113
71.299 33.811 83.4915
72.8764 150.247 106.693
65.267 141.369 136.679
40.5962 142.062 92.8829
77.4096 32.6009 81.8422
78.6939 149.272 136.731
80.9737 124.93 110.268
39.4301 57.28 75.7318
32.1611 133.011 99.0177
39.0966 115.059 108.96
41.6509 61.3116 70.0195
44.4401 104.737 73.5654
34.2577 145.326 104.449
54.8465 79.5435 88.8237
