ply
format ascii 1.0
comment Created by Open3D
element vertex 1024
property double x
property double y
property double z
end_header
124.346 68.1117 69.43
103.041 238.413 209.587
110.266 188.769 180.157
90.3644 32.9838 74.7719
104.022 104.154 46.3586
93.4879 230.096 249.125
93.3118 264.768 230.084
42.7789 85.5553 15.5572
80.4621 73.9488 30.728
122.918 115.109 110.976
120.219 246.055 217.692
134.132 88.1312 69.8666
125.523 246.612 199.75
135.04 110.825 97.5432
120.288 162.906 212.59
89.3377 223.118 253.092
121.266 233.071 193.238
128.847 116.939 64.5691
109.784 94.8601 111.707
116.852 199.045 257.347
63.7408 78.9157 12.3061
136.389 86.7453 95.8822
135.462 81.4385 74.6992
117.195 167.275 229.408
78.2686 121.866 33.2791
137.4 181.83 237.918
140.121 104.315 99.1165
104.526 260.859 244.437
133.474 245.905 233.221
105.367 111.336 110.306
79.7395 97.2814 19.2553
105.485 82.3656 55.5369
118.7 191.291 225.124
132.488 252.028 215.931
88.1388 235.267 204.551
57.7717 81.4239 32.6526
85.8365 91.7852 28.6361
119.492 244.467 195.189
113.083 197.029 181.945
119.765 181.069 229.836
133.424 223.344 215.549
112.277 86.8311 56.0049
100.003 117.604 60.0099
46.5816 65.2121 27.103
73.4345 90.5572 15.897
77.8723 82.8382 26.3645
118.452 207.773 213.718
127.845 104.184 59.2977
135.051 90.3445 87.0414
116.589 190.729 195.653
137.818 93.2897 101.705
84.2215 31.3588 67.8627
111.129 263.529 227.213
64.7429 34.6083 57.7945
76.4776 104.386 46.6738
117.965 252.364 239.341
93.219 53.8283 65.7743
79.388 95.2197 32.5233
82.895 248.101 199.933
131.904 86.1711 102.302
106.172 148.628 205.747
117.443 225.532 257.353
113.737 176.023 243.343
107.685 153.682 190.946
59.7776 67.1757 21.091
108.063 126.232 94.2975
100.994 63.0706 52.5585
114.692 255.016 195.928
131.249 95.6836 69.2167
116.413 64.4649 73.519
106.66 187.031 241.29
112.639 259.211 201.163
135.213 116.852 81.289
104.04 129.307 89.5413
116.985 232.119 243.335
75.8117 50.7764 44.7096
136.211 159.222 230.925
86.0983 158.323 199.332
135.624 223.735 223.039
125.116 113.568 58.1387
70.9727 102.406 16.4287
102.534 208.517 185.293
87.8122 257.239 234.398
136.179 238.3 212.043
118.968 261.719 224.318
86.1785 84.6443 38.5675
103.379 54.323 87.2292
80.5463 235.032 233.83
63.1196 58.3582 25.5808
89.5306 244.622 199.736
92.2156 199.601 179.222
77.4672 48.9694 99.6674
104.709 59.5421 58.8521
82.6441 227.113 246.363
120.542 237.593 223.063
52.2892 76.2751 22.8998
108.664 103.782 113.504
102.23 229.826 205.629
112.379 120.551 72.4458
127.476 237.675 194.96
128.826 215.587 213.463
122.749 228.605 245.029
127.011 72.2546 60.4731
112.005 121.819 97.6493
62.1995 72.2327 15.0191
87.2104 101.87 27.1627
80.5623 123.914 48.721
101.466 97.2426 121.645
73.4197 43.2607 84.187
139.165 104.498 72.5584
93.5286 47.9117 90.4259
116.665 88.4589 44.6965
103.8 249.97 250.229
104.632 148.085 198.387
72.3047 29.3449 71.4304
112.279 262.721 208.253
54.4467 68.9257 15.8343
84.6585 177.986 193.05
88.0107 57.1338 40.1189
115.206 81.1294 75.0833
93.7275 53.2968 49.0228
103.106 231.454 183.131
121.554 169.635 217.655
107.319 159.516 227.196
69.2263 115.721 30.4973
141.687 98.6571 80.461
105.316 51.7549 78.6199
76.9043 52.4825 84.3786
85.9749 193.995 225.236
90.2864 96.7386 35.7113
58.9391 104.344 34.1692
141.108 90.0482 73.1131
46.5317 72.8167 17.0138
113.614 210.433 226.212
124.551 96.2997 69.4781
135.914 246.68 221.563
132.261 238.154 233.35
100.116 116.076 96.3451
113.037 206.895 204.171
102.899 229.523 242.654
120.709 204.362 250.598
84.8246 166.49 209.463
108.849 241.188 192.302
117.581 173.898 188.204
61.2699 52.0426 68.2663
94.2798 196.921 201.874
109.487 179.865 186.922
96.3447 223.26 201.768
134.143 105.778 86.0935
110.2 217.74 195.282
85.2389 238.598 184.733
125.515 103.419 106.688
101.807 218.597 177.569
114.323 46.1073 81.014
42.9147 82.8189 37.9108
113.244 178.58 181.861
104.941 264.353 208.707
103.534 173.328 212.408
41.2433 79.4763 26.2267
132.849 179.436 232.858
83.5445 202.253 243.283
85.6067 188.996 254.145
116.504 197.213 188.806
115.82 162.096 222.256
68.0105 67.5339 21.5982
111.045 156.884 218.286
78.518 225.579 254.366
95.9518 233.038 208.278
82.7283 36.0099 60.4353
128.257 91.1137 107.869
133.906 106.652 103.672
74.0507 73.9387 22.7062
125.142 254.373 229.62
108.326 220.31 221.352
105.19 119.965 98.8103
99.2895 88.2831 115.816
107.416 100.766 58.2656
106.19 213.946 211.853
93.2448 215.038 245.591
79.4333 214.213 257.745
87.9918 226.327 177.892
113.264 79.8918 66.558
112.735 123.664 62.0559
134.808 99.0783 105.36
126.939 241.962 226.331
102.075 104.621 107.825
106.735 60.4632 73.4047
72.1095 243.993 222.557
108.682 253.059 193.44
122.91 89.8456 56.415
103.285 176.825 191.585
119.931 104.12 62.1203
111.443 193.659 228.075
50.2164 57.1474 32.1239
48.376 52.4915 56.0105
70.4198 35.4575 88.6791
101.184 201.359 178.006
65.3492 115.985 42.9727
47.2538 75.7021 44.511
103.529 187.41 257.238
66.6113 64.2535 47.8604
89.8568 248.095 249.753
107.51 77.2299 71.8028
93.7835 85.6575 62.9945
98.581 256.43 245.841
50.7313 81.7889 33.5085
112.663 77.8249 99.7964
110.85 219.733 260.812
63.7444 87.3271 21.9463
95.2649 194.251 226.82
100.492 209.625 246.731
117.354 121.675 109.685
65.5123 108.297 48.7585
127.82 96.1854 56.2038
119.202 56.0111 73.3626
119.533 214.058 200.368
134.287 220.09 207.591
82.0685 110.249 25.6113
92.3669 164.062 205.433
95.8218 165.501 193.392
125.561 210.734 237.266
71.2512 103.908 26.963
128.927 90.3175 59.6133
69.9921 66.973 34.696
94.2308 210.409 212.179
69.1158 46.4956 47.0352
104.725 236.807 198.778
93.9663 104.824 75.6149
84.0213 110.829 32.9377
119.912 171.745 195.223
77.2832 84.014 18.4436
124.589 173.767 199.375
105.218 223.393 188.692
107.807 100.139 50.6704
108.658 263.099 238.271
101.43 72.8708 97.1843
85.1243 208.213 182.049
128.367 241.521 209.289
80.3027 65.2221 41.2794
86.9844 79.1456 78.3105
114.597 116.283 55.5028
81.5969 226.318 237.581
104.573 87.6985 62.9222
95.2237 199.57 186.703
125.421 121.548 85.076
120.713 239.742 249.815
92.7281 206.391 181.171
98.4948 43.6484 61.4171
126.578 227.755 214.703
87.4351 69.6946 42.0898
116.287 219.052 213.097
91.2478 208.319 245.865
103.2 222.45 259.595
87.6997 180.778 217.735
85.74 175.18 212.25
117.049 180.422 200.373
132.274 110.118 62.5086
72.4089 232.766 243.529
111.373 68.2182 62.6673
100.389 168.545 236.639
116.674 173.085 224.435
114.5 239.929 193.474
91.3496 177.678 245.33
97.0465 116.867 84.78
105.789 53.7396 62.6607
98.9152 183.51 180.712
115.187 184.941 239.678
115.675 247.907 250.576
99.3448 204.46 192.13
97.5488 244.831 244.433
117.833 169.891 207.817
98.3133 187.76 250.198
96.0742 60.6761 60.2996
122.616 77.5776 55.6379
113.333 91.2535 65.1128
126.854 239.191 239.943
95.4053 199.248 257.726
113.226 176.632 213.41
113.905 78.3333 56.3173
85.1447 117.782 44.8888
109.25 246.07 251.951
119.68 119.964 79.2697
130.59 119.254 78.8889
108.537 169.103 187.326
130.988 176.948 238.898
79.7954 234.742 260.814
123.21 226.465 203.42
108.003 200.096 253.324
92.9562 75.2362 54.6461
111.578 157.677 210.071
130.65 237.887 221.182
113.649 189.934 216.435
96.3685 108.999 45.0511
86.9409 108.384 38.7308
87.1203 239.512 246.642
115.66 209.669 257.397
60.833 33.6076 79.7105
116.625 72.443 58.537
120.67 194.342 211.285
72.3673 70.9699 41.3604
125.475 118.699 79.396
140.596 108.308 84.1823
101.575 184.704 228.644
65.9581 107.008 17.4165
120.085 205.922 191.298
86.648 167.511 200.98
61.062 94.4869 15.37
118.492 99.1684 110.329
131.111 251.137 223.053
71.4858 97.5055 32.2447
98.1339 149.067 203.876
138.996 81.1591 82.003
127.313 220.466 205.142
93.0233 111.582 57.7669
111.788 187.372 224.456
119.166 77.8661 101.206
100.935 96.7219 48.6865
126.885 222.492 243.729
104.464 192.385 250.611
65.5833 80.9599 28.7704
118.015 174.885 236.53
96.444 260.336 207.326
71.781 54.7234 56.3698
68.8408 74.5679 51.4573
136.628 102.953 64.1011
86.8546 186.708 182.381
97.1626 240.93 223.105
129.301 115.122 87.4409
138.374 112.027 80.9781
109.292 116.344 86.0624
95.6407 68.556 55.995
108.174 207.878 219.324
114.186 225.395 231.508
101.61 254.895 195.599
86.8226 53.4881 46.6862
101.217 239.66 258.087
118.216 83.317 108.235
104.054 120.296 82.6747
99.3924 236.073 190.361
113.236 46.2549 67.7254
101.836 195.922 181.61
98.9396 255.498 202.595
86.4207 265.97 224.437
103.12 176.782 182.63
117.681 71.8345 73.0043
141.591 90.5068 91.9917
121.798 218.419 216.805
113.52 117.543 105.873
109.093 175.319 250.095
100.08 57.8527 92.0001
105.219 93.7373 51.7511
97.6182 223.366 253.647
91.9235 37.5758 64.4428
74.1978 44.7727 93.5813
90.4502 170.362 217.166
121.701 96.2721 58.3197
122.404 68.7479 59.5541
101.724 206.06 236.934
87.3533 155.778 209.183
67.5711 92.2206 12.8749
79.2067 73.2152 43.2524
80.1425 232.58 246.492
101.463 111.323 102.61
116.396 226.722 200.313
78.5714 241.446 240.263
110.112 252.444 247.581
114.533 203.034 248.283
119.512 118.329 99.8871
65.4098 41.9148 49.8972
87.6258 216.782 242.109
81.3518 56.984 41.1812
116.533 214.072 191.403
74.7127 63.4216 28.3154
96.4589 244.551 232.72
94.317 82.345 118.461
98.3332 234.595 232.228
107.274 254.781 233.869
71.6399 120.314 39.1255
68.7309 84.0789 116.913
112.273 243.123 240.333
112.223 211.151 238.556
106.863 216.926 256.132
92.2501 190.333 249.222
104.136 108.336 52.2981
117.675 182.778 193.403
107.352 177.485 206.589
61.6875 65.0207 28.7557
84.0918 231.823 181.351
76.2908 177.867 193.853
72.0183 95.2556 23.6781
89.1515 88.9573 121.195
95.1516 65.4384 48.3631
99.8072 67.5392 91.3107
97.6554 221.639 184.803
95.4528 211.861 195.206
43.0354 67.9132 39.47
94.6417 222.586 227.413
108.145 210.084 192.091
95.0341 232.385 182.819
105.045 233.509 261.279
103.203 164.833 187.259
86.1565 56.7105 96.9712
107.81 180.677 217.897
98.5976 197.198 219.247
87.9387 238.431 256.89
115.344 240.204 224.603
92.6986 252.403 196.096
87.2985 65.6249 57.599
124.325 248.826 243.644
80.5309 61.933 92.2352
121.614 118.388 62.4198
85.8361 80.4474 117.416
81.3037 51.7101 58.4148
95.1017 151.83 195.205
97.7453 244.369 197.716
87.8909 245.439 232.822
64.8822 70.7156 40.8469
92.677 245.132 191.096
124.574 174.736 223.686
107.264 254.298 221.987
94.6573 260.754 199.056
57.9276 52.7983 46.706
129.891 158.869 235.293
105.003 184.413 186.658
99.6647 47.2993 76.5097
53.2617 59.6312 48.0807
105.979 207.52 205.749
123.985 195.975 222.954
97.801 255.489 223.244
113.52 217 251.777
110.762 196.692 200.285
124.086 75.4068 72.9232
111.175 196.68 221.217
121.736 223.028 250.571
102.013 156.704 220.739
126.69 112.122 97.7715
93.1505 58.6523 93.647
77.4295 122.551 43.2371
87.1519 220.386 181.243
113.052 240.695 252.818
87.3003 50.7364 53.6116
118.669 77.7063 93.3473
121.858 210.237 249.778
98.558 76.9397 58.5778
98.6389 70.3676 84.4056
53.3037 42.4055 71.5132
101.395 208.137 260.075
136.305 231.183 216.287
95.6234 84.2846 74.0937
127.371 251.552 209.497
103.843 117.245 75.6582
78.6233 240.027 254.109
89.971 115.735 79.3129
95.717 221.392 177.306
64.3847 29.7689 75.2362
95.1398 128.518 68.5846
120.582 94.6508 104.104
76.8048 87.6941 120.105
102.887 174.333 251.007
84.64 99.403 41.088
58.7632 51.5218 80.5397
91.8466 245.439 222.756
73.0765 62.7229 95.78
60.5131 112.608 28.6531
97.883 162.736 219.648
110.926 206.875 212.692
104.521 174.6 199.568
131.482 227.152 206.122
125.776 77.4938 95.2335
128.026 97.8145 105.095
136.726 113.769 68.5946
109.255 215.597 225.904
79.5989 260.078 216.636
95.5164 40.5946 79.3474
127.453 109.765 104.352
127.536 82.9296 59.1489
104.744 72.9249 58.1835
89.4626 259.381 206.748
106.43 218.035 245.323
95.1165 211.658 238.092
97.502 242.915 211.696
92.8704 149.554 207.106
101.339 214.535 228.625
120.372 216.509 250.228
129.423 77.4402 64.8393
100.948 90.8497 102.999
96.7346 242.716 252.816
62.0123 52.393 88.2822
93.5505 183.456 192.111
105.946 51.4217 68.8621
106.046 214.633 181.508
109.441 245.659 225.206
95.7518 267.428 219.193
102.907 247.252 191.966
57.3243 87.3079 16.7649
83.2783 86.743 123.031
100.579 208.935 211.46
101.089 212.498 220.201
107.744 232.594 189.773
81.8075 240.473 202.869
77.9644 168 203.114
72.874 113.955 42.7318
103.311 193.381 199.5
103.574 197.178 205.496
85.7167 36.0408 88.8306
79.5765 187.781 187.681
105.205 211.812 201.389
86.3544 76.174 86.6805
119.358 192.184 245.547
55.3187 91.3677 50.9845
107.332 117.457 103.894
45.6748 96.5352 22.6276
110.391 166.08 212.781
93.5979 188.021 180.306
66.0243 94.2423 27.8054
95.5018 212.985 179.776
103.949 181.923 247.279
79.3154 242.248 193.393
130.412 75.3894 71.933
105.879 63.9362 82.3652
115.877 200.525 207.286
113.027 179.497 229.092
90.7195 92.2852 40.7342
96.7048 180.593 217.35
99.3866 190.584 181.014
63.9253 58.3923 33.6296
128.716 231.851 198.302
98.0905 193.06 207.291
97.6938 249.006 225.548
117.531 162.334 190.746
134.062 80.3279 67.8861
111.753 228.787 248.309
90.4593 227.377 204.087
122.772 174.631 210.715
138.011 97.5086 71.0659
91.3796 62.7449 40.1145
114.974 203.42 232.939
114.096 192.695 209.678
122.908 218.425 192.873
53.7608 96.9535 36.8296
69.3163 86.1151 20.6097
96.848 203.132 246.953
140.824 106.598 91.3653
84.7677 175.955 204.649
121.232 198.15 228.646
98.592 54.6293 56.2777
94.4729 65.1473 89.1704
103.415 174.907 242.165
108.002 207.762 229.261
96.5693 115.719 73.5131
121.352 205.683 240.872
84.3805 92.5826 38.2833
105.49 200.871 229.835
87.9286 189.182 218.17
93.529 209.922 230.805
93.6174 186.402 224.325
108.179 120.505 65.4819
44.5517 72.7422 34.5257
74.4045 25.3732 82.8352
100.866 261.123 220.272
58.6564 97.2596 26.4238
102.641 222.065 226.253
104.712 189.541 181.796
102.311 155.13 193.27
119.576 91.6499 111.083
112.848 245.867 219.116
78.7238 58.9936 101.15
81.2054 194.441 258.103
94.1125 113.077 66.9034
93.7861 239.918 186.583
104.567 259.037 202.617
35.1029 69.7848 36.5386
105.718 230.093 253.655
93.5063 90.7298 68.8014
90.0997 112.948 42.9138
61.2364 65.6069 69.1354
113.04 247.158 196.165
64.7503 44.7179 61.2192
107.653 197.163 179.495
82.537 31.3714 76.3776
101.635 216.065 187.615
78.1019 83.2818 43.707
98.5728 168.682 208.466
80.3976 78.1356 88.7522
117.597 130.616 87.0374
92.7683 90.4017 108.304
91.1144 59.3325 55.2336
68.9836 80.6723 47.5028
109.756 162.097 190.487
104.058 182.916 221.644
89.3244 246.13 207.854
84.9712 44.6406 92.4078
97.0059 201.281 236.795
61.3885 40.7904 73.0525
92.7664 237.767 237.13
80.2825 172.76 198.02
74.3513 101.085 38.1029
130.074 239.845 202.336
97.6297 222.228 194.905
81.1701 235.423 190.873
131.963 98.2616 62.8727
127.487 217.167 236.976
97.0796 173.966 191.026
90.9842 260.963 219.573
102.087 212.169 239.589
119.624 71.754 79.3945
86.0024 72.2916 76.7684
85.2374 186.604 245.016
85.8447 105.875 108.964
96.7859 197.198 249.405
119.957 242.73 242.111
81.5606 193.485 246.798
96.1238 209.1 203.945
131.824 212.294 221.55
124.42 78.7062 84.4971
93.3992 162.615 216.55
106.776 199.575 215.328
79.1745 115.095 36.8392
135.367 151.924 232.258
123.401 84.1164 105.283
126.34 203.192 220.049
106.609 224.223 235.127
109.18 180.72 196.942
104.327 252.896 242.827
94.095 260.672 241.798
96.6513 219.486 238.253
78.8362 34.8298 83.147
111.602 225.607 193.459
120.051 163.765 197.085
69.8697 236.57 234.259
102.685 169.038 203.658
131.413 111.757 92.2936
47.3779 74.9417 27.4269
102.525 197.806 232.666
87.6915 197.647 256.641
115.43 115.659 87.3903
116.685 256.64 228.807
103.181 203.123 201.001
88.9202 232.023 260.578
91.9674 227.73 191.54
130.963 218.223 224.834
93.112 204.956 194.692
75.5771 103.593 12.3343
92.4239 257.98 249.197
123.87 244.955 232.188
55.521 46.5102 55.7204
101.411 195.718 256.982
110.586 69.3192 77.7459
102.889 227.435 197.106
123.049 232.935 250.59
124.426 200.36 214.736
77.8419 250.735 210.717
109.964 68.3086 69.3281
104.814 95.4496 107.741
70.4448 79.6244 62.4948
79.0454 202.025 255.641
74.2318 112.817 113.985
98.8557 48.5583 84.5451
90.0913 70.7723 49.1662
124.787 208.155 209.438
65.1 35.9113 92.9748
112.239 204.134 259.736
111.121 200.859 226.858
101.874 91.7244 73.4555
75.4848 113.586 28.4784
124.526 111.852 91.613
120.344 116.031 92.4266
98.7877 238.881 239.39
113.124 157.804 199.901
118.594 210.65 205.85
94.4939 90.6368 45.8563
55.5138 40.5013 78.3832
102.247 215.059 253.605
110.311 264.177 214.986
98.1827 262.069 237.063
59.5023 82.1157 41.8834
90.3248 221.892 198.925
74.7562 35.7779 58.6812
90.4881 253.787 224.529
107.429 79.0244 104.949
115.017 214.857 259.584
96.4912 105.356 105.467
88.5275 206.83 228.727
113.433 257.617 218.817
83.6374 118.744 65.5911
122.069 106.301 110.211
93.3009 101.513 84.4839
84.9542 205.809 259.715
91.2776 197.657 244.357
99.6166 217.7 217.429
115.127 114.676 96.4277
113.311 214.019 198.605
124.955 74.47 80.9414
74.1224 63.4679 40.8591
126.249 232.442 232.912
127.025 213.151 207.351
98.3705 174.557 217.137
83.4395 211.696 253.884
95.3696 155.728 212.054
97.7839 159.313 192.559
87.7014 188.109 226.948
86.3421 231.051 195.734
116.514 216.898 223.348
84.194 39.0022 79.7534
90.9793 87.7772 115.02
78.5548 112.408 97.4851
64.725 96.8679 43.9787
91.6029 43.8506 55.1066
120.564 192.767 218.541
81.0568 245.698 207.928
116.572 190.208 186.486
86.7404 239.516 194.016
116.767 78.6617 82.5594
66.8487 100.639 10.3846
131.453 79.2235 85.3297
94.0234 109.114 98.2251
106.658 211.66 246.06
102.716 186.99 193.91
135.355 89.4293 78.3408
95.9584 95.442 105.519
130.915 234.365 209.335
88.5282 189.862 235.428
119.469 236.12 235.775
106.578 88.7476 73.9143
107.48 79.6701 64.3696
110.182 84.3756 75.5235
71.761 256.998 219.01
125.892 83.2874 98.0288
89.4785 79.7166 65.5167
109.104 85.5668 104.491
112.723 70.4289 90.2899
100.388 233.938 250.118
88.5995 246.281 239.923
93.5575 193.378 184.346
118.501 211.106 219.295
88.8215 258.816 213.182
108.893 224.343 255.561
70.598 80.2731 79.4461
114.145 121.405 81.5707
128.268 248.62 227.961
88.0903 64.1153 81.9236
68.2196 110.597 24.1485
106.277 79.3842 79.1824
116.79 232.427 226.657
59.6165 100.882 18.294
129.849 77.5541 78.3956
105.967 71.884 91.7662
103.579 156.285 211.398
84.9089 180.573 200.965
95.1225 79.5867 108.719
123.728 204.613 226.455
87.7996 201.02 235.799
84.6686 246.4 255.014
77.955 183.325 191.821
104.25 201.813 209.319
81.0601 53.6369 51.1589
97.8467 91.8598 51.5343
90.036 102.458 41.2844
103.588 204.903 250.365
128.078 224.747 238.487
132.009 230.602 224.022
99.1328 170.683 185.948
101.851 246.364 236.639
80.9339 112.794 111.935
86.4426 101.996 96.9157
101.858 223.027 245.104
96.1069 159.122 201.987
91.3373 105.756 89.7656
107.303 261.597 219.156
85.8761 112.389 96.3863
91.5382 201.666 215.889
117.561 183.918 185.039
114.551 234.542 255.289
112.698 75.3214 80.6293
76.8645 66.9266 80.4689
130.999 85.8029 63.202
88.8004 94.878 111.996
58.5628 60.318 75.3687
125.964 222.718 197.419
109.572 203.141 196.449
116.682 202.768 239.063
90.099 195.181 214.439
118.299 220.436 238.698
94.3259 180.466 224.623
50.1346 53.3708 40.429
119.812 117.258 85.2964
118.418 248.43 230.741
133.077 245.985 213.029
127.823 230.283 238.929
106.121 77.038 97.7619
101.025 98.8356 103.557
70.6411 72.073 28.6689
96.1736 109.57 82.5717
107.791 224.034 243.549
72.7408 254.246 224.605
47.342 92.7094 29.5019
123.801 225.676 221.119
108.827 193.836 215.493
52.9565 90.6205 23.1293
121.569 212.366 241.7
57.7677 57.0548 36.3393
120.214 164.114 203.662
120.516 253.14 202.104
91.3105 184.192 231.991
66.7948 47.0608 88.9104
90.1295 185.411 187.299
116.042 90.9154 57.2507
98.1725 185.665 239.192
108.026 169.819 219.964
89.2034 71.2119 83.3461
111.406 172.757 191.345
80.2331 247.363 235.911
77.2828 27.1116 77.0125
112.556 117.983 91.1768
88.9906 254.009 202.849
74.658 244.647 233.685
103.341 250.286 226.512
93.1896 173.404 239.006
103.98 200.035 222.277
109.38 208.776 253.07
111.094 168.431 206.135
97.103 188.734 197.786
87.3908 113.937 67.5073
77.1809 250.414 227.877
88.5156 234.39 176.404
96.4786 260.221 214.423
67.6261 83.2415 90.2255
85.3862 99.9889 115.812
91.2991 105.22 106.906
98.1924 82.5829 101.379
121.855 251.412 208.022
58.6678 102.394 46.3585
113.99 231.529 195.941
72.2131 229.304 253.299
89.3093 215.79 254.886
43.5475 87.5423 32.5229
49.8163 46.18 64.712
72.8296 121.228 62.1764
87.3262 248.103 217.697
59.417 42.443 86.7336
98.4803 225.779 233.294
73.3563 78.1363 90.3841
127.09 233.154 227.436
71.6339 54.5939 104.301
87.1604 183.293 210.393
103.169 264.321 230.097
84.2322 242.787 226.322
98.8584 249.474 250.597
102.559 213.886 196.994
125.299 223.114 230.325
111.133 79.0023 93.0724
89.271 200.177 226.753
110.417 232.088 199.528
121.854 175.397 204.17
39.3285 73.4412 28.96
86.3609 214.973 183.788
81.6095 220.117 246.418
116.524 252.537 219.297
84.9026 255.307 223.307
93.7434 102.206 49.3015
104.255 175.666 227.76
73.5604 38.1875 71.0533
104.7 200.96 186.094
55.0698 68.9221 54.6084
42.2337 63.5552 48.106
70.3844 116.588 55.9836
98.7579 269.428 229.319
117.069 120.606 61.9179
74.2107 74.5769 35.1311
99.622 109.878 56.1554
54.4806 93.2752 31.794
108.317 168.588 230.596
60.3294 61.5168 40.9902
118.065 74.3159 88.7074
86.5772 84.3438 84.7258
60.86 104.697 22.9072
107.677 238.891 255.756
75.8212 98.2262 58.5498
96.2994 185.371 256.452
86.7256 68.3452 91.5137
120.06 115.778 70.8674
113.65 175.444 196.91
40.9481 53.1077 53.5665
74.2909 122.272 52.3608
84.6322 50.6211 72.9443
97.109 177.049 228.642
106.977 69.2638 86.6721
113.267 205.341 186.119
69.2779 52.6445 93.417
110.289 248.372 235.183
102.894 258.787 212.31
93.7973 182.824 247.501
88.4013 198.347 219.888
79.6039 86.4347 79.1038
89.6443 210.219 189.381
86.2429 112.453 60.0308
42.651 59.0267 37.2675
90.8965 112.499 114.565
93.3191 182.615 198.482
102.14 205.823 224.886
111.608 217.442 209.134
106.914 88.4182 110.104
74.2991 200.912 251.26
118.658 211.053 232.745
79.2376 75.0704 82.3567
126.745 246.894 206.347
71.6876 238.059 245.921
118.22 259.047 209.976
88.075 67.5043 101.655
97.2045 217.044 256.584
72.2744 169.088 197.299
98.1029 231.003 258.459
83.9135 105.865 102.21
107.219 180.935 231.971
49.3744 52.2856 70.5147
78.5677 98.5589 118.212
108.459 220.458 205.438
91.4959 209.632 256.691
96.9245 91.1498 77.4163
110.88 253.352 241.441
112.859 174.741 206.242
120.57 83.4748 57.4975
68.4098 94.4017 50.542
98.826 112.039 65.765
90.5154 186.625 202.612
120.724 211.286 225.885
111.126 195.09 246.198
112.318 182.824 250.046
99.1765 206.004 217.678
76.258 57.2281 44.0871
116.9 191.511 253.967
133.604 79.5008 90.2499
81.9979 77.1833 61.9789
112.264 249.198 204.08
81.4616 105.138 116.552
103.495 83.7718 109.717
85.6025 228.8 188.592
125.093 231.955 205.359
113.447 252.881 232.028
107.576 194.305 194.181
83.1734 251.706 213.079
80.4209 248.911 219.362
103.027 220.769 203.225
72.916 238.443 228.025
87.6088 196.198 232.518
95.6546 236.917 256.731
106.721 178.896 254.332
93.2894 89.7004 89.1045
120.263 182.704 218.023
86.3814 189.92 211.107
140.982 30.4479 255.438
119.968 221.864 207.391
70.7578 70.1378 85.0265
117.781 242.587 235.094
57.8257 37.809 57.2217
111.477 108.925 61.2291
101.828 170.013 223.932
117.881 107.265 117.559
98.2704 177.67 234.825
123.061 217.59 241.169
84.5312 218.716 256.88
54.062 91.1368 40.6855
80.0991 114.08 80.6025
87.5612 185.051 197.159
81.5225 87.5689 114.384
70.0243 89.972 85.0951
107.846 173.575 235.682
123.902 254.485 218.106
92.6069 85.1546 46.0976
74.1661 88.8651 63.1518
76.4347 171.474 190.446
71.2182 58.7447 90.7992
88.6055 79.2308 48.2734
89.062 216.073 190.396
113.81 219.029 241.486
77.0974 252.941 218.327
100.583 77.4326 64.9085
89.0082 192.502 241.738
34.8583 58.9269 59.9403
126.049 231.675 221.667
92.324 95.8964 118.255
124.444 214.956 228.118
66.0487 61.4478 89.3906
71.2349 97.9944 101.75
72.2595 95.6426 78.0228
79.0667 112.466 104.991
69.1691 77.3503 110.675
84.4887 105.939 88.9496
95.0845 199.803 211.386
100.173 199.103 213.045
108.193 108.805 64.8381
99.4044 257.449 230.508
37.9536 61.5047 40.8373
57.2921 61.8256 52.8923
73.6397 249.35 216.26
98.1751 214.122 201.325
88.106 252.154 245.359
119.316 240.711 230.689
116.807 249.243 201.505
70.735 93.343 116.915
99.5327 68.2395 104.351
80.6557 40.2477 88.3808
111.277 70.385 84.3266
120.339 219.222 225.908
65.2113 92.8545 70.9716
91.4137 190.79 207.662
61.6152 69.2652 74.9156
59.165 76.4839 75.5815
68.0872 100.705 108.064
72.9911 110.89 98.2105
113.965 98.3532 93.2121
76.5115 65.7957 89.5465
73.7461 105.965 115.989
115.108 252.871 245.219
67.2402 69.2585 72.9909
92.7093 225.562 182.718
121.017 220.508 200.684
130.319 232.836 216.626
62.3355 61.9325 83.6144
36.1521 69.2431 44.2833
73.8314 114.406 51.8064
69.2523 86.575 96.0842
106.285 221.832 198.088
104.225 163.676 220.49
