ply
format ascii 1.0
comment Created by Open3D
element vertex 714
property double x
property double y
property double z
end_header
110.073 130.741 172.704
77.0192 63.1749 121.447
86.6287 120.606 115.638
93.2796 125.713 161.581
98.2394 81.2987 168.593
114.337 133.784 45.088
70.4517 59.9518 105.107
99.4057 69.4717 117.636
93.7091 130.717 52.5956
97.9801 57.8025 153.559
84.2522 70.1541 61.3247
72.9366 131.204 40.1627
94.3063 163.271 71.921
86.4709 85.8136 132.845
102.293 127.656 66.4537
97.1765 146.951 121.422
64.0197 106.178 95.3027
104.988 123.227 94.7382
97.0868 59.4474 101.581
87.6627 147.761 171.695
96.2868 76.7789 157.831
104.115 131.816 189.994
103.627 81.6365 157.683
88.656 127.65 108.365
81.5798 153.192 48.625
112.083 157.113 138.761
65.1106 61.8356 116.79
96.1056 71.4663 79.8092
101.745 110.323 89.8944
109.805 119.898 115.43
110.219 116.853 61.0733
91.506 99.8708 110.359
85.448 66.0548 111.062
92.859 137.297 156.88
80.5167 151.572 74.4301
72.5247 148.377 103.639
116.359 137.112 56.4858
87.4431 154.246 77.5586
88.8789 120.444 126.691
112.122 132.721 135.753
86.4966 139.877 61.8135
84.1395 87.9341 157.311
97.155 174.121 80.3958
93.3192 171.605 91.8806
54.6651 95.8212 62.7151
104.644 162.247 60.4924
79.4177 111.88 79.9128
63.9742 63.0599 140.584
110.599 59.4166 112.089
84.3857 107.142 54.402
94.7224 142.911 137.882
100.079 64.3671 85.5457
92.9995 101.334 130.638
79.6982 40.2044 118.654
95.6976 121.559 79.5218
65.2698 50.8041 63.9855
69.6954 93.6486 114.741
63.0105 138.474 114.875
98.059 169.196 50.8127
117.157 161.703 62.1782
116.583 123.611 31.9309
64.9777 148.273 53.3073
76.9482 29.4776 104.831
72.1249 85.7766 53.8282
79.8852 159.538 55.4378
90.4451 126.177 22.3698
81.89 151.333 119.136
94.8935 122.76 113.484
91.1473 166.593 58.5131
109.605 92.2385 109.444
100.088 114.823 151.52
64.6716 105.56 170.235
93.3981 110.644 144.754
94.3071 119.146 64.2669
86.1003 170.593 121.401
66.8267 114.488 181.248
48.8687 136.668 109.01
73.5913 90.8024 66.2196
108.124 148.94 42.4161
63.8237 108.745 54.6737
61.9754 39.565 120.917
64.1694 98.6387 125.33
109.834 146.028 60.2108
83.038 56.0981 104.977
73.4201 140.212 170.463
116.824 107.865 126.944
86.4784 130.839 150.887
102.612 130.695 41.3298
110.759 143.87 127.062
55.4648 63.9047 77.4826
56.4193 158.429 48.8738
96.9458 142.848 43.2904
63.896 42.3317 60.2467
95.4917 94.027 115.35
82.3746 118.258 155.888
87.514 139.447 117.347
105.969 109.247 138.605
116.346 126.253 66.8322
64.8123 56.6775 70.0833
115.547 123.31 185.915
78.3054 143.614 102.722
104.301 118.8 140.21
69.3088 99.9407 57.1399
77.8091 67.4256 108.907
96.4347 116.472 135.387
84.8043 61.1525 122.595
94.1698 48.415 96.9881
75.514 111.798 133.58
110.058 128.76 59.867
77.8445 146.234 131.585
73.0613 72.1675 144.722
113.63 111.976 120.843
110.039 169.568 66.4555
57.3492 53.5801 68.3923
55.409 144.922 112.932
80.3521 148.588 89.0579
110.574 160.045 127.844
117.576 81.3599 108.57
42.8147 109.335 117.05
60.9886 152.821 155.098
98.3038 121.809 155.401
62.9579 52.2038 78.9843
90.9468 60.3261 98.5565
72.6522 48.0191 79.2829
86.0378 126.794 83.0539
114.515 76.0879 117.692
114.974 136.926 127.68
57.3386 111.964 57.0728
96.6118 106.792 154.537
42.9639 168.412 51.1572
117.346 120.356 49.3687
72.5418 43.8513 132.757
118.469 113.983 138.509
106.266 109.444 116.646
61.8201 130.26 107.564
53.4084 117.956 62.854
110.834 126.671 194.196
74.8431 65.5699 92.2212
104.731 112.659 146.668
117.678 94.2886 96.4876
56.6893 151.415 97.3429
116.409 149.142 59.1524
71.5128 52.9871 71.4394
72.4737 153.648 61.9692
115.362 47.0593 99.8772
71.8935 89.5496 129.13
84.7791 131.881 190.353
100.202 136.003 151.002
95.6002 53.9251 90.437
105.953 143.309 140.336
118.23 127.927 140.7
103.122 144.778 52.2021
68.8534 122.256 136.36
63.7684 149.031 81.8863
89.2751 76.6206 130.342
115.973 144.962 50.5111
110.672 82.2858 79.1855
89.3864 127.802 94.3123
65.4221 120.617 87.836
89.898 93.3303 127.986
60.3669 79.29 71.3817
80.8043 91.4631 146.446
80.881 138.443 49.5189
83.4003 92.3469 61.9048
85.4362 130.486 39.5499
108.853 82.763 90.525
77.9157 135.867 178.154
86.8583 130.669 52.7192
82.875 110.3 145.319
74.3539 119.393 138.603
87.4701 70.9632 69.3766
81.8063 80.8015 57.4287
110.682 116.857 70.4143
107.711 155.492 50.347
97.5905 134.757 62.8877
87.4692 154.752 143.379
70.009 43.6667 108.695
71.7151 83.6065 139.598
101.969 88.5324 135.008
97.3216 141.818 173.297
77.4594 116.703 58.2577
118.366 85.581 122.979
63.7115 115.728 162.756
88.4723 163.06 95.3783
96.7582 83.3533 119.965
97.0052 98.9974 138.87
79.6168 135.009 84.324
111.261 135.687 68.0751
85.4712 121.014 141.545
90.9511 78.43 141.432
74.1885 95.0533 141.9
91.0219 91.2788 105.477
77.2064 109.468 116.873
98.9527 115.069 100.797
62.9595 68.9922 128.663
55.352 78.6981 82.5313
106.164 132.782 130.948
81.3921 82.021 114.827
88.7677 96.4648 145.327
81.8594 111.569 163.458
67.7212 138.53 103.418
79.7606 87.0074 71.5155
97.4665 120.895 51.5443
96.7345 138.79 190.168
111.137 91.5298 94.5624
49.4983 151.138 152.356
82.0801 122.204 132.011
51.3172 100.358 145.444
86.8246 117.974 60.7196
77.936 124.308 78.8652
80.9412 139.374 150.549
72.9678 71.9712 69.0427
88.1535 131.96 68.8124
64.8352 62.9071 78.2226
97.4411 69.1278 142.481
84.2097 106.539 64.9787
47.5284 166.138 68.655
87.8663 74.5733 91.1814
104.002 132.381 168.188
97.7939 131.874 135.715
96.3936 114.175 85.1771
79.6405 95.8649 120.968
63.9667 159.475 43.7874
78.7146 89.2299 134.902
104.796 137.714 60.0544
73.3864 93.862 157.802
102.443 139.504 36.5565
66.6695 53.7422 98.8693
57.1241 107.552 159.714
66.0779 51.2588 107.506
40.3452 125.063 99.8872
82.2995 146.069 111.601
64.3015 96.9825 52.3458
97.9593 132.274 23.6461
60.2883 141.735 44.7434
78.6485 69.5377 126.319
68.5478 40.0443 98.8006
71.3908 142.888 188.464
83.6483 96.4213 139.12
62.9228 112.413 133.028
69.9194 97.8224 89.6596
61.7027 95.3474 156.086
79.3146 59.1535 66.7709
95.871 129.461 98.2985
94.3342 84.4345 80.0749
72.6089 74.2667 83.9576
76.2642 106.399 97.1059
90.5926 109.95 161.495
84.2789 141.203 163.896
102.309 104.8 128.382
92.6731 86.5646 167.747
111.942 121.327 126.601
84.2253 66.1777 158.151
86.9383 103.609 144.104
115.724 98.5544 117.464
75.691 135.115 134.772
89.1019 141.966 180.728
55.0407 88.263 72.4497
96.0654 124.839 138.147
93.4858 84.7654 110.712
101.885 123.272 59.2279
54.7388 131.151 31.843
81.3035 78.6862 80.8497
47.9839 126.92 67.2883
104.508 111.914 35.9763
90.351 132.526 134.104
61.3005 60.5977 103.465
87.7701 133.52 181.04
80.4456 36.9697 99.2821
68.069 88.6385 101.529
64.2773 97.8439 177.041
67.7307 112.368 168.373
49.1768 157.903 74.1602
43.9717 102.175 91.7129
102.558 78.858 121.674
94.6805 74.8584 111.416
67.674 145.666 181.159
96.8393 128.422 174.173
67.6356 51.6171 91.662
55.4287 61.1302 122.944
65.9389 87.4008 67.5904
77.5218 121.62 67.731
99.1127 129.085 147.216
76.0651 65.9719 73.7091
105.637 124.331 48.9156
74.3245 115.905 161.061
83.6123 149.2 133.103
74.5276 128.42 65.3932
47.8504 150.677 50.8228
69.1317 30.4822 96.9727
88.7888 120.546 28.3137
87.916 96.8062 71.3034
80.682 146.942 58.9394
103.825 129.859 141.262
81.9643 47.4536 111.669
116.247 117.219 131.395
90.8814 89.2232 73.4335
73.6873 55.2895 132.716
73.9273 107.059 66.2906
81.851 68.4427 97.7696
104.543 69.9465 84.4724
93.7175 129.296 39.0656
57.9606 44.5798 65.4641
90.4463 99.2513 154.245
64.6085 75.7282 151.048
54.1119 92.083 153.703
113.062 150.513 130.863
104.053 111.312 45.4203
87.1767 77.0328 104.647
69.4558 136.853 58.5628
88.8416 82.5342 88.5739
97.4128 116.343 111.091
64.2114 107.738 68.1524
76.2817 119.775 115.834
87.5829 80.3247 69.7238
74.3941 65.9488 136.449
96.5813 112.129 126.311
95.2478 131.254 117.501
71.966 154.007 40.7258
90.3276 69.2867 122.905
74.0223 104.752 83.7253
106.755 113.794 128.347
71.1642 136.315 181.462
92.0062 64.2939 81.833
113.659 119.617 145.492
73.4427 114.659 104.032
82.4196 127.022 101.046
106.372 101.692 121.065
66.409 49.6371 117.851
105.249 81.0423 126.765
96.1975 162.214 103.606
105.81 112.207 96.1366
75.7667 68.4971 55.9798
46.6004 96.5132 61.6312
86.9288 137.86 123.889
77.241 66.4047 155.662
76.7816 129.226 142.63
47.5872 159.774 115.661
80.1828 73.5098 133.211
73.3978 121.997 102.384
101.149 130.138 119.527
63.9456 144.849 137.963
84.3133 106.927 137.013
108.853 127.244 144.621
66.5951 71.4643 136.777
91.1225 110.939 71.4821
116.578 142.942 140.851
71.7422 144.462 44.6878
69.3314 156.577 128.101
86.0893 38.549 106.464
98.0111 79.3618 105.481
95.5182 85.2339 97.1678
67.0001 102.169 112.329
78.5302 68.4184 85.8508
96.8409 102.342 120.595
48.214 92.5411 155.433
102.87 143.353 73.7119
83.392 71.7922 75.1135
87.8301 130.365 163.979
83.2607 158.46 128.796
66.5397 147.131 114.824
113.967 139.568 39.4103
102.136 102.945 136.39
87.9026 113.602 83.2088
82.1528 95.4633 157.946
48.995 146.895 125.357
70.4906 80.8384 156.22
109.193 88.4689 127.841
99.9923 53.308 98.6766
88.8883 83.2137 117.908
72.4296 141.936 87.0906
96.6727 127.688 184.872
102.624 46.669 89.4785
67.976 91.61 156.522
112.802 98.1164 95.0798
49.6459 158.75 63.7388
75.438 104.445 145.849
89.3311 152.433 127.256
78.986 47.1465 103.757
75.2901 134.738 155.876
82.7105 146.663 67.4771
72.9157 148.167 71.1026
99.2292 98.5128 65.9597
57.5855 154.744 147.365
77.6337 105.989 154.951
67.4568 47.4135 85.4652
77.4977 133.859 106.455
78.5317 126.277 166.792
102.661 90.5549 76.7984
66.6826 128.967 50.6475
54.8816 125.598 68.8378
89.9042 123.112 42.9895
65.6715 101.933 141.905
55.3455 101.44 51.9734
52.689 167.732 49.5596
69.608 128.803 110.504
72.2285 142.144 76.496
86.8451 86.9817 122.285
80.5038 87.0969 126.463
57.5794 124.163 89.2568
53.2672 157.78 138.179
117.213 128.723 128.465
95.561 140.589 129.829
85.5106 86.615 98.3329
82.1863 78.416 123.165
86.0154 126.071 46.7264
64.2057 95.6796 145.996
105.95 83.5894 110.95
69.2081 111.892 83.5625
85.2397 69.9649 124.372
65.3669 96.8121 99.9299
64.0702 35.5486 103.338
107.77 164.14 48.4065
110.455 116.333 49.2638
45.384 154.624 128.438
80.0501 100.432 85.6358
77.8555 130.912 58.6661
64.2306 55.0793 85.7234
77.5106 136.556 117.231
61.3147 157.624 106.587
86.3033 90.0234 82.3941
62.785 159.016 56.6087
106.302 97.2019 114.456
57.7023 140.45 57.4366
65.5452 135.813 136.546
60.1044 44.6946 75.4799
102.375 94.003 128.725
51.8565 107.993 66.8728
114.95 92.749 115.561
111.223 124.131 53.0984
77.0278 141.148 111.409
67.4526 76.1267 76.7155
75.9299 105.297 75.4676
110.28 75.3243 104.435
74.2216 115.526 72.4309
113.111 162.187 70.0471
56.311 107.999 141.972
55.4436 164.626 136.461
63.7478 64.7334 92.2196
56.4305 138.985 123.387
71.7831 101.567 136.497
90.1079 141.593 95.1367
73.9145 141.403 53.9753
80.721 76.7442 154.124
68.7066 70.8519 160.764
57.1322 96.0686 172.851
79.9691 116.177 98.8937
49.1467 95.0272 112.298
81.0435 86.2945 106.566
66.1938 117.907 124.914
70.2549 144.675 154.554
92.2583 130.922 147.214
61.0344 90.4838 62.7553
52.5413 98.0653 166.087
73.6603 109.089 105.773
54.8972 98.7214 158.907
53.7665 122.109 133.136
66.6149 144.392 65.2741
58.0411 46.0731 97.2199
80.7502 91.2301 94.1776
62.6775 117.638 95.3326
62.0991 122.195 99.7355
54.2072 161.736 121.392
66.8787 106.778 118.589
70.3306 123.457 177.437
68.3289 70.5017 118.989
73.1231 140.742 93.2842
85.3171 105.169 78.3178
43.6257 120.636 78.7328
49.5904 145.501 100.096
58.6132 136.191 86.3264
56.2964 133.249 53.1445
63.7198 100.735 76.9605
79.8747 69.584 163.531
53.3794 107.802 89.4128
93.4632 135.359 33.5662
59.6164 145.664 105.063
70.2012 108.409 151.972
74.1608 144.895 123
76.4941 122.15 90.6383
59.2611 113.348 101.707
78.9292 107.429 125.297
66.0197 120.43 110.743
69.2406 70.9562 107.791
96.9936 130.269 126.23
58.5019 145.47 66.0882
100.406 136.373 165.868
87.6696 149.904 100.395
112.438 137.361 185.398
97.8415 53.7302 157.903
81.0141 81.1017 92.2989
98.96 78.9212 131.863
69.6292 86.9391 75.742
65.0651 95.6815 137.479
60.3736 60.1571 130.069
107.274 130.667 101.618
56.6894 106.013 117.401
75.0011 149.428 81.8052
55.8638 153.257 128.418
56.0451 153.563 64.076
58.2684 120.069 116.234
60.7715 81.1911 131.112
73.8097 75.9207 116.446
107.964 126.567 33.8289
67.1932 155.57 65.7419
67.3706 100.245 69.5884
57.1763 55.4479 115.882
88.274 140.825 144.255
63.7771 78.955 121.474
54.6837 120.299 110.607
63.473 71.2776 84.2965
59.1118 139.765 151.402
70.5173 101.039 160.262
74.2453 67.1897 148.539
74.5759 95.3857 123.641
81.3023 127.566 157.94
52.0726 121.236 80.8512
47.4452 99.3082 81.7559
99.0486 148.857 80.3579
68.836 37.6499 124.303
73.7943 110.115 49.965
90.3578 81.2785 148.035
64.595 106.265 150.54
71.3447 43.4144 116.357
75.9837 129.949 129.319
52.2593 142.064 45.8182
38.4088 113.412 85.2179
110.31 118.155 27.24
59.3683 85.3666 148.782
75.6682 121.355 127.362
76.4313 33.9475 120.702
86.2448 111.66 98.4194
66.3246 115.361 147.515
58.8354 79.3547 156.921
75.4145 78.6025 69.3341
53.012 93.0567 94.9251
81.2721 140.462 186.496
91.9276 136.12 141.186
55.9673 151.123 85.1501
84.127 133.541 91.5463
70.556 116.419 54.3691
52.3552 146.674 145.212
56.4489 67.4683 92.702
90.5808 124.148 132.702
76.4109 93.3183 75.2225
68.0534 167.808 50.8555
69.8176 71.4667 88.1578
47.9363 134.354 95.9952
61.0411 147.599 129.708
44.4349 159.228 137.363
80.8204 29.842 111.76
75.9081 113.848 145.784
82.1559 78.9813 147.697
58.4483 168.685 141.098
80.266 104.712 105.033
72.0634 158.269 137.96
69.3779 64.8614 126.018
69.3267 59.7362 96.5526
69.6258 123.415 143.242
64.1581 137.419 160.879
52.5794 131.898 154.017
74.0075 145.82 163.11
63.0231 162.148 115.077
57.5524 135.133 98.685
36.2822 119.824 79.6218
82.4025 137.9 102.126
105.07 120.165 65.7738
58.8603 141 74.4838
89.5147 120.672 156.587
50.7726 118.618 96.9294
55.6699 49.3351 101.54
64.6559 137.094 72.3484
63.8241 108.502 86.5209
64.5471 150.532 95.2685
60.2632 119.238 139.118
57.2542 105.979 108.544
60.8283 118.305 62.1651
106.199 151.616 74.3422
56.9797 130.953 44.5635
67.3359 70.0378 98.0851
63.4679 86.5238 81.6276
81.5175 109.972 88.8709
46.3285 110.663 109.004
69.7257 84.1673 90.6875
65.8453 124.615 77.4939
51.1579 103.596 59.6187
46.8375 119.402 105.994
62.8446 124.224 143.747
97.6014 152.355 147.08
58.5363 92.7595 123.132
72.7297 133.683 112.056
73.666 124.335 148.165
52.468 142.481 53.9238
65.7623 131.839 119.742
58.9792 112.219 77.0239
54.1778 112.052 151.458
46.881 113.605 84.8707
57.3775 84.8645 126.151
55.4895 124.302 105.16
60.8176 149.663 43.7606
61.8816 121.013 152.74
56.797 98.001 107.146
78.85 76.9114 108.248
66.9262 91.2502 94.0165
94.7716 162.555 123.261
112.491 83.1667 128.544
56.9623 130.635 134.826
67.6561 141.751 122.058
84.5907 118.623 68.2658
56.3212 124.397 29.3058
60.3673 143.932 89.2957
88.5769 129.248 77.7311
91.591 144.452 87.7499
65.5403 60.5796 131.29
48.0654 104.837 154.871
74.1673 128.991 121.802
55.8032 90.4115 86.3336
61.8465 81.759 107.641
57.7033 74.8283 124.839
97.5984 157.905 88.1602
64.763 131.935 79.5151
71.8437 117.877 154.138
64.1636 126.341 128.735
79.8145 91.1468 84.0696
55.5872 134.721 71.0949
96.4223 121.327 31.3759
67.1453 132.886 164.74
84.1296 95.8513 111.455
47.9344 140.03 118.95
74.5706 101.927 128.935
115.452 111.091 41.9339
93.0294 118.592 96.8295
56.936 64.8643 109.814
78.5301 130.378 51.8425
107.058 159.959 140.726
62.447 113.331 155.5
49.7088 146.65 92.6002
95.1798 165.989 114.162
43.2962 96.9221 160.411
64.3148 162.147 84.051
44.5063 105.105 69.4334
52.0926 167.822 58.6052
56.4867 126.261 146.348
69.9251 82.2203 99.2109
44.4654 137.828 125.675
70.991 121.912 170.355
79.0095 96.3152 111.125
66.6537 125.822 61.9093
80.0285 71.5801 118.745
53.8211 92.3669 142.842
54.0697 96.0172 71.6526
57.1689 111.31 83.4384
56.9026 105.034 99.0383
42.7966 145.785 121.96
48.2412 133.818 86.3362
49.0307 140.904 131.349
39.8933 115.187 94.8194
46.8768 159.838 52.9861
57.01 113.574 108.707
57.612 150.087 138.72
86.0952 118.534 149.8
93.7304 75.3634 101.144
59.3327 121.649 75.7269
62.1136 131.413 59.646
118.231 114.877 38.1704
59.6407 120.808 50.198
83.5735 114.489 105.35
49.4308 73.9433 90.1417
48.5152 145.496 73.5322
48.6716 58.0298 118.122
49.5902 101.092 98.2281
71.9746 117.09 126.594
55.0612 127.811 59.2229
60.4151 100.393 67.7614
62.4407 163.471 94.0763
87.8712 63.9604 148.876
55.1519 139.293 77.9387
49.8517 57.882 95.6311
48.2642 128.129 113.451
48.551 161.246 82.9542
49.2022 96.7645 119.653
61.4028 84.6412 90.9066
92.5178 66.9391 92.5528
74.5396 88.1558 110.169
49.4102 84.4116 100.23
42.977 107.872 100.36
89.5565 115.351 107.342
53.6569 68.556 98.512
74.2075 28.5662 112.678
46.002 75.5948 96.9026
48.2158 127.028 90.5618
83.0684 65.8086 147.579
47.8262 115.239 70.6648
110.774 93.3446 119.544
43.8923 151.24 136.887
69.7449 44.7101 70.6193
108.458 132.186 98.2676
57.7454 112.013 70.211
74.1049 76.9519 94.6821
61.9376 132.76 140.84
44.4237 129.896 80.6521
50.4926 150.639 67.4328
59.1825 74.2977 78.5421
57.7363 131.499 124.757
56.4608 99.2976 93.3129
56.7057 86.8569 134.636
61.6154 106.167 110.674
80.3789 165.214 79.014
117.483 108.257 44.6574
45.4415 115.195 99.3047
61.1445 90.6125 107.013
53.8694 114.894 91.0626
57.529 109.839 125.65
44.7731 120.396 127.985
