ply
format ascii 1.0
comment Created by Open3D
element vertex 702
property double x
property double y
property double z
end_header
88.3448 63.0381 70.9243
53.3865 217.675 96.6659
82.4346 104.67 92.8115
87.8373 87.5061 70.0602
80.6499 243.756 75.0802
74.4502 88.9295 44.0654
85.067 228.217 72.6293
56.983 194.885 69.3828
65.768 199.433 70.9174
64.9118 234.384 42.0514
80.9377 236.702 86.2482
82.6038 249.897 80.737
57.8546 269.702 57.5401
78.0625 71.2333 84.4312
88.2141 101.89 54.5489
88.1129 44.3083 80.8673
89.315 59.6246 59.8282
46.8973 242.78 91.7063
78.2349 234.14 40.3096
86.2758 81.4148 57.1591
35.7356 255.636 65.1811
81.4727 220.504 73.646
86.9461 38.2164 21.7314
80.5424 112.243 73.8327
67.7272 112.404 44.2664
47.0902 67.3027 36.4625
68.4956 262.619 45.7503
66.3927 204.464 62.2474
88.2516 89.8635 79.8169
85.0632 221.104 100.622
88.6068 53.244 76.5224
86.8134 246.05 64.7219
84.37 223.108 88.0197
69.0116 125.889 88.5131
85.7692 69.5006 59.8266
54.3013 214.559 76.4214
76.6004 42.198 53.9519
78.1154 235.301 116.573
78.6844 84.5927 51.259
58.8503 96.2097 62.8864
88.4153 252.23 56.6418
87.0214 253.973 70.1868
69.9107 241.71 77.906
67.5442 58.044 59.019
78.0198 229.698 80.3952
83.0238 263.189 69.7147
64.9971 67.9967 62.2775
56.1868 252.409 42.4753
64.4297 94.3501 51.0931
64.9558 77.9484 50.629
72.8371 27.6686 79.7351
85.0344 253.425 46.9889
87.0454 228.752 57.6462
89.1658 100.578 65.2651
60.396 33.9906 65.4228
86.7207 84.455 98.0158
79.5572 65.0758 66.5374
81.8308 57.4817 25.9097
84.586 233.148 48.1827
71.1335 126.45 63.7947
77.1384 94.6223 68.8671
87.5404 54.5643 41.4553
79.102 215.594 111.986
83.692 213.804 77.8476
69.5183 265.701 77.8647
71.3932 202.634 76.7774
50.8234 45.2736 60.7372
80.8911 49.1916 31.2051
49.056 268.546 69.1188
52.4516 234.091 40.4787
84.6184 66.9823 79.5228
87.8146 219.332 93.6194
77.3129 207.514 74.096
86.9643 245.711 50.6814
70.3622 217.822 98.9442
84.8158 228.593 100.942
71.7952 110.31 91.6981
52.1348 193.638 76.78
71.0569 96.6286 98.0691
66.2278 227.071 88.415
74.107 93.7821 56.0737
70.8866 105.043 38.0465
74.0326 269.895 52.3723
81.3925 51.045 74.1571
57.5044 189.073 95.4439
66.4745 27.6869 69.0534
78.1644 228.637 44.8364
80.3321 214.209 104.643
85.6044 244.165 58.3329
48.9476 271.759 62.2493
89.2093 33.1433 66.906
72.8132 203.413 67.4949
83.9264 41.3156 88.1966
54.655 109.043 79.1332
41.8188 204.651 74.571
86.1023 219.17 64.5347
53.3566 183.167 113.148
65.59 71.5623 38.2348
78.54 272.923 61.705
75.8115 39.7414 69.7258
64.6312 226.222 100.043
61.9724 218.811 93.7771
71.952 223.597 59.2535
88.7026 26.4643 49.7017
57.2109 235.02 116.928
78.0348 237.018 107.962
62.1305 97.1136 43.0477
61.6076 253.082 69.2485
90.3752 96.0009 70.8185
75.4152 29.5686 69.4652
56.7345 221.476 105.47
58.3591 105.884 67.926
57.7971 273.905 68.2049
72.5811 117.241 63.894
55.2053 200.423 63.1605
72.509 255.888 50.5568
79.5628 108.863 54.0638
83.5588 252.977 61.8147
71.5814 236.383 114.105
42.7818 237.355 73.7239
64.2548 38.7655 58.085
86.3503 32.3775 81.7468
30.4645 233.415 53.9867
64.6391 210.449 58.7442
80.9645 149.095 102.665
68.134 55.3302 41.0102
55.1521 183.829 106.945
65.2927 74.6133 99.7662
66.2429 102.546 105.148
66.3211 268.972 51.7929
72.1892 72.4415 96.9097
70.5457 98.6273 68.9238
72.4819 79.1416 72.9501
69.0364 239.703 107.071
82.3243 248.684 41.9292
71.3664 57.0123 72.5929
85.7884 238.161 55.1215
71.1733 219.849 111.996
79.8713 77.3663 102.476
85.4448 213.519 89.2404
83.6329 162.04 75.6904
84.6699 78.652 84.0109
62.2422 64.2212 53.5968
74.8016 243.307 58.6559
60.7895 228.275 121.052
62.2491 195.773 78.6128
71.0349 206.517 97.1114
52.395 102.068 83.7265
52.6084 254.244 66.2334
71.044 253.12 65.483
65.0685 252.202 53.455
76.5449 68.8622 57.9585
71.3295 252.973 90.5975
57.381 93.9817 53.8911
74.038 41.9927 42.924
74.2988 45.4724 32.8617
86.3362 24.9466 67.3427
83.7433 144.944 80.7978
46.1345 225.457 98.4143
71.3436 256.574 74.6038
37.5898 261.282 76.4648
78.9101 68.8982 34.3692
71.5687 246.932 84.8222
58.4251 228.76 44.533
67.9431 226.386 79.6737
74.899 250.709 81.0447
67.6689 105.065 83.0621
77.8306 107.835 66.1183
80.0593 116.861 84.4367
42.48 260 55.9558
68.1154 272.304 68.6712
53.7245 222.078 70.5292
57.2359 259.011 43.9613
67.4446 247.889 43.752
83.1585 235.911 101.611
66.9312 228.426 47.6796
71.7244 223.054 46.9443
55.2349 57.5258 69.8601
48.6828 237.724 82.2754
54.8047 261.024 69.9669
85.339 229.246 110.444
80.4573 38.1969 94.8795
76.9936 230.276 100.283
49.9468 201.768 61.9661
74.4102 93.2868 82.7031
86.5899 123.687 72.4788
64.0166 228.893 109.514
45.2016 258.358 83.0141
58.7128 43.311 83.7915
38.0042 263.415 65.071
46.0105 53.7806 81.6836
72.1214 251.156 58.6782
49.9149 265.102 53.0341
81.5449 95.0492 47.4662
40.697 202.574 62.2549
54.2133 200.914 104.975
84.7806 230.81 94.8695
74.5292 96.3458 43.2402
55.4635 30.3258 71.4341
78.8039 266.434 57.2383
73.3828 68.7817 40.5796
70.5282 209.979 112.413
61.7145 103.629 52.2866
62.8949 215.998 48.5704
62.8759 118.623 63.3227
62.566 77.0719 65.505
70.3673 260.597 54.116
71.1037 224.383 85.5354
58.6639 124.675 85.0168
80.111 241.53 49.5497
79.8733 46.0126 58.8439
64.6707 128.228 70.9679
85.838 30.6069 60.3536
62.7437 85.0578 49.199
61.3496 96.2741 78.8624
58.7438 76.4408 72.0917
78.2233 118.406 63.2819
81.5646 98.5895 83.4208
85.7922 242.175 45.3379
87.9942 111.885 84.7045
53.2142 206.06 53.312
76.6737 225.384 95.338
54.3287 224.125 112.208
72.6326 48.7636 49.8664
85.2342 56.8811 33.743
51.2219 233.712 54.1566
84.7255 77.9707 70.7692
46.161 202.586 57.9177
64.0568 275.296 58.9483
53.8642 233.364 110.309
79.7615 269.077 65.3092
67.1486 190.295 111.226
85.5146 262.627 56.7976
77.0353 254.059 41.1012
70.6512 229.383 121.937
50.1737 223.007 77.4719
47.0849 239.542 46.8552
55.9778 261.051 50.9642
62.9994 188.453 105.746
69.8007 255.102 41.7445
54.1647 227.967 104.959
52.08 70.7514 64.1062
85.0008 225.893 80.2255
79.2561 222.919 105.759
72.9464 56.8969 61.128
54.6667 244.692 95.5467
57.4 79.0092 90.2615
70.6303 233.411 82.3932
60.81 16.4382 80.9232
84.654 229.97 123.061
81.225 214.125 97.3691
66.6983 44.4365 50.9915
66.8901 213.089 116.504
58.8675 194.578 114.457
66.5216 70.9709 85.9429
62.4896 185.178 116.747
70.2553 228.414 39.523
69.2683 109.498 63.55
72.1111 77.0162 102.103
64.8979 221.662 43.8261
42.2979 211.718 62.083
79.8182 242.721 83.4704
43.0583 208.39 82.5154
81.2486 58.8317 54.2429
37.1823 208.7 73.7421
70.1204 111.262 54.6337
53.4139 103.696 47.8067
72.1811 238.979 66.3579
62.7685 211.538 80.1029
59.0651 111.99 49.5562
56.8785 242.999 50.8378
73.1382 36.4209 46.3745
64.7614 230.475 61.2906
78.7139 263.73 79.0279
70.6864 267.529 58.41
61.7481 117.616 94.8145
62.0294 121.807 89.5377
70.5917 102.402 48.3516
49.8629 207.383 69.4407
36.2401 243.556 90.6895
73.1181 209.909 103.055
79.1283 57.0367 62.7562
84.2132 43.3603 44.7659
78.3025 33.2559 60.4152
69.9969 131.32 66.1684
42.8565 215.534 71.3913
71.7235 88.9709 97.7698
65.7042 242.443 84.792
42.7417 220.492 43.6835
74.7666 197.856 89.2341
60.2834 88.7038 41.508
73.3269 102.268 56.2042
57.01 252.192 78.4745
48.1003 217.327 94.3452
83.9199 234.621 72.3373
70.5754 261.681 67.7257
42.1665 224.625 88.201
48.9427 195.84 66.693
79.1636 206.078 85.334
66.7708 263.408 64.6613
49.3513 226.595 47.7207
47.7844 237.963 98.4709
74.3904 60.7849 25.0831
50.2814 229.169 80.0441
63.7103 206.524 94.003
66.6661 83.3883 70.3099
63.4347 240.709 97.258
64.3301 17.1922 68.0931
62.8325 76.138 78.8218
67.5598 46.6683 35.384
84.158 107.2 68.2354
79.6591 99.993 64.2731
72.631 128.437 75.6371
78.5081 47.1259 43.6845
64.2866 209.742 106.257
80.7245 223.369 113.189
85.3276 209.124 82.408
53.9269 108.983 96.4669
52.3062 256.454 53.886
55.1063 201.2 77.8467
78.9004 123.54 78.4528
79.1215 202.014 77.1983
50.3742 204.288 85.6633
81.7791 72.7341 51.7498
61.8216 268.373 71.6841
80.6911 198.86 109.705
50.1513 194.126 93.7515
71.307 216.606 61.0429
54.6332 115.688 94.0783
83.4046 223.062 125.411
83.8236 35.9669 71.2524
57.174 188.209 102.376
76.5513 99.1127 77.5073
51.6083 104.406 89.9356
65.6835 253.439 85.8993
76.0604 61.1542 87.8481
68.1825 80.5871 57.2767
59.4364 127.538 77.3038
71.1118 59.5237 79.2154
75.6491 248.168 53.8851
49.0328 248.773 61.3302
66.9913 229.435 54.6131
66.695 104.674 56.836
30.4645 226.256 78.893
63.501 218.401 103.169
61.7091 249.551 78.5245
72.5512 64.3323 68.7117
81.7062 56.6513 70.6132
49.3137 229.323 92.9338
55.907 240.526 69.1506
57.4613 268.031 48.638
42.7898 241.939 55.8454
72.8742 238.923 96.2349
47.2671 198.745 82.4075
41.3973 247.039 65.9916
77.5582 255.303 68.1625
71.8535 196.104 80.4066
64.0747 241.902 54.849
77.1117 33.0842 49.9209
39.9823 240.43 47.2918
67.9628 105.422 98.8945
90.6099 94.6738 52.2801
59.003 202.03 71.152
58.0364 117.992 77.4622
70.9124 46.908 58.4566
30.154 252.115 72.057
73.9624 106.725 75.0104
63.6332 57.1793 44.2177
38.1749 236.119 53.5235
43.2779 263.723 74.1792
76.3241 216.406 79.3351
52.2886 241.494 101.732
84.6826 96.8364 76.5818
61.624 97.5281 105.567
63.1795 260.163 53.5516
80.4391 69.1001 46.0695
79.7333 36.2084 76.3527
78.4229 225.003 55.5042
75.0537 235.88 83.2842
76.1206 124.075 72.5356
72.2757 116.949 89.2898
79.4682 246.964 61.6655
60.4062 265.829 65.4245
63.1583 218.412 114.598
78.0712 143.903 74.4667
56.6093 206.634 81.2895
59.4976 94.0217 93.2691
82.8348 251.952 74.3256
76.8349 203.655 97.1797
72.307 70.3422 82.1508
29.9611 218.81 63.4958
66.2207 236.115 121.405
87.8924 121.141 61.9937
50.4946 240.795 73.7111
53.2571 67.3701 72.1587
52.6561 116.499 83.1069
78.1453 255.646 48.78
63.4756 240.241 73.3105
81.6452 122.623 68.0391
80.0727 259.264 54.4592
51.8273 213.676 87.1921
51.4018 214.251 45.925
85.6773 105.354 60.7942
42.5388 224.356 53.7095
70.124 245.342 64.3635
42.1476 216.053 50.1328
60.342 213.446 85.3351
51.8503 225.127 40.287
65.5629 68.1461 80.1265
71.9713 275.057 61.491
61.8775 110.292 93.3036
71.8167 204.031 90.5725
57.5771 89.8629 102.08
81.8739 96.3145 53.9519
71.8187 231.192 106.485
49.0265 212.046 61.7056
49.3542 34.2535 90.4621
61.0063 28.9104 81.8714
82.3926 78.0694 62.8635
41.5155 239.13 82.7676
47.912 247.809 49.8028
54.6234 87.2726 75.3607
85.4404 90.2326 96.3388
78.6946 90.3323 110.269
77.2944 76.2742 91.7043
75.0016 53.6281 54.8708
75.5672 244.435 39.2037
73.1534 76.1464 51.2999
53.4043 85.6478 49.7973
72.9509 120.194 83.0292
60.0106 90.4249 71.9492
59.0571 221.71 65.9225
64.4987 236.826 113.785
46.1406 246.38 84.165
53.352 98.1851 102.546
65.2034 29.7034 57.9048
55.0687 268.818 75.5682
73.5842 238.637 49.6702
79.7692 95.1326 90.252
50.9331 241.246 58.1977
52.7416 191.804 111.261
45.5728 57.8269 48.6881
60.7381 58.5802 65.1279
35.7253 211.296 57.324
55.06 88.7143 83.1114
65.6589 234.893 83.4056
41.8036 247.669 89.1206
36.0071 225.266 46.5305
75.9917 262.101 65.191
85.43 46.1733 54.5451
72.2689 227.884 111.156
65.6356 213.405 88.9052
89.3205 46.9602 44.0347
68.4909 84.7575 93.98
75.1191 101.407 87.3273
38.3841 242.21 69.5648
65.7777 112.495 68.7507
47.8856 265.705 76.5975
58.6732 22.7234 77.0497
75.5011 213.725 118.066
77.3569 217.11 87.1924
60.6348 248.717 90.7691
72.5485 215.515 106.428
62.1682 239.976 48.5057
54.2076 104.975 58.6198
71.3415 78.5358 65.4336
69.4127 151.963 82.1166
57.0538 53.9593 84.777
63.846 258.43 79.1117
59.0937 223.967 48.3732
82.3687 216.023 83.3609
83.6504 206.893 91.0233
51.1584 235.357 104.484
60.8374 247.693 40.7485
43.062 225.036 70.3946
62.5725 246.662 83.3718
55.0296 99.3803 76.4764
66.9068 245.986 36.8718
37.7022 237.021 89.314
77.8835 140.286 81.3782
40.6534 266.327 59.7058
44.389 198.886 73.9504
78.7869 256.929 80.0595
44.3866 230.283 43.5748
76.9781 262.607 50.0008
62.1301 261.855 47.5748
80.274 26.2576 60.946
71.0208 229.267 65.2495
77.1343 228.531 121.578
57.9608 221.405 117.967
63.4428 53.0551 81.1765
70.0519 137.56 92.1127
49.4106 43.7205 83.3527
67.7329 247.95 93.9334
52.6213 247.383 44.1628
79.6973 231.555 51.8403
72.0115 217.336 76.8214
71.7427 228.163 101.291
68.994 244.807 52.9789
70.5028 70.9018 51.5508
56.4766 223.31 91.8083
65.2609 224.086 66.988
64.0149 208.967 99.5208
60.2055 204.635 61.7609
68.6517 92.3988 70.5794
58.7884 49.1176 56.3583
69.1575 38.9108 81.9781
73.572 202.972 84.4239
54.6582 117.12 88.2258
59.8972 91.5888 84.8936
67.9327 83.37 106.377
78.2106 247.672 87.5278
68.2721 46.1115 83.3777
82.2685 107.504 82.108
43.2783 266.722 68.7213
48.3568 243.508 67.704
72.8234 87.2097 72.8782
59.2681 111.183 101.747
83.7298 84.3649 77.8325
53.8257 62.1103 46.0658
63.0272 76.9865 90.9767
33.619 211.025 66.4543
76.4801 225.985 115.766
73.1069 232.485 41.8707
67.0222 222.02 51.3985
72.4912 95.0699 88.7613
80.8925 50.45 88.8562
70.6134 218.88 117.603
38.8433 226.997 80.9762
55.326 250.602 72.2568
81.036 137.597 64.1033
79.8242 230.512 105.649
66.8039 83.5015 86.3729
56.5097 236.081 95.3913
70.7329 268.194 71.6295
63.9496 121.488 81.384
31.7343 218.86 73.5629
65.7806 238.433 67.3813
76.4001 76.5254 60.4388
59.9164 237.089 57.9551
62.0499 46.7196 52.6762
78.636 80.579 70.0788
58.2333 64.1152 39.7764
80.8477 73.0232 42.4054
61.2825 259.779 63.1989
37.2028 230.314 50.0101
78.3983 227.485 62.1383
58.7478 233.446 40.9614
69.605 241.219 71.8247
70.5669 220.247 124.18
56.7938 241.796 41.3912
83.054 252.72 54.4669
77.7977 72.1931 66.4909
63.2957 72.6664 55.8861
58.0895 224.74 55.2752
54.2569 112.481 63.5124
63.271 241.997 40.37
69.3116 241.458 92.1208
65.3723 218.174 109.222
64.3047 204.04 88.7705
80.7292 84.0178 90.4848
44.3612 216.148 85.8573
81.4915 248.224 68.7225
53.1859 222.652 63.0395
83.2546 87.776 51.8029
79.9876 147.267 96.4179
62.4918 192.543 119.107
64.8738 237.208 77.826
84.4043 261.087 62.7648
65.9652 97.5514 85.3818
76.4966 236.812 99.9674
64.0551 89.9914 107.673
42.024 232.928 78.502
65.8085 234.886 96.9357
71.4543 59.5427 44.6234
55.5911 226.827 80.6722
53.4929 222.179 86.3065
58.1225 221.773 75.9541
45.5333 250.399 53.4568
62.7914 101.41 95.3058
48.9733 253.599 47.6379
53.2724 50.0179 43.4745
55.6687 234.633 89.2715
35.9178 230.142 91.8699
51.2712 81.7907 83.7617
76.7694 59.2899 33.0355
55.7673 207.733 59.2512
41.3265 223.885 76.403
55.9216 218.412 47.4807
58.633 238.841 105.736
56.7763 213.752 51.8289
37.6638 221.993 64.8399
78.6038 242.344 68.4842
49.024 216.217 81.9969
53.2025 94.0981 95.1206
68.426 91.6097 103.466
49.925 257.691 75.8256
68.1639 85.9701 47.0202
62.3859 152.475 89.6185
60.0603 83.5507 59.7162
82.8419 88.2899 87.4614
36.7145 248.475 81.5026
67.601 67.0971 72.8265
74.7971 248.932 72.2621
63.9884 208.859 72.8611
82.5355 237.486 78.1586
62.7476 221.494 57.0811
42.188 208.028 68.1354
30.1423 225.291 50.2118
50.9444 234.626 85.4682
68.9082 227.382 71.9645
85.1349 47.5605 66.4952
87.409 91.548 49.7047
61.2671 79.4029 103.357
42.0618 255.109 69.0748
57.8862 100.629 96.228
64.2791 220.873 121.47
66.4019 70.6916 93.6029
64.3282 115.883 57.7233
74.6191 223.449 72.3703
49.5996 219.581 52.5916
55.8876 78.7546 42.4295
44.4168 229.898 73.9183
42.1818 235.148 89.5853
55.1422 259.712 59.211
78.329 100.277 57.4227
77.57 116.807 53.1891
34.9632 230.963 74.7376
52.5309 218.366 57.1695
70.6005 64.9994 30.5278
69.4584 37.0485 64.8183
64.4931 210.664 135.824
80.3799 29.9636 52.8987
51.5574 229.625 100.709
72.866 84.5988 49.7112
58.523 102.204 63.181
66.7972 257.725 59.5254
60.284 243.062 100.623
57.3442 49.7364 61.8075
80.7029 237.496 68.9207
50.7033 100.742 95.2614
59.8681 70.643 66.3729
49.4705 95.9749 69.4712
52.0852 106.49 101.911
63.9934 235.676 88.8156
74.5892 228.058 49.6123
66.6287 220.695 56.3338
73.7697 239.866 103.243
58.517 213.419 90.4056
64.6048 100.039 90.6573
66.8148 213.865 72.6786
82.9651 75.7726 74.8026
34.6981 227.048 86.4891
50.5461 34.4334 80.6348
45.7106 225.464 61.8616
35.2773 224.844 56.1703
73.6071 79.7214 61.3529
75.0591 223.501 89.7289
52.4037 77.4126 79.2596
41.4961 218.428 76.2005
63.7966 253.52 44.9719
59.4905 71.7092 43.8323
72.377 115.787 77.9445
67.5418 116.261 87.9808
67.3455 213.402 63.4763
60.3422 65.9893 95.1898
61.1726 233.046 93.0915
69.0812 140.066 87.3941
66.5313 27.7099 81.1657
76.1073 110.291 81.8722
66.0635 235.1 51.7207
60.3021 77.0466 85.769
76.6091 222.241 80.625
47.5104 258.521 68.7614
38.1328 255.091 85.7813
37.3869 231.482 68.7216
49.6782 210.486 77.7606
84.1601 97.4024 69.3214
61.9065 197.61 64.0462
65.1113 214.575 54.6215
37.8683 242.448 76.7451
85.7504 76.1583 116.618
65.9945 239.398 60.9849
58.0602 85.5726 49.7616
59.0233 114.105 56.6434
60.0828 242.814 74.728
51.1414 56.7589 55.4745
49.62 210.036 56.3286
58.9608 229.64 85.3553
72.7352 265.828 64.6722
72.9208 59.5557 94.6009
62.8723 204.423 78.208
47.929 230.551 61.8072
78.7478 84.9905 78.6686
71.0626 71.6969 69.6287
68.6301 258.358 84.4412
74.3238 113.136 72.5123
30.4536 242.767 71.6224
75.4673 38.5124 81.4561
38.3675 217.673 82.576
63.3832 216.706 68.4298
81.9401 86.6902 71.4407
