ply
format ascii 1.0
comment Created by Open3D
element vertex 570
property double x
property double y
property double z
end_header
36.4386 12.9661 77.0182
39.5618 26.2701 80.7092
42.4983 86.1989 236.912
60.417 64.2479 143.671
23.7268 21.0445 131.521
27.3655 59.7773 132.214
47.4579 72.4191 135.899
28.1152 77.1853 70.0384
41.5674 76.2 70.3162
27.1184 174.717 136.01
32.0001 138.718 184.529
24.4656 151.758 28.6693
27.8037 157.636 149.216
34.9711 59.5941 149.874
53.1547 91.7189 153.884
53.144 69.8153 138.809
48.7654 51.5962 77.281
60.3581 93.1956 160.618
64.66 56.242 148.376
44.9797 71.2564 150.096
28.1741 53.2501 73.6919
23.2348 50.7367 122.069
57.3398 111.256 227.384
51.0509 119.539 231.616
48.2519 50.8284 64.3939
49.7959 18.9756 146.155
56.2772 158.521 157.713
30.2357 195.694 129.087
21.8801 164.116 165.925
36.3912 167.131 166.461
49.3001 54.2465 166.047
22.2423 105.054 215.551
20.1937 31.8119 132.296
50.167 68.7617 58.0966
57.6869 28.5787 220.68
62.9169 50.9295 155.941
20.7918 141.442 167.917
27.1892 123.854 209.145
38.9323 38.7678 131.941
35.6752 71.4081 78.1375
37.5513 62.4852 160.515
27.0687 33.7409 153.911
26.8835 103.805 225.328
22.985 116.083 216.079
40.4705 187.901 100.767
43.6123 40.7313 218.925
23.2041 64.6031 71.1518
44.4018 64.4733 55.7809
42.1051 63.9633 121.516
28.9568 95.4792 215.148
37.9903 57.1278 57.654
21.2723 146.07 181.9
25.6108 217.015 249.779
22.7895 60.2637 141.109
44.6738 124.935 210.386
49.7371 108.193 150.44
27.2006 25.7204 70.3769
52.8561 43.9742 226.414
24.8044 209.734 125.027
29.3627 181.636 101.514
41.0176 22.0715 87.4409
47.6848 35.2379 146.693
39.5694 48.2112 166.806
55.6898 31.4031 160.786
35.6335 105.25 227.162
61.679 31.9237 145.84
50.9393 58.8415 145.753
37.0286 15.2324 135.265
36.3889 50.5366 61.5116
26.7395 54.4456 227.698
46.5761 209.309 125.236
51.004 110.169 227.948
41.3169 2.46464 223.98
25.0949 191.426 253.862
43.0906 153.112 18.7255
36.5144 181.171 106.096
32.3022 24.6098 139.353
42.5761 64.0593 33.8503
37.305 157.256 14.201
32.1414 19.0116 130.029
22.8082 52.2812 160.227
44.2119 135.625 208.468
31.6051 72.1615 58.4766
32.834 120.458 196.078
52.5807 47.2022 161.33
44.1192 142.272 192.918
41.2491 52.7433 242.603
34.1727 176.033 169.7
35.055 138.555 155.449
30.7785 57.0314 59.889
59.7489 151.788 169.026
24.5556 102.505 208.192
43.0185 201.771 118.972
30.1259 22.4999 90.5847
59.2481 40.9749 164.154
31.9415 191.124 243.266
50.1656 102.601 226.045
46.9144 20.1417 156.459
40.5941 68.1598 26.9943
23.1545 115.57 206.882
46.8551 99.5253 170.854
50.1816 26.5828 150.784
28.9583 162.753 183.609
34.4271 57.7117 78.4363
46.6388 134.996 160.443
35.7073 60.6046 120.349
26.3263 231.538 51.634
42.031 106.457 151.954
51.6051 107.018 161.433
35.767 56.362 226.117
30.528 167.265 168.425
33.7232 55.0094 161.673
48.4116 82.3471 221.619
34.1401 54.8159 239.622
35.8426 19.2354 72.2406
21.9187 135.312 172.608
24.526 224.539 254.351
44.4828 60.1966 137.191
51.3933 12.6898 120.653
23.0042 180.323 98.377
20.1689 39.1569 120.161
35.5388 171.104 105.608
29.6104 216.203 258.185
45.1738 164.666 156.557
26.7273 57.3223 27.0573
20.7312 22.3706 85.5692
41.0685 74.5186 62.859
58.9302 122.904 200.304
37.3115 132.657 160.433
40.6599 15.3501 146.062
39.466 231.488 252.99
24.1386 31.9709 82.6053
47.3966 50.4265 222.489
48.0056 45.184 142.435
48.0231 62.8765 156.47
61.8473 34.4719 131.334
34.4701 55.3848 86.6426
23.3479 64.7518 38.807
38.3708 68.403 55.2066
42.1179 90.6796 246.147
66.6785 29.9699 126.009
59.1705 123.512 208.405
53.7844 151.827 185.708
39.6207 71.0493 138.15
35.316 22.3883 155.273
45.7127 142.11 152.905
19.8782 148.318 159.111
28.3865 122.237 201.92
26.3713 64.7662 23.3197
24.5075 71.8463 30.4245
27.3963 132.404 179.493
44.9947 96.5529 221.455
63.6437 59.6525 159.072
21.2351 52.7017 147.865
44.7095 36.3437 168.736
31.426 224.53 62.0617
43.1676 114.544 215.4
34.8549 141.895 149.157
22.2098 39.789 135.891
36.823 66.0662 41.0104
59.8437 102.853 156.717
27.2284 107.982 219.248
36.7624 229.624 57.8597
54.3274 85.8056 157.543
32.8054 155.11 193.374
29.0766 48.9289 114.549
37.4853 219.198 114.053
61.4167 29.7996 116.965
48.2142 163.224 150.746
49.9399 24.8864 119.671
34.6762 118.84 217.171
44.4382 119.938 233.26
31.4806 230.478 253.501
50.0291 58.3006 70.1209
50.1425 97.1693 215.148
52.0163 45.8176 170.692
54.5294 48.9232 124.121
21.0765 23.8211 76.4812
43.811 164.109 20.5194
31.5266 29.3365 79.9274
40.891 54.3284 122.018
33.5407 19.0328 147.47
36.0329 171.88 178.145
35.0646 49.0849 113.889
48.736 41.8771 220.717
44.7977 95.5675 143.833
21.2591 28.4164 120.668
49.559 60.0193 58.8627
21.354 45.4193 237.565
52.2081 42.2556 147.345
26.5575 53.1956 233.85
24.1244 33.5082 142.946
28.029 135.43 160.537
31.5965 143.531 37.1446
31.9136 110.429 233.638
41.6506 128.659 224.775
32.654 185.788 248.76
47.9195 52.805 116.654
43.3641 93.6575 160.941
29.8626 115.894 213.054
47.7302 102.036 143.492
57.8751 63.3373 156.967
29.675 54.3829 125.74
47.5481 65.3673 74.3698
40.5926 213.429 134.619
44.391 199.911 126.447
21.6982 58.7666 28.1407
27.2798 151.161 38.2194
38.4632 151.232 151.09
62.3611 52.7042 133.317
27.9535 42.755 163.919
63.0409 45.047 148.435
54.4572 99.6079 149.362
45.5501 99.7816 162.701
56.6523 141.527 176.404
46.9834 41.8957 118.893
58.1903 40.7637 155.969
31.4083 194.246 255.861
26.8934 152.326 188.946
30.8462 99.807 210.519
23.3365 165.021 175.749
41.9786 122.198 223.771
26.9836 67.535 80.0068
23.4035 47.9662 133.986
41.9362 206.906 132.008
63.0745 50.7263 140.574
32.547 204.36 135.317
48.6361 162.69 169.564
43.9254 108.745 219.724
28.8463 175.225 107.42
53.5108 58.1641 129.129
32.1704 28.668 159.981
35.5659 163.99 21.6803
27.6199 204.376 117.3
23.6294 51.6918 139.623
50.4732 135.353 181.659
53.1997 154.436 27.421
35.5932 197.07 121.013
58.5435 119.189 226.202
41.5091 136.726 154.82
38.44 42.7936 114.726
56.0499 37.1788 137.704
38.1137 162.123 171.93
30.8105 28.4122 87.1082
39.3611 41.9611 172.985
52.3942 145.246 153.879
51.0143 145.97 191.077
65.9533 43.5908 135.083
30.0455 110.118 194.121
27.0413 205.675 131.508
42.5163 32.3256 235.937
50.2669 154.385 32.9355
24.349 44.2461 116.625
28.7231 57.7717 84.1324
44.7324 55.413 150.255
57.0973 136.85 169.042
49.0313 107.802 217.933
46.1836 120.889 214.908
33.1046 132.062 184.787
55.3739 34.9565 111.761
34.4858 64.3215 65.1654
49.9052 28.423 139.11
27.8722 95.2381 206.093
48.8335 65.4798 144.852
43.4879 30.4884 159.29
52.9724 52.0741 147.721
32.6876 167.513 146.084
24.8981 199.489 246.675
35.237 217.122 253.352
38.5971 141.677 21.6826
34.1203 1.68126 16.9917
53.4142 161.685 165.071
50.717 71.0418 70.8001
37.9391 48.828 216.916
42.0602 32.1108 221.717
26.7691 26.2114 226.702
38.0222 109.181 217.084
20.7609 223.631 240.647
41.5592 46.1022 66.5348
46.0129 170.632 162.319
47.1646 57.186 82.6869
37.9342 195.828 243.841
25.0195 143.276 27.5802
55.6868 29.1658 151.932
24.8797 226.707 58.7285
40.259 108.079 190.186
67.2111 42.115 129.244
61.0627 113.83 209.121
52.0355 36.5824 165.718
24.6198 143.464 187.304
61.3051 44.8695 127.282
31.613 1.95249 8.06196
42.3572 32.9152 245.6
25.659 161.023 26.1954
34.6358 230.564 64.0869
47.1757 87.206 156.887
31.9994 91.8418 223.806
40.1239 175.961 160.058
37.0211 151.601 36.6284
25.0727 2.43158 233.953
33.7824 52.9152 121.093
23.5637 26.0261 138.628
40.2702 1.88917 9.92237
23.8817 96.6562 221.317
31.5621 154.251 182.161
30.2699 64.7971 154.944
50.1961 138.568 174.204
29.9346 160.917 175.962
43.5028 46.8833 123.366
53.899 151.127 167.272
58.0076 106.687 202.275
24.4341 212.336 131.834
24.4265 215.084 121.07
31.3878 142.096 18.6125
26.4224 145.399 19.8235
21.0487 38.9118 234.318
42.4391 138.668 185.116
53.455 18.2494 137.368
33.6805 140.809 193.035
36.1039 104.454 154.283
34.7276 32.5076 129.753
51.7944 67.1152 65.9323
21.9107 138.331 108.478
46.9372 121.022 191.905
35.7484 90.6325 209.314
38.6979 41.4518 248.5
41.4299 42.115 160.845
47.8635 22.1035 129.018
51.7183 34.9696 235.763
59.0117 41.5664 119.471
54.2333 120.745 216.537
30.4362 175.514 86.4945
45.101 55.8332 224.985
40.6506 94.9734 154.08
51.6597 121.048 224.021
43.2252 132.571 186.225
25.8482 232.299 65.1113
51.7016 64.1507 126.627
37.4666 27.3274 224.612
35.7395 68.7891 82.7329
42.5061 22.6953 69.6549
35.5804 149.029 145.948
39.8478 99.9001 147.897
51.9611 128.343 222.181
32.212 54.8991 167.608
27.5589 61.5873 150.572
39.1782 129.82 166.597
50.3424 36.6876 156.444
33.4583 139.041 26.5528
46.8177 124.529 222.991
36.994 203.651 113.482
50.1152 144.538 26.8523
41.628 22.5283 230.162
40.5169 154.341 31.0037
44.4882 104.639 228.294
45.8517 153.868 184.139
31.0345 24.4159 122.294
46.7121 64.9406 84.1577
34.4792 34.0332 166.421
25.4112 189.139 245.332
44.1949 174.158 100.459
54.5504 105.029 218.249
45.0122 154.73 34.0961
49.7641 154.507 19.8077
47.1213 38.8428 81.8006
38.5028 155.25 144.857
29.25 213.745 114.049
21.1738 1.52006 224.536
29.939 222.942 250.639
55.1885 130.536 204.061
26.8962 59.1385 110.334
41.3661 163.678 195.642
45.6993 64.7097 130.494
35.632 72.3991 150.42
44.8443 136.064 179.102
31.0905 155.458 154.587
33.4666 94.1886 203.455
60.9644 23.4351 131.145
52.2386 124.507 211.725
51.8522 147.226 172.283
38.3585 149.494 195.928
33.0064 96.9139 153.485
48.6209 41.3905 130.209
29.3358 147.573 150.405
33.8615 48.53 246.263
51.0003 154.457 151.924
35.8349 101.957 197.539
20.8861 35.9377 226.661
35.4934 126.018 223.693
30.8728 33.3062 121.024
37.9698 222.626 119.38
37.2646 33.5694 230.703
46.1285 107.635 194.463
29.8095 164.432 159.433
40.5722 20.1262 127.916
33.8658 32.3134 242.886
25.198 137.181 182.624
26.5809 171.968 25.2474
42.9977 55.4028 158.545
50.3761 157.64 173.311
25.3781 179.221 106.418
29.272 63.0935 41.9841
59.4616 58.1172 148.906
44.4318 116.233 190.559
26.7922 45.9737 153.332
51.6236 103.953 206.496
52.2317 114.935 217.097
57.6605 46.5736 148.164
37.0347 61.3255 26.8591
40.0525 104.367 159.259
30.5169 25.4046 244.873
50.3592 101.432 194.372
24.9881 34.766 231.918
42.2746 106.15 143.855
29.385 119.165 230.505
50.5943 143.52 184.345
48.5139 147.097 34.5169
27.7205 41.5866 245.716
58.4885 55.8462 140.879
40.2278 138.195 31.736
46.3228 28.1124 223.208
34.6628 78.2773 83.4059
41.3742 96.0458 209.933
35.2026 212.036 110.55
33.1243 33.0281 219.4
44.3754 105.8 165.48
36.7429 173.241 93.8479
27.0092 141.266 154.52
36.1688 73.2104 34.3288
43.6615 70.8836 156.961
46.7658 131.382 197.552
49.8914 33.7564 113.273
54.1766 62.8892 168.552
50.8071 84.5625 165.968
43.943 176.772 170.299
23.8607 55.8804 33.8592
53.2563 55.2242 137.657
30.9292 65.6386 161.306
23.5214 220.598 124.265
37.9409 164.219 14.4212
53.2013 56.0408 174.076
31.9488 54.1107 27.4611
36.6757 57.1753 37.338
39.5724 154.601 175.471
64.3103 25.5009 140.526
39.1551 196.77 133.259
31.9545 214.609 136.221
51.8405 38.5146 120.563
20.5035 154.026 174.224
28.2461 169.552 151.25
54.3106 150.759 157.749
42.0343 22.1368 238.233
42.6389 129.437 174.107
63.0496 59.0625 166.77
26.1301 150.811 183.078
56.9269 19.4719 126.09
32.624 70.6045 23.5485
46.5494 99.1085 203.616
45.2612 91.2891 205.981
34.6919 123.912 214.118
41.7666 92.1033 220.609
55.183 105.853 198.429
36.7823 129.89 204.276
30.6017 136.858 110.344
39.0737 156.334 41.2532
54.9121 150.516 178.233
59.3088 125.558 215.076
40.0983 143.749 35.4706
62.1057 40.7849 143.011
38.9035 146.237 13.8452
29.7493 178.399 90.6175
35.2755 232.755 52.4769
45.2593 153.684 191.293
50.0454 67.4277 161.508
23.5222 153.238 191.459
41.3065 88.2297 165.717
42.8301 221.059 125.787
62.0268 44.8161 115.645
29.3104 127.036 215.669
37.1294 28.1758 125.218
36.057 50.1367 72.2905
48.0405 74.8277 155.329
34.6578 173.16 155.391
52.6959 112.363 211.23
31.8951 184.789 84.7236
19.5193 156.574 168.557
52.4332 67.1109 150.708
40.2392 161.965 183.138
33.353 130.452 168.615
54.9231 99.6705 171.853
29.8474 152.428 18.3142
57.617 57.936 166.518
32.4201 68.4861 141.492
31.9411 15.2798 67.3384
64.0516 38.1121 115.378
23.1529 28.745 89.6545
64.649 41.6009 122.361
37.4585 57.6905 173.104
43.6756 169.45 179.684
46.6284 132.628 166.722
42.4785 52.4049 83.7661
47.1594 102.278 199.255
45.7243 108.562 158.818
45.497 96.5567 198.882
28.0759 195.094 240.507
49.3715 133.616 171.763
51.1726 133.944 200.499
37.6417 21.8139 64.8417
46.0069 62.1763 166.929
33.0666 145.826 185.056
38.7463 118.967 191.091
54.823 132.988 209.37
56.6079 143.524 183.021
28.5146 76.9158 81.3354
42.3876 157.566 11.2533
47.6785 49.0464 137.047
53.1061 119.858 192.71
22.3474 141.921 176.192
45.8642 151.958 177.989
58.1559 104.388 210.802
56.7259 47.4851 173.778
23.1376 119.175 91.4227
29.5748 46.4897 242.678
36.5324 114.72 227.02
48.1749 172.042 167.88
56.6829 159.633 175.404
26.629 157.4 21.3692
49.1429 37.5517 244.688
42.6366 58.8826 230.595
29.1462 66.2494 138.896
46.5892 136.981 190.291
28.5522 67.3471 60.6114
42.8635 127.399 195.185
54.5939 26.3388 143.393
50.3519 132.639 228.261
47.6632 53.2527 239.839
59.4788 22.1882 138.743
31.5875 222.083 116.545
48.4808 67.7363 166.903
33.5897 166.704 176.634
46.1574 37.4608 115.203
37.816 97.9664 214.365
40.2264 66.243 76.5416
34.2608 103.539 218
35.6298 164.936 152.981
41.5234 147.342 145.919
27.3032 18.6534 67.3694
41.8465 100.052 214.766
47.9344 167.473 179.364
29.2032 232.742 59.1152
22.0723 111.004 223.976
22.4634 74.4532 219.422
39.921 47.6894 74.3127
47.1135 28.0709 236.152
25.0908 232.839 139.719
47.9618 68.1718 26.4289
44.7739 145.698 30.8829
25.6827 147.448 158.45
26.5096 162.272 170.287
46.5214 102.313 156.405
41.4309 60.3659 88.5789
27.3956 223.891 259.516
27.324 33.5443 226.595
47.8234 141.718 31.4121
45.1674 16.936 134.355
46.7893 131.193 175.228
27.7583 37.1856 240.619
44.6457 153.03 147.499
31.9899 49.1724 131.132
32.5334 59.3473 69.463
