ply
format ascii 1.0
comment Created by Open3D
element vertex 601
property double x
property double y
property double z
end_header
18.5679 237.443 85.4715
19.9476 111.655 64.2312
18.2543 81.1079 50.9288
77.8085 75.1791 68.8258
22.2459 103.358 99.1924
78.4335 69.3886 58.1117
18.3473 100.848 48.322
53.1538 62.186 105.917
18.1755 91.7511 50.9814
20.1552 239.958 100.869
54.1854 47.9596 93.5206
18.2594 60.8098 71.4025
63.56 35.0992 74.7743
77.6735 83.7229 66.9054
66.6593 190.028 70.5261
17.8138 56.9997 82.6541
22.4879 55.5081 38.4901
71.6861 223.314 74.5762
79.315 81.3572 59.0343
18.6915 100.678 71.3581
19.4281 228.098 100.425
58.3091 73.0878 98.4356
20.5028 212.421 104.402
61.9734 152.076 90.9328
22.8251 243.157 57.0578
20.359 247.886 82.6454
22.2587 111.269 42.8843
80.716 289.777 18.1531
25.7963 198.273 56.3804
20.9708 45.6783 77.6398
62.6341 252.125 68.486
67.0665 115.734 72.3928
70.0411 103.479 43.6647
36.8793 182.739 108.29
24.9627 239.158 114.888
20.8442 80.5617 100.227
68.993 102.774 89.8489
20.5093 245.201 92.6943
17.9581 74.2168 90.5841
19.7513 62.4533 88.1082
19.8802 208.74 84.7422
55.92 55.4165 90.2236
23.1973 120.441 60.6099
18.9262 232.233 91.3351
76.332 65.5601 69.6413
35.4291 197.553 40.4082
18.6948 73.1046 66.0731
18.7924 209.103 74.9381
79.2079 76.1941 52.6656
20.175 210.912 64.8307
18.6724 79.0229 78.519
68.293 214.704 96.3907
68.7139 110.211 49.3862
18.5945 237.386 76.5696
22.0856 203.586 101.882
18.0445 55.6351 64.6181
44.4614 126.06 128.562
73.4001 73.4832 76.151
19.6541 109.409 75.3273
20.1006 221.046 63.7561
32.9278 192.283 45.6494
78.2682 90.8869 62.4445
19.8003 210.128 96.616
19.4812 97.6588 88.774
19.6922 82.5621 71.0474
17.9151 69.1906 48.6815
44.4378 186.476 113.451
73.2591 57.5015 70.0921
51.2992 121.365 128.849
66.4991 81.3182 92.1419
18.2148 228.572 80.7836
25.6842 121.405 52.3663
21.9444 86.6902 106.866
69.9155 53.2187 47.2127
69.9411 209.039 57.2562
73.1455 71.845 41.753
17.7769 68.1395 59.2766
17.6994 83.6383 87.7082
50.8323 147.143 118.65
24.6788 233.367 53.1246
46.6425 174.62 96.5162
18.9774 78.1746 34.9677
21.628 249.305 72.1004
22.6073 39.9823 64.9866
27.3901 34.3763 53.8199
74.0348 102.493 67.9504
67.3397 224.492 94.4817
22.6563 46.1644 89.0039
65.2893 247.605 77.9005
20.4909 197.043 95.4478
19.8091 103.177 56.2179
70.3583 234.347 71.7547
18.9737 52.7962 48.6625
19.7342 218.855 96.7986
29.5592 206.281 45.345
66.6991 238.416 51.214
19.4631 226.487 69.9651
58.0222 36.4035 83.4382
61.0951 123.572 55.3501
27.736 39.2724 46.8407
24.862 56.6636 103.796
62.1381 164.54 109.085
50.9615 144.833 110.288
57.737 66.5854 91.4247
20.733 71.5311 100.138
70.8435 212.604 63.5975
64.8158 161.042 97.8125
22.4964 82.7285 31.7728
35.8969 29.9075 86.4944
74.601 95.6808 74.8258
54.1597 155.468 120.815
23.5657 95.7086 105.235
24.5421 262.292 92.7272
60.8897 190.878 99.0845
31.7241 263.411 93.8345
18.8424 68.2122 76.7473
49.4795 148.345 135.9
25.6056 207.049 51.7308
31.9099 116.442 31.7811
40.1063 174.673 96.8985
29.3375 179.49 88.7098
72.031 234.282 63.5866
72.1785 63.2563 44.022
68.3858 240.762 66.0743
69.2117 204.642 64.3536
25.6782 64.8215 27.1406
50.3256 137.277 111.845
19.1215 235.9 68.9304
21.4013 107.489 89.3297
65.0507 192.205 91.7711
25.5873 257.792 66.4632
21.6955 53.9003 94.7598
18.7171 97.0085 79.9506
73.2592 87.0741 86.208
22.9037 253.477 88.0364
20.2195 64.8909 35.1505
59.527 213.97 110.881
23.4626 217.467 52.1753
41.6767 46.9765 113.836
28.162 31.9272 65.6202
59.614 160.4 102.151
22.9239 244.07 108.13
69.4689 109.035 57.8502
66.3999 109.908 38.3186
30.0436 115.073 100.514
44.3884 134.057 122.87
74.497 52.2019 61.9194
81.3761 99.2961 75.2451
40.556 267.647 78.3574
31.0991 184.358 104.919
48.8978 140.794 138.126
20.6386 201.224 76.7899
25.0009 35.0806 74.9487
35.8235 204.264 36.7159
71.2001 222.301 58.1066
55.1508 149.849 102.22
71.1741 220.286 84.9807
25.302 258.535 99.4032
27.8447 107.137 104.425
29.0947 256.52 61.3706
28.8532 238.047 44.3485
54.9968 152.52 108.473
93.8337 135.995 92.1766
70.9457 69.6931 35.4082
19.3665 218.482 77.4798
68.0346 200.707 58.288
21.0446 223.738 108.923
26.1289 241.491 37.4987
16.7579 86.6666 66.3387
60.1125 230.006 108.188
61.4153 117.571 121.82
18.5991 94 61.1076
65.1379 41.4457 42.0638
77.239 62.7003 63.6083
64.8579 246.463 62.2051
52.0874 173.153 86.8322
67.4482 74.2905 85.0164
67.5142 192.69 81.015
74.1792 80.719 80.7995
29.038 224.31 41.8318
75.2832 73.9919 47.8273
51.8878 242.811 115.591
19.5914 222.961 85.6332
31.2426 264.735 86.2709
24.9562 232.208 119.436
64.1128 284.218 13.6411
22.6666 209.859 57.9436
53.5996 73.0745 107.522
26.9952 191.397 61.0352
32.468 210.603 123.823
24.7761 44.1816 98.1897
32.8085 59.8174 116.032
31.8548 78.8869 116.473
54.2865 154.921 114.801
60.7253 122.053 66.0642
27.3913 225.159 120.671
30.7394 231.524 39.812
70.8283 203.38 77.7627
22.5709 202.102 69.1413
74.9954 63.26 52.3725
38.7121 267.689 67.1041
53.7907 135.319 104.25
20.0036 91.2435 75.6214
93.8374 143.684 102.063
68.9091 202.154 95.3587
34.2174 256.326 109.39
61.6845 188.244 64.6087
22.2434 214.985 110.522
58.5595 137.57 139.422
33.58 195.771 117.812
70.8726 108.239 81.6018
31.0575 123.645 90.4962
76.6131 90.8153 51.8056
51.2866 131.39 113.847
22.071 232.45 109.259
44.868 208.505 33.284
73.1736 90.9818 43.7076
46.1891 129.649 117.657
56.4227 141.611 96.995
65.9966 197.936 48.5215
67.3232 238.241 86.9357
46.355 144.7 123.371
24.8971 194.726 107.846
22.6706 255.885 74.9866
69.8078 215.934 55.8563
45.8063 137.336 128.251
69.6954 223.849 51.4001
64.1361 236.288 100.269
63.27 155.348 128.967
47.273 143.159 130.692
46.7635 269.411 84.6427
53.5046 137.22 139.73
23.4595 246.086 64.5896
19.2378 235.06 60.5023
34.1541 177.722 97.276
38.8023 86.906 121.507
64.5439 122.815 127.545
44.6469 200.041 35.718
40.1122 77.5332 119.765
61.8 290.087 30.2231
50.4329 152.005 127.638
69.4251 94.5728 35.4558
20.968 204.409 91.945
64.3259 139.139 133.751
32.9118 49.3019 111.908
29.5652 180.166 76.6398
68.7153 86.498 94.5929
57.2926 129.867 115.481
68.8132 203.69 52.9675
69.7352 203.011 84.6858
69.8992 230.239 53.4118
59.1489 243.16 104.512
66.2105 241.721 92.2769
62.4865 60.5585 84.1455
27.5484 88.3725 111.033
20.1283 88.2023 93.2588
51.477 127.623 130.961
34.9654 265.63 75.3943
45.925 70.2691 117
70.3496 208.065 91.1876
53.4913 115.426 122.285
52.1248 140.714 106.645
36.8366 173.366 86.5865
68.8701 198.084 88.9108
62.8198 193.179 58.1952
68.9855 156.84 86.1575
32.9638 223.935 125.46
51.6186 182.573 107.802
55.5525 134.381 120.675
18.117 215.985 89.7795
70.5606 231.633 84.153
65.172 219.247 101.759
48.75 170.949 77.4315
52.1942 145.368 143.312
52.6061 131.26 71.2684
63.1014 122.057 42.341
48.3715 268.304 75.4061
29.7852 184.912 57.1012
56.4972 147.594 115.833
68.2612 165.043 106.024
26.0269 96.2993 26.2981
69.4845 195.582 62.6491
58.1972 45.7681 85.5531
62.5368 249.614 93.4116
44.1433 123.193 120.697
30.5273 192.154 52.1938
92.7831 141.017 109.811
36.2055 133.303 62.8361
25.3955 261.04 79.2337
71.92 80.8107 35.273
42.3655 215.392 125.56
34.0357 268.685 92.9522
42.3486 37.8442 105.246
46.5676 259.439 51.7777
89.2657 151.985 93.1788
19.6726 64.0426 97.7857
66.1643 45.1943 74.9346
70.6465 213.467 76.1247
32.8918 129.577 50.0007
31.3113 232.736 123.293
73.0026 99.1917 52.8715
27.6853 196.723 115.721
23.0051 38.9179 83.6797
77.7731 87.8959 76.2385
30.8774 239.678 120.917
69.7635 45.0887 53.5232
31.3482 256.704 55.2525
70.3817 202.288 70.6083
60.8271 116.093 85.9311
34.8101 29.3531 53.7313
25.0623 66.2434 107.932
32.0433 51.2343 29.8348
88.7492 74.5192 86.228
52.3917 120.983 116.817
49.0012 139.613 119.424
42.7658 216.521 32.8885
18.4811 54.6196 57.5235
33.2999 263.851 62.871
62.2629 186.506 84.5158
62.1326 212.709 36.8234
67.407 160.521 92.2796
32.8905 105.319 108.966
32.714 175.853 78.8972
64.4948 125.725 133.812
30.5753 180.653 67.7678
24.3161 201.724 113.75
59.2325 120.106 130.594
24.1844 253.712 102.743
64.0012 145.914 85.5812
68.4122 87.9581 31.6402
64.6127 115.518 46.4936
71.4194 214.196 69.7394
75.976 285.059 11.9762
35.6212 43.8915 33.1992
57.2179 151.299 138.156
54.7967 130.956 136.065
21.5486 99.1663 37.6892
42.374 194.145 40.1471
23.1967 192.81 75.022
19.6508 251.739 42.642
28.0486 263.068 73.2015
24.7151 249.306 107.412
23.0103 221.99 116.203
72.3032 226.293 82.5885
22.6263 90.6184 31.7851
45.0419 135.049 67.3681
20.3462 252.341 95.5866
47.966 249.298 41.1072
49.5892 29.2294 92.1015
50.4048 132.846 62.5975
28.5513 29.8505 59.5358
28.4623 51.3289 106.796
24.9785 110.51 96.1548
32.1085 202.481 122.171
45.1431 242.952 119.707
56.5181 206.731 112.963
23.0037 119.293 79.7765
33.7608 213.272 35.8265
28.7452 247.75 114.391
49.1189 118.348 123.826
68.9699 238.951 79.347
60.5235 133.374 129.27
58.6951 153.289 130.878
46.6604 173.764 66.2756
65.1077 197.807 97.6535
46.0348 263.117 58.7556
67.0928 72.5555 29.3145
72.275 284.749 25.5703
37.3146 262.894 104.334
34.0974 28.0329 68.0423
53.1545 268.325 84.7674
87.6687 158.504 105.113
63.0197 230.181 99.3608
40.5748 266.386 94.6123
37.5546 201.726 123.282
50.0641 226.146 32.7431
58.5399 144.172 91.6227
50.5794 24.3804 61.1595
76.4044 148.697 80.7119
31.3761 40.9126 39.5452
53.6878 131.302 108.917
22.5444 196.078 102.163
33.345 129.932 81.0032
33.1336 216.761 125.982
28.6635 128.846 79.6376
53.6094 27.7611 49.0819
63.6434 244.269 98.1075
58.3525 290.678 15.4694
35.0123 93.4413 118.694
22.1997 204.712 109.573
59.418 122.333 116.444
69.1195 233.294 58.5292
32.978 246.254 44.5838
21.3721 120.158 70.5298
72.1778 155.007 129.094
64.0771 249.537 85.9529
65.3495 116.428 57.9519
80.6742 153.691 127.655
47.1024 105.318 18.255
74.2169 58.242 58.5321
63.9297 206.895 48.6455
69.3799 58.1853 40.1885
29.3405 72.9573 24.575
24.1559 183.678 77.852
47.2485 37.2204 103.161
21.2898 197.215 86.1689
41.7037 259.291 108.599
41.0909 206.641 124.212
39.5703 55.1743 116.499
24.6569 76.4881 107.756
46.6752 254.798 46.8508
67.6848 96.2966 96.0428
67.0662 215.855 49.0339
41.8143 32.0701 43.9065
56.515 192.21 112.879
69.0503 40.6724 65.6016
63.7441 67.9516 83.6243
24.3242 188.785 95.5361
70.9033 222.98 64.46
43.9656 131.782 82.6588
27.0641 37.923 91.5844
32.7884 85.4452 117.582
62.1365 56.2226 27.1105
24.2842 261.339 85.3845
32.9618 98.9677 114.363
65.7128 208.657 100.136
36.6606 232.684 124.847
26.4644 104.126 29.7032
39.3326 249.736 44.9974
31.7873 267.44 79.7775
39.5867 210.865 35.1875
45.0011 180.979 107.518
47.6745 266.521 94.9271
65.4543 228.593 47.1157
42.9667 42.4902 31.2817
37.4411 115.871 104.434
25.6364 211.588 115.361
39.0338 122.493 100.152
20.5498 109.881 48.5301
51.3491 23.9919 68.885
37.9592 245.626 119.325
56.8895 143.539 140.964
66.2468 103.204 31.3699
46.5239 53.5201 22.1187
53.4332 130.873 52.9843
73.0493 213.128 81.6471
43.568 86.3908 118.17
37.1288 239.923 122.669
38.5595 177.279 104.77
48.5133 25.2008 76.0027
27.2286 216.124 123.52
27.787 246.271 52.0459
45.4128 48.0832 25.8669
23.9541 185.949 89.1047
51.9626 210.237 32.9639
74.2504 101.066 59.36
61.6536 288.557 23.0039
32.1837 265.69 68.9665
25.5323 219.27 46.624
55.4818 124.569 113.022
23.3863 42.9414 53.6084
46.4437 24.6937 53.3991
52.5322 175.304 95.4905
65.5898 284.097 24.8961
72.5658 162.671 121.767
39.6089 54.6861 24.227
40.1942 226.245 125.427
25.4858 117.078 91.5765
59.7723 120.683 110.478
28.358 204.825 118.817
42.6857 26.2205 74.4405
49.0637 206.692 122.377
42.2898 25.8675 84.1135
58.4193 125.478 133.48
46.7199 36.098 36.974
41.6859 93.9458 118.629
59.9649 75.8096 17.2282
60.117 67.3276 21.0127
50.7355 134.083 132.077
67.855 111.886 114.022
54.9846 89.3972 112.577
38.0617 68.1134 118.139
74.7583 159.541 86.6474
58.9118 176.678 89.2941
56.4807 24.5372 61.2874
66.3425 287.726 2.43626
42.3669 178.464 55.7523
42.9902 186.328 46.3665
38.8706 262.752 58.1
36.1118 79.1751 17.235
36.1971 186.203 49.4554
30.952 85.4594 17.8375
46.3893 180.948 50.6687
44.7746 171.637 88.0259
69.8185 47.528 68.7461
49.1023 43.239 30.4567
38.2298 222.468 34.4719
43.173 264.507 103.472
59.2972 198.532 48.7376
47.4706 79.6052 13.9226
54.3715 170.868 78.2861
47.5703 176.589 58.3251
65.4714 163.395 116.462
57.9923 116.386 99.077
48.0573 225.892 122.902
29.1068 215.076 40.9391
43.6328 224.388 33.6183
41.6211 255.132 47.9901
60.6382 177.687 70.1438
60.9721 82.9765 102.529
37.3261 36.1221 41.4495
31.7194 29.1462 76.2147
68.9007 53.9216 79.0016
74.2596 291.165 31.3154
38.2794 241.625 39.1922
85.749 158.543 98.2354
60.4635 221.56 109.036
42.5566 111.444 109.44
41.5623 82.8088 16.1123
73.4832 54.9942 52.8896
43.374 128.633 38.2442
74.8484 138.535 79.79
58.0353 257.555 65.0419
60.1211 253.537 78.4767
54.4583 211.098 130.897
58.1628 211.734 34.2051
65.0852 147.832 129.197
70.3175 105.783 72.9465
54.4731 140.643 118.058
27.4287 128.573 69.6366
41.8928 70.7415 16.4315
31.6969 131.397 70.9534
61.3328 157.221 120.073
61.2602 145.976 123.234
70.8089 164.784 113.756
42.0949 270.149 73.4643
30.7364 94.0878 22.9633
55.9202 32.7605 42.5186
51.8262 97.0247 115.072
43.179 103.594 114.346
37.9563 175.609 64.1704
28.085 72.1892 113.243
65.6393 81.7797 26.3094
44.3674 132.595 48.2131
45.0314 26.4064 79.5719
39.7839 251.777 116.855
57.5567 198.194 109.497
37.1005 233.223 36.1664
44.7351 114.991 24.0414
52.7651 152.92 135.712
49.5995 104.64 112.875
40.3644 271.276 84.5172
63.7308 49.6985 81.2049
39.1083 27.291 58.0306
62.5533 198.016 103.691
48.8934 114.812 120.849
70.1341 109.576 64.0137
80.3975 142.562 78.953
49.1463 109.522 109.839
67.2912 163.124 122.188
22.5788 247.445 45.8397
69.7941 141.019 133.917
44.6814 254.491 113.512
52.1852 24.7403 54.3053
65.4714 88.0201 24.6385
60.7216 284.914 25.9339
41.4709 174.172 66.3397
24.4799 189.064 70.3329
50.0686 110.692 21.0942
57.4477 124.615 75.5523
63.4693 137.693 88.3357
57.9118 236.805 107.335
65.8695 54.7855 36.7522
32.6948 54.8369 115.41
70.9177 147.257 82.1342
22.4837 251.433 36.229
58.8989 252.836 101.089
54.5083 175.605 65.7805
42.9732 234.438 34.6558
58.8165 159.288 114.075
34.1045 42.136 105.596
37.0269 33.3435 97.3866
34.1607 248.588 117.374
69.4272 212.072 87.2919
20.356 116.375 89.7882
38.2474 87.1695 16.4185
32.1739 33.1125 46.7328
53.735 122.779 133.49
48.9489 31.2246 42.4463
43.1253 138.635 119.806
24.9492 123.105 87.3507
31.3751 261.939 101.079
46.2292 194.502 119.393
37.3855 192.528 119.196
78.1982 161.343 121.156
51.6139 138.019 126.883
46.2235 267.805 67.2593
29.3503 122.635 96.3132
70.577 62.0347 78.5063
61.5334 131.744 135.018
50.786 85.941 14.4167
