ply
format ascii 1.0
comment Created by Open3D
element vertex 292
property double x
property double y
property double z
end_header
13.779 55.6053 43.8845
13.9522 44.7373 54.8403
37.1394 62.367 59.0405
42.4297 51.0628 44.799
38.0542 36.3557 77.2884
18.9766 50.3297 48.3843
14.1069 46.0203 65.3345
19.3949 21.5673 65.1869
16.8396 40.8628 38.7617
16.4538 59.5647 39.1582
18.5731 38.1448 54.4429
21.2776 59.6807 32.3778
28.9463 63.5987 57.8291
34.8757 39.032 23.3627
42.3146 25.6356 65.6225
21.7055 46.7611 38.9255
20.3702 68.136 57.4776
20.339 50.695 30.9458
22.8635 24.7702 55.8038
45.2837 40.0525 38.4715
24.4815 72.4956 38.3395
39.0699 50.4494 37.0525
12.8184 45.9466 47.5849
55.7483 60.9228 54.4997
28.1924 34.2526 68.455
20.4037 31.3363 67.4236
35.945 70.3021 39.6264
24.4805 31.1872 31.254
27.5124 55.6158 55.0613
23.359 23.7388 47.4713
13.9472 34.5429 51.2318
35.4061 59.1338 78.9349
27.0219 46.7769 32.3528
29.5092 39.4048 73.6199
45.9777 37.7019 78.3659
30.0979 47.6759 43.0634
24.4674 39.6206 35.8394
23.3197 52.3232 75.1943
45.2398 30.1333 70.7085
30.922 22.7936 48.2768
18.0532 66.6357 51.5926
42.6664 60.7381 77.7327
19.909 31.5733 46.6395
19.9242 37.5838 72.2167
27.9053 42.4209 60.938
23.0056 42.2673 28.0761
40.586 60.2305 44.4404
44.186 63.5226 64.9262
22.1368 35.1674 28.4029
48.4052 58.9986 78.6957
22.725 48.5563 67.9817
31.9591 37.3208 78.6784
38.5314 47.4276 28.6335
32.2535 63.423 27.5226
24.5166 57.1516 43.8576
39.2193 55.7633 39.7893
24.6061 61.6032 73.3094
26.8729 49.9911 47.7742
36.2931 54.2599 54.754
46.7536 54.5168 23.9483
42.5371 29.6239 29.9741
51.363 48.7082 34.8782
36.234 25.7373 61.8242
27.2003 43.2053 46.199
41.9499 49.9719 78.8129
26.2196 38.3874 52.8745
21.0732 68.9496 67.0607
41.2056 73.0788 71.8417
42.7526 31.672 36.9203
36.3565 71.6877 62.3171
36.0056 64.0826 46.5891
50.1426 45.9964 80.8406
48.6099 40.415 30.8239
49.5427 57.4419 60.3575
49.792 47.0644 47.7479
38.8731 74.3376 32.9708
27.8193 53.8475 79.3801
27.2912 49.2625 63.7394
31.3627 28.8003 24.5859
38.3405 66.6857 75.839
32.6015 56.7648 56.8609
32.7738 33.4905 61.4923
41.2732 51.5575 52.8139
38.9763 39.3896 33.0956
19.6677 32.9233 37.6705
34.0134 41.4867 60.29
51.2347 29.3479 71.9054
25.7159 73.8079 61.9074
41.927 26.027 51.5334
21.0109 41.1717 44.7382
41.1341 57.5872 51.7787
58.9851 30.3494 67.3504
35.3429 49.981 60.7625
19.3475 64.5007 44.7023
45.0661 47.7255 71.5362
44.2335 33.6508 75.1696
24.8424 38.8194 75.122
44.6998 44.9605 80.4541
15.9792 40.4171 61.3489
29.3072 55.0346 40.6201
28.5775 61.0705 43.8812
21.5668 69.1723 40.818
35.9995 46.1664 72.0508
58.9988 53.8602 60.2319
18.4998 42.6591 67.7187
49.1196 69.3849 47.1887
26.0542 29.8862 72.1125
31.044 53.6388 74.1682
35.6257 53.8437 82.5273
41.5939 63.3748 49.6184
40.8228 65.8035 26.7884
18.1975 33.6152 60.0984
45.3088 40.0442 63.6025
33.171 34.714 37.2595
23.293 62.5332 51.8072
13.79 35.892 40.4297
37.9915 59.8702 25.8626
30.6995 18.004 51.624
37.13 58.8921 34.0354
43.9303 76.3082 36.4541
34.5714 73.3055 68.5433
54.4734 44.7346 69.6723
54.5806 67.6407 48.5427
43.6323 79.3381 50.4616
33.738 36.3931 68.8406
44.7227 49.3618 58.0774
36.5924 38.8069 43.5722
22.4969 55.409 51.5723
42.2142 61.5706 32.7201
26.1682 32.7268 60.5909
36.1048 75.3787 54.9248
29.4794 24.5267 62.2823
34.6598 34.5177 50.2425
30.5067 56.8992 28.5794
37.2619 68.3826 29.1854
28.3747 43.6905 26.1987
42.3427 75.4392 66.2126
40.0784 38.4508 25.9212
36.5969 48.7067 52.8469
40.2515 35.7369 56.2788
55.1828 16.522 55.7525
34.1941 67.6375 32.7972
34.8026 42.8596 53.6398
39.2147 39.6929 70.4592
40.438 33.0197 44.6511
60.0784 44.4835 75.3445
49.3566 28.067 61.3421
32.8071 49.8229 37.6505
39.4858 53.8594 25.1641
30.5513 32.2611 55.1818
47.9596 46.1978 66.0728
59.9058 47.3325 43.0128
51.2989 55.649 47.042
25.7537 72.4888 52.8934
19.3241 58.0009 46.7013
12.8405 58.6709 51.8771
30.0945 75.4077 55.2433
46.7966 58.4021 67.0871
38.9723 31.2301 72.635
34.7329 29.1373 56.5676
60.6099 36.6515 71.5747
43.1322 77.0524 45.388
35.0896 45.659 25.6635
29.3543 50.7677 27.4902
54.7522 43.6515 77.42
18.6157 62.503 59.7872
48.3554 51.3812 63.6004
29.7062 48.5637 83.3293
52.6242 53.2135 68.325
30.6546 48.0855 69.4282
19.2527 29.5302 55.7479
20.7723 44.9424 74.4899
25.5875 39.8977 67.5935
42.9027 42.6134 59.2998
34.6655 41.9504 35.5233
30.3917 21.1732 38.9131
20.538 64.1401 65.0336
54.8756 50.7171 78.9565
53.3556 65.9936 74.272
45.4803 54.1824 70.7579
47.634 62.9852 38.5286
27.0263 47.7912 77.1396
43.1791 57.2262 57.5371
43.1104 22.9826 36.1424
30.9881 50.5346 52.6241
38.9482 70.6013 52.7048
23.2286 55.5114 69.2609
32.9995 59.9757 50.1632
35.0342 25.6875 67.7098
59.5025 40.7302 51.6105
49.484 33.4228 59.5116
31.4955 73.9058 34.6912
54.4772 72.0246 68.2734
32.1516 46.234 49.1473
36.5452 46.5337 78.8935
28.3695 60.4636 33.7147
48.0747 71.8844 61.9385
40.4959 54.0362 80.5804
30.414 71.759 60.3334
50.6571 24.5519 66.3916
53.4362 61.1496 28.8225
24.4453 49.2966 58.0841
60.7498 43.8897 58.7376
56.8964 55.9449 73.6592
51.7841 34.2199 52.2695
18.1437 42.3196 30.6671
25.3225 54.94 36.2839
53.4763 43.2931 55.3138
49.5339 77.6938 44.3731
56.4892 60.6493 34.5766
26.216 66.7949 32.3247
42.4337 22.7154 60.5761
43.9465 70.7068 48.8075
61.2578 35.7787 53.5507
34.2649 19.6424 59.8699
33.1132 61.2933 39.6355
31.7502 67.6193 48.7263
50.5115 75.5605 38.1984
44.5268 42.7519 27.2667
35.3206 28.8824 43.1118
52.3839 37.6382 72.6242
41.2574 71.4668 57.0045
30.2005 66.2944 75.1694
44.7158 76.7998 57.9317
20.6198 64.3986 38.0488
55.4917 52.9702 41.7445
16.2274 50.0427 41.4821
48.1656 71.8998 71.7039
57.2528 25.7884 61.4578
20.1336 45.9311 50.2287
32.1828 44.4067 81.0103
46.9635 59.4823 47.5292
50.8743 41.7141 37.8166
39.1576 42.3591 76.0102
25.9003 72.0016 45.5308
52.9142 76.5789 52.8804
63.6669 59.0391 55.8863
50.6766 63.0079 62.0413
48.7356 30.6265 65.1467
43.9337 68.0026 68.4821
45.3585 19.759 55.6246
54.9239 72.8037 58.1593
55.3256 44.3811 42.7453
64.3492 54.1221 60.8893
21.3311 42.9416 60.4658
54.0089 41.1623 49.609
50.8221 35.1486 79.317
33.5985 68.5849 71.2795
27.9816 43.7235 76.127
33.6514 29.7171 73.6384
47.1518 21.7594 45.2562
50.5987 40.5098 66.3093
48.5814 79.2168 56.7262
49.403 51.0738 76.3123
59.9089 38.5971 66.5691
16.3789 57.9425 64.1754
41.4259 74.9733 40.0787
35.9044 32.1038 24.6992
25.7317 65.9932 48.0978
51.5917 50.3714 58.3754
46.707 65.3025 74.223
17.9471 51.58 62.9103
38.5796 79.1054 41.7212
30.7216 52.5605 34.0251
59.2596 53.9635 36.9942
52.8048 70.2993 37.1397
39.0501 32.1143 67.1983
41.2561 69.0437 45.2928
43.2325 48.6522 23.837
42.0015 29.6319 57.482
27.7337 69.0785 66.5103
21.8662 30.6615 62.3301
55.531 42.106 61.6447
36.6307 45.0863 65.5047
60.3087 63.3805 66.5983
48.3664 29.2694 45.8142
25.7967 58.1103 65.0665
37.8358 77.5001 58.3712
54.6369 54.9532 62.6493
55.948 63.177 40.9636
43.0971 65.0354 57.542
55.3437 57.2042 50.5059
51.9541 68.08 55.4805
37.3379 20.8349 44.5816
50.0594 63.8209 68.2183
49.7242 25.3366 50.4717
47.4999 62.869 53.4564
50.3671 21.903 59.1219
24.7733 26.2382 37.1768
56.8729 36.737 75.5293
49.6727 31.0969 49.4614
46.7287 40.0439 47.1174
