ply
format ascii 1.0
comment Created by Open3D
element vertex 1555
property double x
property double y
property double z
end_header
45.2213 126.557 58.0071
52.7174 111.023 70.8491
67.3065 124.862 31.5819
26.771 106.579 83.9679
32.3993 79.916 236.642
46.7125 110.151 29.7602
25.6931 71.8845 230.114
45.7363 117.294 84.8442
30.7078 128.06 102.8
64.9659 156.526 49.8042
39.4326 147.064 69.0089
49.3503 102.938 209.107
67.4958 80.4573 65.3454
59.0459 78.9399 135.344
77.6042 59.4972 51.5732
41.2525 10.8146 241.015
42.1806 70.5212 112.232
29.5185 88.3396 209.82
81.031 65.7496 123.642
51.0501 58.352 101.771
60.5339 109.59 49.4277
57.353 97.3189 62.1704
34.476 69.6268 218.326
49.2271 60.5262 61.1483
52.7283 95.9942 231.349
34.8265 110.931 39.984
42.6052 129.636 114.987
32.132 131.657 58.0799
63.1552 27.0064 186.407
74.2003 71.8611 61.7236
28.9328 140.348 68.5242
26.5896 89.129 66.8491
25.9262 114.312 98.4375
31.981 71.8771 190.261
41.8793 118.569 31.9279
56.4139 52.2065 86.4722
67.7196 48.1873 65.6622
74.9609 42.4486 95.3139
69.5852 139.846 91.8117
58.8491 128.678 101.881
44.1219 148.128 62.9914
47.084 138.069 58.7672
34.9418 90.3146 97.702
67.0849 77.141 194.909
38.654 65.5245 98.8035
59.5902 69.1852 86.6426
90.2626 38.3821 108.072
41.4273 83.8735 118.217
41.651 48.1946 197.744
26.8802 70.0229 222.088
81.4664 138.969 84.2717
49.8798 97.713 29.5704
39.0146 114.035 117.315
37.265 67.5465 179.724
50.0647 151.319 93.5228
65.4781 80.6543 38.3922
32.4736 141.059 76.6794
38.5158 147.035 60.0259
70.6587 102.817 25.9608
71.6671 92.0042 51.0406
36.4385 55.7706 189.812
45.6253 72.8905 61.2035
44.9142 109.991 130.139
52.107 66.796 108.108
60.6173 118 127.867
28.7624 69.4829 236.26
25.9147 114.563 57.2575
43.4105 127.918 46.2633
36.4185 102.799 78.3785
43.66 49.4582 178.731
50.1778 114.958 123.503
41.9974 122.696 90.5284
79.6024 55.1321 92.5735
29.8067 108.667 102.97
61.1491 101.417 68.9472
63.2692 83.4073 91.892
62.6037 46.5715 188.519
41.8454 121.382 121.804
28.0244 87.7482 218.635
37.8667 143.444 92.5484
60.7434 101.011 84.3987
81.9693 61.8258 89.5232
32.6375 74.486 87.2754
48.8141 55.2324 204.548
74.5189 75.1106 126.287
50.4207 55.5295 218.042
37.5232 53.512 202.277
48.7529 108.812 135.77
60.4401 124.366 135.782
26.3934 101.732 56.3446
29.4685 126.22 70.7374
33.6341 70.1758 79.9711
55.6269 70.2317 219.706
35.1894 132.755 49.2008
36.5787 63.9517 244.574
47.8817 95.3712 44.808
56.2103 158.153 68.5636
38.7531 86.966 232.775
72.6733 60.3667 82.2959
51.6063 137.873 89.3602
39.1328 79.1861 56.1371
28.3057 126.906 93.1011
76.0394 48.9171 73.7066
51.9129 121.727 89.56
24.7865 90.8923 90.1991
33.9159 77.7556 216.678
56.1964 84.1108 91.9181
39.5463 138.139 99.4177
32.0236 82.296 93.0486
55.1203 131.374 58.6035
31.3102 114.931 110.387
31.776 142.475 61.5908
67.975 45.1189 72.6397
31.7461 112.652 77.5003
49.0136 137.727 124.546
32.8511 98.6715 42.9768
51.7877 120.449 80.5619
39.5169 103.076 57.5292
54.3702 101.421 180.106
72.4961 132.483 29.0351
53.489 100.754 88.6135
27.338 82.435 224.7
42.2703 104.756 81.9915
30.1265 81.398 205.996
71.2225 62.4725 74.5295
41.5895 66.4662 72.4072
32.9032 85.987 232.161
30.7114 119.159 43.7462
44.4667 124.553 126.926
78.0577 57.8765 101.279
48.8434 106.587 195.986
84.0969 116.932 90.0219
44.5104 70.7779 98.6486
30.7229 78.784 65.3175
38.6611 54.9592 181.473
42.2963 84.9202 96.841
44.2402 136.029 39.7051
69.3349 84.8069 80.0136
35.169 88.7216 224.904
43.9644 133.256 95.7078
30.3432 59.6931 226.817
56.7253 138.567 129.729
80.2993 55.9689 130.245
43.8532 135.192 110.373
51.7493 121.716 38.7083
64.3896 153.604 57.552
44.7985 112.247 77.5283
68.3941 47.1931 98.1789
64.732 97.8581 50.3918
58.7594 137.73 54.2483
50.6499 121.912 26.2591
38.7203 135.359 71.1921
49.3112 149.542 43.8046
36.0752 99.8244 201.585
97.7535 39.3315 110.371
40.5908 74.6818 88.9568
37.8887 73.7721 236.012
65.5654 160.475 67.7293
31.6388 134.772 82.493
36.2898 55.796 227.412
29.7882 129.058 78.4936
45.1182 94.0707 72.7853
93.321 71.8649 125.468
70.0247 152.082 70.2454
44.224 59.9023 196.689
61.1701 117.593 44.4961
30.2791 116.03 85.0876
55.4338 68.8962 94.0069
26.4676 96.88 81.5339
49.8041 60.0692 167.639
46.7483 80.779 173.3
40.6857 123.67 41.8032
48.0442 123.893 134.272
67.4235 42.0671 92.08
66.639 97.0369 117.368
47.4007 71.9664 120.835
47.2709 83.0321 38.5485
74.8505 82.6211 127.02
34.1305 81.0744 55.003
29.67 95.5519 107.278
55.3388 97.925 112.542
39.2024 119.596 129.298
25.5984 8.54284 235.278
33.959 94.5517 198.753
47.4473 82.1922 108.855
45.4479 83.2792 233.405
40.1778 105.044 107.543
55.3841 60.2691 230.007
55.7934 121.328 25.5356
60.5614 147.302 117.573
74.4946 65.7798 135.505
42.483 130.96 62.8476
36.498 65.6589 69.177
58.3613 104.563 191.84
32.9096 107.086 114.573
40.4391 104.1 203.93
83.9476 41.4266 106.917
58.4601 53.6448 107.914
62.2185 68.0889 172.079
66.2328 52.3514 73.0116
43.8076 66.905 179.032
28.79 106.404 48.4777
57.7892 137.727 91.5735
48.4785 68.3795 45.8419
27.1148 107.197 94.8314
35.3529 114.675 65.5223
30.412 116.249 50.7238
45.4601 130.52 78.9659
39.8772 137.136 51.8585
34.0147 66.7234 185.02
37.5804 79.104 91.9686
40.3385 56.3175 194.189
59.0611 108.455 130.911
57.5055 72.1749 165.848
47.689 47.1393 196.559
24.3282 116.346 84.9326
51.0466 50.9832 81.4629
43.4355 108.238 89.7296
82.4976 125.895 47.5333
51.0649 73.1286 66.392
50.0852 116.735 65.6269
43.7538 67.0175 88.4094
24.7677 108.868 62.1388
56.2983 153.069 48.6001
69.3645 144.575 30.9649
35.5035 128.083 73.5785
65.8255 122.467 59.9377
54.2455 143.571 120.122
37.0696 118.997 108.13
57.7784 78.2091 216.551
42.6875 64.8988 229.003
33.5618 80.7151 80.4543
71.3336 116.168 71.1757
54.545 58.186 164.596
47.3979 85.0944 131.168
52.5285 133.9 76.0274
45.3627 143.525 94.9446
65.6731 67.7571 43.408
32.0095 88.2403 67.904
35.6729 108.162 59.9557
70.6274 92.8805 25.6896
51.0176 77.1336 218.413
45.8515 76.8565 127.254
42.3991 111.784 107.807
74.3591 68.1698 117.454
28.3995 121.121 61.4139
38.2895 77.4479 242.616
65.8284 107.062 73.7657
28.7811 76.0377 208.896
55.456 102.459 69.6059
31.5525 100.569 111.75
46.189 134.233 51.7637
37.0384 110.77 73.1807
44.7751 76.8187 41.6787
45.5255 95.0491 128.123
62.1849 47.1255 103.657
48.9645 155.486 53.6243
65.1086 58.4633 52.1744
41.151 106.412 64.1769
49.1024 68.7446 236.061
81.4095 50.028 63.1856
54.8621 105.732 110.048
64.9352 86.4723 137.838
54.8271 114.859 85.1396
45.1114 77.6426 199.129
59.8032 60.0892 163.758
57.5733 130.555 41.0677
100.88 40.4614 99.332
32.7778 136.149 88.5065
54.6446 56.4649 183.718
52.5909 120.32 134.523
28.0527 58.3815 191.73
56.8056 79.8904 124.282
37.6361 82.6452 238.389
85.4144 159.13 76.8816
40.492 75.9388 118.949
52.4488 57.8647 71.098
96.7265 46.5273 121.703
57.8464 94.1289 173.525
24.1891 102.967 66.0784
35.3673 130.021 79.0737
55.7295 124.305 96.6255
62.7443 92.2855 37.0061
46.0692 61.6667 208.882
35.5701 80.0259 104.519
95.8333 99.5392 30.2865
65.2212 71.2757 128.22
27.2375 86.2392 99.0913
65.9574 58.5673 187.368
61.6825 78.655 233.061
41.1059 106.038 45.3798
42.935 83.9049 237.455
51.3994 87.1054 66.7838
26.4756 72.7515 214.537
72.183 155.57 99.2399
35.4641 123.248 65.9941
57.0867 107.758 56.2076
46.3924 102.516 42.215
44.5934 78.6296 183.882
53.8165 84.7578 126.449
63.2465 150.99 91.3421
68.7068 58.6446 126.746
68.0802 106.757 57.6089
65.1614 76.0983 136.911
52.2094 134.865 113.932
32.4912 90.8598 75.6026
73.3008 48.9608 88.5766
28.9961 80.2731 105.638
56.3957 104.276 205.958
59.0645 103.376 122.751
57.8258 118.481 77.5263
41.5481 99.6711 91.3383
52.9476 133.308 34.2753
37.3143 111.985 91.6981
52.8211 74.2041 84.7753
31.8435 70.2623 229.256
49.082 103.505 27.0895
64.5825 53.3946 106.388
67.5001 102.634 66.9042
45.3282 140.586 88.5462
50.1173 112.584 46.4771
79.5201 66.2472 107.312
63.6292 151.331 44.5927
47.8868 108.964 55.1492
33.4421 95.6507 68.8338
65.0529 53.9546 58.8048
56.3634 119.896 58.5455
48.5526 130.103 130.093
58.2168 154.298 59.1242
52.4371 130.035 99.0338
91.7502 66.4988 56.2592
56.4859 68.8595 48.661
62.98 92.8441 128.494
81.7367 48.0136 113.034
38.8602 114.313 126.082
30.0328 103.05 90.5828
58.8283 144.084 50.7737
38.9894 125.403 102.24
63.482 60.157 87.3586
41.4731 93.8098 101.013
31.9879 83.9762 62.3913
54.317 130.39 133.582
44.5824 117.655 132.225
39.0781 115.634 98.7177
56.1754 154.95 75.8187
51.0186 148.044 88.456
84.6223 65.2127 133.277
31.2615 116.52 100.262
63.5879 114.626 80.1183
32.1011 73.5538 241.985
38.2636 111.002 33.5531
68.6332 143.621 81.4131
53.3188 62.5578 90.7173
26.519 114.188 72.8196
70.2444 74.3823 112.189
106.569 46.3293 108.178
81.8141 88.1847 34.6026
83.526 57.9085 55.1315
33.9631 94.2628 127.082
59.164 81.2107 105.72
55.3041 96.2797 33.7329
57.1089 152.938 101.068
37.9726 74.5168 185.183
30.08 68.0037 212.898
44.8385 103.772 98.2192
63.9479 123.386 97.5318
50.9353 64.3795 215.688
28.5718 131.057 64.1964
79.0854 78.6139 136.113
36.0541 116.059 46.9559
81.0821 86.821 113.011
40.6085 146.241 86.6859
30.2819 58.7662 203.023
27.0176 95.8099 63.6545
35.3487 122.422 121.695
35.7147 5.43666 231.721
64.0806 126.926 130.469
75.0848 127.872 58.1434
50.6405 121.295 112.971
64.8128 65.8994 160.905
70.9588 42.6783 85.1684
60.7895 108.305 22.7981
33.7692 125.896 43.9727
43.0477 73.415 193.523
52.3175 128.232 90.0999
56.0401 148.959 112.446
59.5406 63.6779 128.759
29.1062 88.4594 108.163
46.4726 51.8149 212.932
44.2615 57.8189 230.157
36.3826 104.721 45.1603
39.1078 88.1183 205.484
53.5588 96.0392 73.7411
78.9617 71.6976 120.146
83.332 76.7562 79.4047
47.303 74.7532 82.6722
26.5248 103.379 99.8428
34.7894 101.026 92.3315
41.879 95.9063 34.787
56.2074 138.66 80.1707
31.4967 104.409 121.725
88.0631 143.643 82.8429
42.5276 75.6521 68.6413
71.1371 77.1783 208.365
92.1046 152.738 88.2337
57.0415 50.2526 101.309
36.1856 134.581 105.542
75.4209 139.364 31.0583
35.0501 131.201 97.6131
67.3118 92.174 66.01
42.613 57.9214 185.514
64.124 49.7566 111.967
62.4909 73.0301 179.114
30.4609 97.2576 76.3023
66.1864 109.538 136.034
41.5347 62.8949 173.179
79.9595 146.985 84.7748
46.7148 59.0693 236.791
33.5286 90.1192 112.925
69.3701 105.674 48.4982
24.8092 107.185 76.0139
48.2268 94.7019 58.6612
75.4918 132.449 37.0769
71.4528 98.2582 109.233
42.381 105.533 36.2636
67.478 122.972 71.7463
30.8561 103.262 59.448
67.2219 51.5806 89.9151
34.2623 92.946 214.37
47.6772 77.0353 179.331
59.649 142.322 62.7758
33.5242 115.187 94.5986
26.7489 81.1944 214.682
49.3693 106.317 42.7956
78.1072 96.0691 114.649
77.7579 106.067 67.5141
50.8832 130.578 63.5665
64.2639 120.312 78.6505
42.6983 137.138 46.3274
81.2195 139.014 28.5884
73.3706 82.3551 133.739
55.3315 80.9159 74.2149
46.3126 123.603 98.1635
62.317 98.3622 76.5204
59.5781 52.3551 181.042
64.6053 140.432 87.2152
35.2376 77.2916 116.552
48.3232 101.295 198.155
66.126 124.85 122.469
51.7828 122.958 121.806
37.9127 66.2337 195.586
36.5551 61.3785 219.401
64.9119 130.273 37.5447
55.7627 135.705 122.509
48.7961 104.181 75.1274
63.3805 52.8572 83.6512
41.8955 59.9784 219.64
79.1661 142.564 70.988
68.4375 64.3685 210.534
79.1443 53.9163 56.7286
45.9625 68.464 208.068
33.2608 84.2999 108.49
56.4276 97.6833 139.902
43.5129 61.4887 97.4473
77.5769 85.6886 76.3689
61.3019 92.6277 69.8049
24.2092 108.306 69.2911
66.4863 144.923 64.8634
69.6664 120.934 117.508
67.6019 148.126 110.575
30.3328 123.773 54.816
46.0049 91.368 55.07
53.4991 85.4154 118.377
63.193 135.476 93.0585
43.3905 72.388 237.253
61.8859 131.808 27.4987
62.7557 153.888 84.6629
39.8332 129.982 77.2428
37.2214 72.3128 102.54
28.9605 121.797 102.019
62.2844 112.572 122.275
87.3538 77.958 121.259
37.9028 11.422 233.94
35.2593 121.093 39.7458
76.2641 115.984 45.6336
63.1985 144.563 35.7781
68.2811 95.8501 35.6259
46.2186 130.489 35.7575
43.2253 58.8633 89.6234
80.4164 118.509 59.4574
47.908 117.655 43.3872
51.0919 73.8808 166.336
74.5721 50.1345 100.603
52.0049 63.3657 55.0947
70.7622 55.5544 207.927
63.2133 102.747 28.8346
42.4039 73.965 216.254
41.317 56.5993 175.49
49.0232 60.997 116.314
50.7807 71.7043 96.7191
40.4086 126.332 95.4285
59.65 139.826 114.235
43.2555 145.5 101.269
50.3357 92.1044 36.8208
84.0749 46.1944 72.269
30.0062 101.107 49.9237
47.2174 124.897 30.0208
68.9089 143.435 40.6244
53.5965 65.039 162.663
56.1049 99.8431 210.264
60.0545 128.182 86.2847
71.4446 116.397 133.07
45.2107 123.996 82.876
51.7045 115.399 130.74
64.0948 69.6776 136.102
66.3789 145.854 104.535
30.729 125.854 49.2418
44.4244 101.063 213.238
71.9227 68.8356 127.419
63.4498 84.7221 177.558
62.7006 146.928 107.773
44.2991 89.0735 34.5786
62.2983 121.869 52.6467
34.7428 103.375 36.2043
86.0371 61.5956 82.3498
52.9512 73.7165 45.5383
52.9754 115.311 116.334
70.264 56.0267 99.7489
84.3954 86.6038 124.189
48.2415 74.4865 172.907
69.6246 124.137 64.9302
57.3093 116.21 136.922
44.9357 58.5009 215.407
30.6571 93.49 99.1983
70.3531 92.3817 83.74
73.2469 148.302 50.8201
56.3242 69.5513 132.151
58.7604 46.1645 76.1088
54.3861 123.201 128.583
55.0756 66.6852 72.2708
73.7346 159.749 67.5857
42.5856 66.3078 184.5
86.8706 124.111 114.025
75.4106 66.0234 125.824
31.1612 84.4266 87.189
70.0554 145.693 98.7723
46.9032 92.494 223.27
68.2384 46.0797 106.107
60.5537 134.229 132.527
50.7429 144.389 105.313
59.0732 109.109 92.1392
44.5267 43.4701 185.064
41.8953 77.3459 208.862
60.4994 105.497 39.1937
58.5021 86.6213 37.3978
66.2384 103.667 128.063
58.6983 45.9648 97.1917
35.5044 63.0324 83.9031
36.421 107.847 125.003
29.7353 121.809 77.4302
33.1878 89.2367 82.639
61.5287 122.272 21.2921
45.1611 122.916 51.4773
41.3563 82.7375 217.809
42.0974 90.6195 125.926
67.673 148.424 116.522
53.4377 75.4063 114.445
70.4974 109.855 71.4874
72.3899 56.6534 90.5605
53.0583 78.9149 82.3765
44.899 142.574 107.933
62.4917 69.6042 98.1263
38.7455 136.619 90.548
44.1756 96.6533 63.5735
79.3785 153.558 102.472
44.8042 72.0819 221.724
56.6886 64.5989 104.23
35.1127 87.1188 51.9213
41.9026 89.863 66.4391
68.939 83.1571 31.0809
47.9386 79.3886 51.4121
48.9764 144.091 81.5729
50.902 125.57 67.6669
47.3458 109.172 83.54
56.7723 101.069 32.1092
49.6352 65.7707 228.016
48.5839 135.32 83.7995
48.448 89.5687 99.2493
42.8907 134.386 76.0004
36.6631 74.6209 196.854
47.8062 63.4909 176.074
91.779 61.1706 86.2057
34.0864 77.0894 98.9681
52.8573 79.1289 170.818
67.6651 71.2568 68.1272
59.4006 134.195 31.7801
77.2144 102.641 23.8814
62.9017 113.166 89.3871
47.5864 53.3619 94.1795
70.4682 105.263 123.868
73.3042 133.41 121.409
85.4985 94.0336 36.7905
34.4249 130.743 67.1729
59.1537 80.7052 42.8284
32.5615 99.8637 98.9545
43.0402 102.318 30.4723
86.7645 102.261 62.6956
53.3211 139.764 56.0521
59.2242 67.9513 66.2139
29.2516 100.514 68.3199
30.2816 123.93 83.2524
50.6965 73.3477 103.065
72.7438 129.533 44.5091
47.7001 130.672 96.2727
51.048 116.512 104.428
79.2944 153.058 55.9213
58.8172 143.743 86.3078
58.6867 51.6422 197.562
52.9099 125.394 106.044
52.91 77.1459 130.97
52.5978 135.879 69.1103
67.3326 67.033 64.157
53.9063 101.96 134.77
68.0335 123.395 22.6897
53.4855 47.3022 181.267
68.6562 77.5417 179.035
50.3236 151.556 99.9121
68.3543 95.4675 198.94
70.5264 81.4373 139.471
49.4992 94.57 181.659
73.1035 146.632 124.595
39.3723 84.4756 127.109
60.3924 109.287 74.032
50.9632 58.8799 80.7942
52.072 48.7115 203.608
39.8761 110.429 133.974
35.2317 94.1104 55.734
30.8222 91.1936 60.318
51.4473 142.12 63.8682
82.9419 92.4614 52.245
53.5047 48.8459 172.655
39.2665 74.5915 177.448
77.1447 44.3205 67.0112
64.8883 91.1986 24.344
61.8212 65.2895 92.1788
67.39 57.809 179.768
95.6622 150.328 55.5464
49.9646 115.218 29.2462
62.5371 84.334 164.942
62.3491 54.2547 208.457
41.3657 45.3257 190.666
67.8972 119.059 136.194
51.141 116.433 52.1032
32.082 107.734 65.4015
62.6681 31.9586 193.128
82.7287 57.4174 122.367
26.4239 9.90838 243.648
44.511 82.9234 54.3622
38.5638 101.759 100.525
62.6446 46.3861 94.066
76.407 73.7814 113.709
60.1437 102.161 92.7529
28.0892 1.95094 236.95
62.8698 104.61 57.9547
80.1871 45.1492 88.4204
52.121 144.128 111.628
49.1647 80.604 119.847
59.5496 72.3191 40.9691
51.9134 66.6854 242.271
56.5112 130.705 113.459
68.7548 82.0873 181.151
39.186 118.478 68.7575
48.4081 101.744 68.2542
42.9397 142.123 82.1762
43.7452 49.8942 186.048
88.2942 104.146 107.694
65.9913 138.444 108.025
64.4922 79.7263 86.1663
82.0524 148.368 64.2961
68.3732 90.3785 39.8743
47.4542 84.1242 217.072
61.4972 132.963 78.3464
58.2557 63.3786 86.6389
83.4713 114.923 56.7731
64.0075 130.491 60.5358
81.5089 139.889 92.2518
53.1134 156.607 60.8675
65.397 65.5958 183.134
48.6617 117.509 137.658
53.2681 82.5481 134.407
40.372 124.046 69.0615
72.1731 53.649 82.6856
43.4707 67.6191 215.32
61.6486 53.3694 174.319
69.8131 95.2601 189.09
72.2648 72.15 50.5268
63.0742 111.938 96.6717
71.9504 66.7465 184.128
71.9492 85.6115 179.741
62.0216 76.1028 81.5156
74.8139 74.6454 68.8193
37.8258 129.921 41.1891
99.3381 55.5292 84.5047
28.5923 108.516 54.9772
52.1654 55.4536 92.0531
59.8294 87.0777 214.915
43.1269 129.611 84.3526
55.4211 139.143 102.54
33.2812 65.6131 238.953
88.6509 136.626 108.994
87.1907 126.011 32.4909
36.204 141.975 63.1862
48.5283 56.0553 189.936
48.408 61.3846 93.3982
57.2711 88.9925 134.919
48.1453 143.282 53.8485
43.069 78.0613 84.254
52.8504 49.0177 74.9446
48.0954 58.8523 182.176
30.6095 133.833 72.0574
69.1156 112.909 25.4731
69.1769 132.151 74.9213
60.4304 112.943 138.515
52.0794 82.5491 58.0408
72.0385 114.138 125.612
67.115 20.2084 189.888
55.2322 61.7958 192.358
75.6836 84.8724 62.2528
58.6782 148.054 55.491
104.872 53.0794 79.1705
34.2707 125.139 93.8271
56.1744 82.2712 230.488
42.9669 65.4655 200.296
43.2973 88.4149 104.83
37.1941 126.617 109.7
60.8408 71.4074 132.836
49.4806 43.9271 188.155
73.3122 100.684 60.8287
36.5133 74.5444 224.259
58.6961 66.1093 167.402
48.1462 88.3317 50.8093
39.1922 90.9371 41.0911
69.3982 42.3162 78.2989
80.4808 82.0568 99.2201
39.2383 72.1588 55.8647
36.0943 74.0428 108.239
60.1609 146.864 126.171
80.2577 113.9 121.088
40.0522 92.7882 61.5113
64.7965 96.1537 182.114
42.9599 79.1283 108.87
82.4978 81.8912 131.112
36.2211 89.923 121.294
36.2076 130.68 85.2071
84.8766 144.628 34.9243
52.298 49.663 96.1254
74.9375 82.9584 33.0706
57.8823 62.2294 51.8503
74.0633 50.51 126.244
49.2906 70.2369 128.567
42.952 120.33 107.384
62.7275 65.5783 49.6163
55.1467 109.454 78.1518
72.7246 46.8207 108.983
86.7413 120.899 53.1028
75.1541 59.8004 126.243
48.8117 77.6179 56.8551
78.2905 113.295 55.1872
57.1544 65.2373 178.098
59.9461 65.5374 184.597
24.6416 119.09 78.5324
60.3107 64.2985 213.288
62.646 113.253 27.4993
45.3803 57.8607 71.6942
82.7349 40.3586 82.4654
38.1199 102.457 130.682
46.3857 67.5832 116.261
69.7281 93.4015 123.005
51.5864 70.3297 53.5597
99.2863 70.8384 120.524
36.4839 101.189 66.7551
71.1562 116.109 50.2914
58.344 92.96 95.8567
83.4992 129.04 105.423
63.7354 62.3878 128.657
32.6105 63.0136 222.898
37.3337 139.328 82.9319
57.5598 101.397 76.7167
88.9246 62.9966 128.655
58.1658 54.9985 61.3134
94.6464 52.4054 102.053
85.453 151.878 80.2443
62.9286 120.504 38.2809
69.3279 69.5299 94.543
55.6609 46.5666 189.391
77.9543 42.7154 107.489
68.0318 151.554 92.6316
60.6818 141.99 68.8428
26.5821 63.8927 228.633
75.0844 120.589 52.8728
72.7151 75.271 134.854
72.8712 84.0053 41.3337
59.2665 97.8501 55.1482
79.2589 140.076 43.3349
53.79 79.959 43.1408
51.6395 95.5541 174.496
29.7224 111.685 68.687
27.7539 98.3051 92.2908
59.5738 89.2499 111.521
57.5506 132.584 49.3137
72.4144 69.1953 171.667
60.5081 48.3363 87.1075
56.7404 142.98 96.355
71.5451 62.773 88.9347
74.3399 148.307 73.6339
47.8194 71.4528 108.379
88.5111 59.5221 107.252
49.8415 122.492 60.2978
50.1639 103.314 189.76
70.7683 113.791 118.223
57.0896 79.6481 164.225
54.0683 100.579 42.1182
38.3534 66.4827 204.739
52.6185 95.3711 134.511
84.5277 103.322 50.5684
34.8063 98.5807 49.2449
40.8951 99.7195 196.646
53.95 74.6421 232.738
67.3662 26.9553 196.264
51.1838 143.208 99.1164
37.6259 84.048 108.627
37.8817 66.8044 89.1378
43.0478 110.125 50.4155
81.3234 47.9697 95.6021
94.0577 89.5277 120.692
51.8153 130.37 81.3148
38.763 127.442 119.51
49.4706 128.418 118.643
46.9041 97.9591 218.655
58.647 125.96 56.3218
64.0862 115.129 19.6715
80.998 69.2945 134.944
26.848 78.3056 233.36
68.5574 136.463 60.3949
85.9404 144.508 75.681
77.4551 52.2671 106.465
56.6141 91.7475 215.661
77.766 107.549 80.9022
53.4474 60.5185 111.171
78.1472 60.4889 84.3636
50.9217 71.8431 226.574
58.0646 53.5705 95.4607
65.2722 53.4201 200.831
49.5015 68.2473 91.1803
48.5445 70.0963 219.3
82.5111 75.0435 96.7025
54.0412 62.8853 123.446
46.1194 59.5421 224.753
76.5129 131.573 69.5339
87.6056 41.8805 102.025
70.8176 61.4425 49.5689
81.6184 78.6627 57.601
50.7539 69.8108 170.189
43.7055 111.603 67.568
57.1695 88.9001 168.213
36.5545 135.758 136.048
62.4358 152.919 100.916
37.9542 40.4219 202.407
81.3094 136.938 75.5931
91.7335 127.014 47.0019
72.4626 52.8916 116.867
73.1898 144.41 66.2526
40.5579 79.1639 64.0928
42.7696 92.0527 47.6916
65.0939 116.705 56.2367
56.268 113.053 30.9763
81.618 97.3408 25.9611
59.3588 85.917 71.7909
30.5074 111.421 45.69
40.9366 93.5977 191.046
50.5615 78.4351 103.764
49.6282 76.492 207.139
38.9974 97.5738 80.4585
32.2232 2.62291 245.057
52.2745 89.1081 29.9276
28.6382 66.7522 206.888
62.1347 44.6535 179.789
83.133 62.1839 72.4621
52.7132 56.1092 62.1511
54.6601 88.2632 113.036
68.8509 131.58 51.2723
25.28 99.4098 100.652
59.7686 116.408 21.5363
65.3415 77.0239 163.048
41.5314 62.7947 189.766
66.3751 63.6462 58.0251
84.464 54.5646 68.7502
70.8831 108.175 130.709
58.9132 62.7795 173.749
47.3423 123.256 73.0027
80.9775 154.492 71.7015
56.2357 94.0941 40.4014
44.7029 107.528 124.236
67.6234 158.605 78.1006
73.7586 72.8158 185.018
37.7449 129.197 90.1129
75.9169 90.4477 134.162
59.6835 54.4465 189.514
50.0428 101.255 62.8686
66.9522 95.9627 43.6929
83.5202 61.7339 97.6808
53.7422 106.394 195.384
49.0946 98.7025 130.492
41.4219 77.4876 75.4522
62.0337 72.2345 59.4818
92.8555 48.3866 80.4122
39.5445 70.7717 244.951
52.9689 112.491 136.342
64.6224 99.5659 188.474
65.922 59.9107 99.2239
102.025 51.4504 90.676
53.5084 51.3379 104.97
68.5999 150.27 36.5774
42.4007 111.108 41.6837
92.3094 144.419 33.6684
44.4282 83.5554 194.89
59.2331 57.044 54.7433
71.6602 137.75 105.214
32.0927 91.0094 205.048
52.6695 67.9954 166.994
77.7954 113.138 72.5301
55.5465 52.0782 190.804
65.4958 54.0313 120.547
62.5382 82.9869 226.627
35.7399 59.7883 181.05
70.2538 106.637 106.618
71.1178 105.089 89.1722
50.9408 97.4232 214.731
74.2369 57.2032 64.6646
88.2286 67.1018 108.475
75.5296 73.9554 106.671
64.7612 67.4795 232.65
54.0664 96.0022 190.598
35.7068 65.5845 76.2734
60.2466 126.478 49.8466
65.1148 129.188 45.1306
43.1729 119.847 73.798
35.024 105.533 103.552
68.5138 83.9433 109.161
51.5083 52.3639 197.283
95.8974 38.7622 89.0872
39.273 60.9329 74.7923
38.0081 122.386 35.7551
61.6524 144.375 96.2251
59.2244 67.8095 55.2499
52.3287 84.6256 103.61
59.1518 149.777 107.066
85.2806 49.8766 119.155
72.0157 151.852 119.063
43.2073 81.9007 47.4456
62.7594 73.045 231.792
57.8549 107.163 115.558
60.2055 56.0479 116.82
86.7184 82.0519 98.6992
34.2248 95.9386 86.2967
79.4847 159.306 85.2801
71.0218 154.005 82.6445
77.5073 62.9882 66.3707
80.3055 118.825 98.4288
64.9469 53.3674 169.803
89.9578 48.0824 118.244
64.2678 98.4762 132.917
36.2819 81.3262 207.302
63.0937 55.5962 98.6829
86.3338 117.751 109.252
89.438 142.613 89.339
64.9115 130.02 22.5475
58.4765 76.7073 117.726
51.1124 57.638 86.3167
43.6965 116.463 48.0101
49.3152 83.9 180.403
44.3725 52.3062 226.836
66.2743 130.204 100.038
59.4887 74.2092 122.719
53.1571 54.7924 170.894
79.7722 149.829 115.79
71.825 153.399 106.743
56.2506 45.5387 90.9281
69.9173 69.2679 216.288
90.9721 47.0324 88.666
60.1353 62.6173 190.533
61.3475 60.4523 62.1796
82.3787 50.0243 123.462
66.0612 113.849 126.599
34.5301 68.6731 210.316
50.7692 48.4229 191.898
54.5631 122.912 138.201
70.2128 152.275 87.3982
33.7631 116.91 117.775
53.7039 122.278 73.1768
39.2478 134.857 58.0289
88.8893 97.7571 28.2882
44.8677 91.7955 218.531
81.2277 84.4067 61.6614
36.5745 133.027 62.5662
66.3023 84.4708 213.911
61.9944 130.628 106.89
75.9177 44.6981 113.888
39.9974 145.732 50.7334
72.9064 78.3266 58.636
42.2749 86.4443 40.1741
63.8775 68.6828 216.438
85.9364 67.3782 115.884
79.1627 71.8037 84.1124
73.6356 55.068 125.26
30.7222 113.503 61.8602
76.8429 46.5825 82.8822
55.3998 58.9006 57.397
52.4074 84.2975 215.179
43.9929 103.872 207.79
53.083 62.7095 183.97
60.5541 96.0409 178.454
114.776 43.0905 108.711
45.5258 120.417 116.156
93.6638 44.4511 105.63
54.2616 65.027 82.8721
60.453 79.9448 37.4913
86.286 51.6236 106.398
85.9919 144.517 111.73
78.9521 66.1318 98.028
87.0677 43.8573 96.9189
72.2978 145.634 111.778
27.1748 113.613 91.3802
80.4826 143.984 77.5866
31.5647 11.1468 247.167
77.4393 52.1475 120.413
90.8012 82.1778 59.9592
56.1653 106.91 42.7679
82.3543 47.3372 82.0837
52.5936 128.875 52.1603
105.995 47.6554 117.894
79.3097 74.0343 132.855
66.6889 74.0512 78.5499
78.917 121.921 27.5549
62.3713 103.511 51.999
53.7407 103.753 47.2876
62.8314 135.069 44.8054
89.6915 95.7364 50.1752
58.9633 98.8301 200.125
56.9474 53.4945 201.31
45.3508 81.6619 189.231
70.5084 80.8153 173.176
61.7032 92.3114 137.616
62.2359 87.2927 40.8404
40.8245 117.406 42.3305
69.8701 131.052 39.5164
73.4622 97.8424 34.4125
75.572 141.464 36.9415
74.8395 66.4352 103.223
83.728 74.6683 125.993
88.7511 56.0893 126.827
32.7297 51.2292 194.013
59.4312 87.0084 206.272
67.9418 70.7527 209.397
64.1723 87.0645 183.102
84.8793 95.2768 70.0949
46.2436 108.772 61.7292
70.2572 95.7335 133.075
61.6633 49.1702 65.0424
66.818 104.564 115.421
45.9034 63.5202 102.145
48.4014 77.6854 231.704
87.4743 113.761 47.4423
69.7742 85.3061 69.9095
55.3272 77.9291 36.0398
72.0148 83.0742 209.542
58.3511 119.429 109.299
84.0213 65.9398 108.23
28.0727 118.667 68.7183
86.9781 59.5401 89.3074
49.1174 136.421 99.1532
77.5648 99.7605 63.5612
60.2547 123.59 63.5989
74.6611 83.5493 70.0679
44.5353 76.8625 238.448
71.6145 108.668 20.8165
57.7907 74.9948 128.389
44.4684 142.8 44.0174
66.426 68.5824 200.156
45.0497 71.0504 84.7222
72.1279 157.264 51.7137
85.3837 46.8627 90.903
66.6182 87.0238 46.0357
40.7876 78.2705 196.92
80.4929 155.314 47.4804
65.6553 83.225 121.401
54.1122 84.7688 175.543
69.9536 78.2464 91.1887
67.3224 113.803 48.7658
68.1305 113.919 91.0927
59.6364 63.201 119.284
73.0559 107.906 62.8062
56.956 73.3418 107.213
75.9821 108.541 36.5028
82.8758 117.108 30.7573
87.6762 70.1028 129.924
69.5006 57.855 174.224
37.072 67.5831 230.891
70.7896 139.134 122.737
51.2405 154.972 72.0737
75.1947 95.6297 25.6385
67.3775 137.825 36.0225
53.945 152.26 84.6135
47.6138 151.57 67.3961
63.485 121.267 29.1947
32.9053 125.809 114.521
75.1044 154.395 84.1973
64.7851 136.433 98.5496
83.3663 139.278 69.446
28.2919 105.001 107.51
35.6685 73.0603 66.5657
76.8877 152.457 38.7992
40.5077 95.4589 133.374
62.8963 44.5906 78.8721
73.3227 125.254 26.0424
90.1645 159.785 66.1718
59.6722 66.0389 42.3937
47.005 64.5828 169.811
58.2397 55.0379 166.921
70.1845 130.418 88.9422
59.935 94.9559 186.139
97.1651 96.6524 37.3558
31.2689 71.9122 201.741
70.2461 75.409 34.3823
90.6559 115.081 72.2
48.427 87.2413 188.669
64.0904 80.1585 215.203
86.2356 109.999 69.3821
101.986 47.6264 112.764
29.2338 129.286 85.8345
68.0352 68.6445 193.522
58.8999 95.5965 119.916
45.112 73.6634 50.2354
53.3508 84.5018 44.4372
51.1905 53.6154 73.2195
56.8009 75.1024 225.727
79.5971 92.4687 59.8315
77.1856 127.393 122.631
67.672 135.441 25.3521
60.8037 119.258 99.4445
69.3181 72.7044 203.071
30.6911 11.5948 234.001
95.9541 136.73 102.315
86.9259 53.7194 113.991
68.2369 66.1364 131.453
94.4914 153.171 78.3745
70.6056 47.6463 81.6076
52.9951 113.298 40.0019
82.5595 159.254 65.2517
56.8258 106.456 32.0303
70.2325 66.5126 165.539
51.3196 99.1947 53.6018
82.4692 105.527 126.091
63.3185 139.026 40.0113
56.1145 92.8007 117.252
97.2152 42.4868 81.8927
69.4138 111.888 81.8976
36.3483 99.4427 118.083
81.5755 81.9664 31.4829
76.3942 51.2806 64.2254
73.5915 101.043 30.5805
60.9521 76.899 65.0475
58.9091 138.861 35.0837
60.2109 137.668 73.678
65.2395 105.897 85.9272
58.3694 110.747 104.893
86.1382 143.631 58.1171
45.6748 127.808 69.9528
79.0418 46.3041 119.45
57.4295 77.7503 69.9476
38.3196 97.3851 217.2
56.1424 137.958 46.4046
45.7021 97.2979 204.606
75.4833 139.664 78.8133
59.6814 89.9631 121.176
78.796 82.7569 105.58
68.7288 73.5754 169.3
56.9027 43.5322 176.666
47.173 114.272 117.353
86.4979 45.1608 122.068
74.8032 64.3331 48.4202
82.3186 77.2063 112.965
80.2438 65.4828 115.661
81.7465 120.528 119.233
68.6489 119.446 27.2393
79.9458 83.6527 48.3138
92.2264 138.05 63.7548
90.4399 143.26 72.162
34.7847 4.14029 239.085
94.7808 90.5964 40.4983
57.2401 150.29 67.2395
58.5798 70.3294 182.796
79.5682 99.732 34.7557
78.5165 93.1235 83.9391
44.0449 145.639 77.1152
94.2213 36.588 100.78
91.273 119.964 46.1371
47.3589 149.604 73.1036
92.5012 129.99 41.5778
63.0866 153.309 79.1188
39.2169 55.4122 208.342
71.7573 84.7851 187.744
89.3866 110.092 95.314
66.7171 94.7973 140.602
102.23 143.418 64.7057
64.3848 133.227 82.892
48.0088 118.392 57.6566
71.1167 73.3926 96.8241
71.1678 143.053 102.643
70.2379 51.6719 78.1919
70.4866 131.766 68.5962
58.6377 52.8529 75.8656
52.3778 55.6944 111.099
63.7224 71.1899 164.772
57.8435 54.0097 211.344
72.7448 121.168 21.5902
35.8059 84.814 72.7202
49.8957 64.5997 122.479
40.2913 84.1901 225.039
74.8537 118.653 64.9516
55.9383 132.275 65.0487
105.293 141.335 98.2932
55.7866 94.942 24.5264
71.3673 144.385 76.1389
55.6406 70.966 176.905
93.0656 60.0755 55.6869
69.4031 95.9693 57.3228
68.9854 141.364 52.4949
35.9505 60.1422 199.869
87.9232 65.4043 74.7148
74.4531 86.4022 196.091
48.2877 82.2415 225.052
62.6005 149.594 38.5012
74.2987 157.56 56.1124
50.2403 89.8827 136.523
103.906 45.461 101.833
67.2017 52.3721 186.334
41.8888 97.5151 39.6221
96.5709 64.8581 110.402
77.4697 90.7893 52.7978
39.4606 97.2774 47.4925
80.2578 148.161 91.2162
42.355 93.7906 198.881
71.4916 109.899 111.385
57.3397 142.971 73.0661
84.9022 54.1404 58.2656
60.8767 143.245 79.8978
92.428 125.202 113.999
78.6735 139.818 101.154
86.5602 151.727 86.5919
55.2613 71.5411 236.664
47.8093 87.2984 229.118
65.8585 131.287 124.983
86.1858 136.774 95.9352
79.6419 90.0282 126.777
76.5557 138.974 86.6668
62.8063 45.0403 85.0943
86.5185 76.4183 34.4829
89.5821 83.4732 126.66
63.5625 157.001 74.6375
65.8659 68.469 79.0362
69.9307 47.3877 114.462
36.6556 73.0466 205.682
89.7513 101.629 33.5023
50.4477 129.128 109.782
85.048 78.0383 63.2808
108.615 46.087 87.4735
66.9464 106.954 23.1646
85.7329 131.241 42.5034
74.7282 130.83 51.4091
99.0316 97.9011 54.285
90.5565 39.939 87.7727
67.3508 60.8664 166.497
61.6408 101.117 114.863
73.1484 91.1591 66.7912
77.5279 161.551 74.0934
72.4246 66.5518 177.024
63.914 93.6762 195.029
62.7052 58.7782 79.9602
50.2889 145.039 76.3162
88.9986 145.637 50.878
75.4716 51.45 114.82
74.7097 129.09 106.526
59.0748 123.497 76.4302
65.7239 80.9535 103.568
72.1936 78.7628 48.1276
43.1617 131.328 123.212
69.6623 117 108.217
63.1624 92.8178 204.192
87.9984 130.959 100.837
49.2475 83.6887 207.009
81.8266 88.0896 82.5975
55.4483 52.6573 207.226
82.4759 84.6521 56.1131
51.7647 123.782 45.2639
73.6043 117.847 38.7341
80.1656 46.3037 103.107
66.5721 71.7639 122.677
45.5291 61.8233 109.06
64.7643 80.0397 125.997
65.6926 99.8017 25.6935
55.0817 142.995 67.4225
72.1323 101.062 116.92
59.2965 131.937 96.0702
54.022 70.5449 125.312
56.1785 62.8972 237.408
74.3414 110.296 56.2882
73.6603 80.072 200.606
61.4967 58.5356 212.77
71.4215 69.4502 72.7702
80.1417 122.297 108.526
68.6408 156.27 40.6266
67.3158 147.114 75.5795
72.2289 71.6375 40.8236
57.3686 110.989 36.5278
61.5078 81.8765 112.671
77.8726 142.141 111.065
69.2237 56.9803 109.011
68.8577 79.5998 217.302
96.9546 52.3228 119.367
63.8825 60.3465 116.75
63.4407 85.5005 128.494
80.788 65.003 77.3499
85.0705 122.31 104.182
78.4246 105.827 101.756
66.4125 78.6224 186.795
70.1344 87.5243 206.31
55.8891 105.323 140.189
84.3932 61.1087 49.9656
64.2681 99.986 62.4523
93.5603 113.203 58.5846
86.3979 141.565 44.4864
39.3153 57.2479 234.006
100.573 47.5124 106.232
54.1682 81.1158 67.9531
92.3547 68.214 81.6909
73.0375 90.4522 34.022
83.5848 60.1692 105.616
39.719 96.1182 205.135
69.7849 103.186 134.851
45.2347 60.4184 242.298
69.1562 123.785 49.9883
78.5699 139.274 50.3834
67.2622 80.7718 224.103
44.4931 50.6858 201.739
86.7601 129.461 77.0243
83.5255 127.776 22.5579
90.4771 70.7047 62.1395
91.775 46.0663 112.312
86.1709 138.401 102.596
34.1655 96.7562 206.276
75.1353 146.587 42.6102
37.7214 83.4873 66.6506
64.9023 143.5 47.3402
66.8711 101.006 139.912
61.7103 49.3183 172.476
92.0364 133.454 94.6039
60.1064 100.226 46.2043
70.5128 110.277 139.536
101.15 150.722 77.2637
66.2234 72.4952 38.4779
94.7696 43.6407 96.9044
84.7872 135.957 46.841
58.3253 123.623 68.0818
73.7464 112.369 64.4583
55.3299 51.4855 66.7751
92.6542 57.2201 90.6568
79.6724 93.849 71.1499
84.2252 39.2248 89.1369
45.1868 101.11 137.007
42.5823 137.237 116.857
49.2749 87.8051 200.51
83.025 85.4572 91.5647
63.8498 114.81 105.875
43.707 56.0577 204.34
75.1817 91.1918 29.9885
56.482 78.056 175.541
67.1331 73.4262 214.236
66.9996 137.603 69.4772
64.1738 74.9522 71.9014
74.1084 153.756 46.5483
48.219 95.5553 199.325
74.3977 108.718 28.2819
82.187 98.6621 109.088
97.4713 149.764 87.5833
74.2507 82.9995 54.834
61.4879 80.7459 169.952
86.7444 153.878 91.6464
74.2715 102.576 54.2876
80.8136 87.6925 27.8066
87.495 123.146 88.7294
45.3452 93.8851 30.5624
64.7933 117.617 34.0834
98.9863 51.8413 97.2623
41.1639 80.5102 122.986
69.6327 77.7263 99.612
79.265 79.6911 39.4103
87.7634 132.689 27.5862
61.2512 81.9697 221.168
80.9457 113.439 47.2542
46.353 62.6953 247.371
90.9005 98.5972 42.3938
42.2336 89.4892 210.574
67.57 60.0869 193.173
44.6389 57.3919 170.118
79.362 69.2165 53.9344
52.1517 73.0925 59.7669
25.6998 73.8145 35.2949
86.6203 139.48 64.225
53.1367 86.5539 194.939
30.2061 65.3016 197.105
75.0996 92.7215 43.5696
45.2027 75.4488 227.557
55.6431 110.124 20.9003
80.4226 104.26 28.0207
56.4387 58.3432 118.66
86.6942 148.771 103.927
67.7735 49.1823 59.6293
42.5956 104.698 198.805
67.1769 73.0943 57.4712
58.84 115.485 94.5072
75.0673 92.6446 61.4349
62.9384 86.6195 170.925
63.3434 101.773 191.943
30.4089 99.1293 216.096
64.942 92.6118 185.465
35.5143 70.3651 93.4041
71.6613 136.544 85.3245
96.8465 45.9699 113.757
66.161 143.551 97.8262
66.8882 63.583 188.406
59.6563 117.414 50.708
67.2005 74.2679 231.75
77.8849 147.24 106.195
88.9532 60.1766 122.099
91.6332 105.572 25.3532
74.8303 155.972 92.6327
93.6218 59.674 105.11
68.4771 117.543 39.1217
64.4201 74.407 88.5225
89.1348 152.214 59.4051
92.4512 107.895 61.8376
84.1203 97.8472 98.6177
45.0956 149.608 48.7881
58.9237 102.583 184.983
97.8446 145.098 95.7241
84.4869 125.23 97.9355
87.9343 43.761 87.1444
89.6419 51.746 93.0598
73.1207 122.5 42.3833
50.596 131.998 45.582
81.604 104.577 73.262
73.1916 84.5564 48.4884
84.7499 81.537 125.572
93.5538 109.633 82.8704
106.26 62.9766 80.8671
74.0167 138.562 52.801
45.686 70.3892 168.055
59.6172 102.315 196.325
60.128 152.152 95.2078
80.867 92.6615 65.3212
90.7317 116.991 85.9666
54.8797 94.8477 183.411
80.8141 131.198 25.6209
40.3189 147.44 45.5806
58.5013 101.201 99.6028
52.8521 109.676 139.933
96.7145 60.9589 119.598
81.8292 69.0999 44.7973
60.4181 61.6901 195.897
69.776 65.2901 98.2975
90.2225 156.863 76.1625
89.0213 102.809 72.4829
102.744 59.7316 75.8354
76.9328 105.314 107.95
91.6602 108.914 69.9027
37.5735 101.978 87.6798
90.4205 53.4402 119.618
70.7693 66.6875 54.6232
68.9397 120.714 82.4169
77.0903 102.333 125.094
50.4105 138.751 40.8902
71.7096 72.9631 178.193
109.226 43.5345 114.472
93.7725 112.741 77.6504
74.8452 92.0735 127.998
74.8018 94.4433 119.824
79.9895 71.0606 39.5987
96.6247 86.1194 81.7996
89.2166 151.631 46.0511
79.1045 155.528 60.9563
67.7116 58.0167 67.014
73.1206 138.021 96.4059
64.3439 55.8626 126.196
91.1053 42.0997 119.198
56.8522 70.847 80.8635
48.2209 141.361 116.88
39.6777 97.6569 52.0004
62.734 154.888 70.4149
60.7771 110.833 111.049
50.7228 92.3001 205.21
77.0955 58.3038 71.7383
95.9737 83.5428 52.7348
72.8354 81.6377 193.494
75.4445 146.092 116.067
54.282 112.844 55.8213
91.7356 56.7487 98.2207
70.2178 70.3024 138.711
89.7743 156.424 55.232
88.3615 147.193 67.1134
82.9516 55.0964 99.2565
56.1841 73.0104 172.371
62.0638 97.7045 109.39
56.4743 127.56 34.1238
69.7759 73.6093 189.332
64.8179 109.595 32.7547
67.9279 73.52 220.287
98.3432 36.704 104.198
86.2177 99.1377 57.517
38.2258 89.6448 219.376
80.6508 37.8487 97.8492
58.1616 48.5567 180.808
60.9676 53.2982 203.21
49.5698 129.437 73.045
59.2875 91.6233 29.0957
31.2749 74.1038 68.757
63.9711 86.0875 69.5063
91.6133 73.6063 54.1849
44.5408 51.5675 207.773
86.3783 108.028 82.5136
86.073 114.099 35.8157
92.2408 96.9158 112.423
103.099 55.6804 124.395
35.1794 62.8722 228.128
88.3742 113.83 63.432
90.9563 49.9646 72.0548
74.9897 158.627 45.9207
70.256 151.235 97.6669
79.2222 131.749 33.3126
22.4105 81.1651 41.2131
83.9749 106.381 24.8288
64.3939 65.6085 166.205
52.8887 97.8961 198.956
60.9571 106.241 97.8621
89.5185 42.4422 74.9275
