ply
format ascii 1.0
comment Created by Open3D
element vertex 528
property double x
property double y
property double z
end_header
63.9689 164.846 87.1744
13.2305 77.0117 67.1733
60.9038 229.695 89.7358
14.9269 100.906 67.0995
56.7101 224.121 74.0183
20.1885 42.93 100.743
61.7913 235.134 80.8787
13.2012 79.3092 89.3043
91.9246 55.9104 94.7725
21.7571 197.405 78.8228
12.4921 61.3839 95.3014
73.5578 57.7161 46.6922
99.2194 75.4386 76.2636
14.7561 55.6694 85.3422
73.6086 170.306 71.7598
94.957 64.9631 102.903
14.9397 91.9469 65.8333
99.5317 80.525 93.1846
27.392 205.477 63.4021
33.4396 125.456 63.4961
13.4469 93.3266 97.3545
14.6012 105.914 93.3337
34.8219 212.648 64.6642
13.7305 88.733 74.2139
21.2407 188.253 81.4412
37.7324 130.463 72.7205
64.4491 184.217 93.5144
30.4139 177.437 93.9825
12.1225 82.5718 104.361
24.5302 194.283 60.4332
60.9199 220.856 84.5805
12.2785 72.1308 82.3156
64.8785 157.514 57.4881
67.1269 103.906 58.0029
14.5985 58.7453 65.3483
86.9452 74.4625 119.644
15.584 89.3497 56.9064
65.8968 170.951 43.3411
30.0274 209.72 77.4664
24.7953 204.317 74.1875
27.2265 173.978 85.5
36.3235 41.8919 121.659
28.5435 126.5 70.8635
74.0134 100.252 79.5223
52.4426 122.131 57.8623
64.8541 201.193 86.0464
58.3268 154.037 75.1842
65.7397 48.6555 37.5372
13.6605 82.5395 60.4058
79.7719 42.2413 108.43
48.196 184.242 98.7979
44.4522 153.787 61.0083
97.2565 85.3455 70.6031
37.3339 202.003 93.1548
18.7302 87.8556 46.1868
22.7002 183.656 61.0025
30.4498 191.572 99.0441
78.0481 98.2617 73.2123
68.4745 203.483 66.0776
63.5197 29.1011 70.5557
16.3333 49.3898 66.4618
69.6199 166.903 80.0972
23.2766 181.673 84.327
19.1918 102.305 119.127
12.1822 97.5339 75.9958
37.6066 192.355 98.7796
21.7173 183.913 72.2651
17.7121 86.9581 126.117
17.7612 110.115 63.2938
14.1513 85.9355 84.4887
71.44 99.1275 51.6199
35.0648 235.128 24.7208
70.3434 46.9747 55.7805
26.0565 116.178 56.9129
16.4805 105.529 110.741
28.5554 112.169 48.9314
43.759 191.216 102.06
100.033 67.4864 85.4765
34.4174 209.649 58.0132
34.472 190.131 43.1557
22.2184 197.651 67.7992
22.9206 173.464 69.3569
13.5577 59.2351 75.4732
13.9128 97.8838 120.308
14.0226 102.941 103.931
57.1704 118.972 68.1945
53.3405 42.9331 24.3641
13.6606 80.1932 116.885
23.9123 106.073 47.7017
69.0957 161.448 65.2754
76.5437 179.482 69.2146
58.0953 119.395 86.0222
40.0259 56.4356 29.7178
52.0399 195.858 38.3188
37.0255 77.8988 29.7015
13.7941 94.1987 110.144
97.0007 68.5691 71.6141
54.224 43.1025 35.6878
18.2028 44.6785 75.0736
32.7548 65.2208 33.3444
59.9535 47.3513 23.9764
24.7314 193.574 85.7149
75.0075 192.486 58.9329
39.2465 105.599 34.2251
36.6244 206.259 51.4296
59.9851 158.224 82.6932
16.9764 78.5947 49.3336
20.4357 107.007 55.4052
23.9005 34.9179 72.6429
93.4526 75.022 111.682
13.5803 66.5016 106.151
50.4882 49.2206 29.7014
74.426 196.026 65.1038
42.0285 65.1689 24.3983
70.4863 116.011 92.7168
81.4504 66.7723 123.496
97.9603 86.1758 82.7086
66.3878 199.398 45.6662
35.8142 176.44 99.6329
30.172 201.661 89.0236
90.7048 81.8128 116.269
62.503 226.603 69.4214
24.0394 175.013 77.5121
30.2871 84.001 34.325
61.3031 110.582 63.1968
65.9237 102.247 68.1297
21.7357 171.887 84.2608
16.4944 61.2496 57.7453
16.9422 92.5036 120.975
13.479 106.602 82.4338
31.7326 213.104 70.6254
28.6621 41.9049 118.245
74.4667 177.754 60.7316
13.9822 69.8557 63.6965
66.8948 228.286 63.1521
62.8868 120.502 108.725
51.1981 167.907 41.2084
23.6955 33.2623 92.7755
42.2691 214.261 73.3534
44.7258 203.777 43.7273
46.3899 59.9633 26.7619
24.2832 49.1669 122.109
71.2076 188.863 48.4812
31.2204 48.8073 124.752
79.445 69.6758 41.3291
83.98 100.929 86.8681
46.1987 45.7194 34.1456
21.2305 97.2675 43.3042
59.7544 38.7998 25.4633
21.5809 120.425 74.2126
50.8221 164.202 93.1336
33.1446 108.659 39.8175
33.1893 95.2037 34.9602
39.1888 35.072 117.148
22.8346 61.1854 41.5064
67.6622 102.757 45.5687
39.4573 195.116 40.6145
14.9602 52.5121 103.961
90.6426 99.9878 101.018
57.6015 170.057 95.381
43.4956 129.742 100.628
15.4946 70.3854 56.5132
29.9231 184.407 100.354
55.5221 50.0796 27.0463
64.5147 118.123 98.7213
94.6621 61.0433 87.3968
63.1401 107.762 44.1361
16.3669 100.18 52.6691
57.993 116.487 56.43
40.3838 171.281 97.3994
29.4523 37.5629 58.6025
72.8486 168.645 56.6404
21.3376 109.158 115.564
16.7452 46.4792 86.2267
27.0886 100.816 128.673
25.6295 177.929 55.3474
55.4676 177.216 36.3225
13.5513 64.7464 85.1227
58.1839 208.239 85.8472
26.2809 228.388 24.0647
18.2654 114.982 91.8896
16.0742 113.134 73.8971
41.364 182.188 103.489
28.5905 163.135 69.234
40.3877 95.0895 30.7064
45.7964 204.433 93.2897
53.5757 186.618 34.8931
88.3186 49.1066 91.9174
15.1167 51.494 94.132
68.5761 175.403 87.5001
72.2295 226.554 98.8669
23.4004 118.771 62.9969
21.9371 193.139 74.3811
26.4892 128.539 81.7261
59.059 30.1009 60.084
45.486 158.104 50.8589
75.092 187.308 55.0122
23.0546 35.2396 82.8523
98.5947 67.7521 95.0305
63.5661 190.256 41.1232
43.7746 24.4798 95.0956
53.318 20.1836 82.5578
56.7503 115.507 43.2103
59.9259 120.051 119.037
67.312 67.5745 26.2005
70.7676 174.749 48.7721
82.4564 83.395 36.3974
44.5014 125.67 109.132
84.702 72.4707 45.9065
38.0382 48.8155 37.1436
51.7093 34.848 38.469
46.1903 132.799 81.8592
18.0858 58.9621 117.025
30.1645 31.1047 70.4281
63.762 106.721 80.395
58.793 116.318 78.0834
63.3639 175.851 96.1466
93.7306 91.5259 106.278
97.6237 76.8944 102.392
59.057 66.1708 23.9787
20.8236 49.0729 57.334
28.6285 200.189 53.3772
52.3522 128.22 87.1289
28.0709 186.584 90.2933
43.0572 197.109 97.6986
27.334 45.0062 52.5547
50.1252 127.944 112.842
87.5511 59.5047 115.765
27.7132 36.3946 104.982
78.7255 45.4316 70.3469
100.023 218.849 83.4962
75.2822 55.7915 56.3449
32.6092 27.2745 81.3544
74.2124 180.065 79.6729
73.1167 48.4724 63.1596
41.6972 44.3967 35.4322
29.3147 30.7206 98.3302
75.895 40.6715 74.3725
37.1532 182.254 40.2759
61.9813 39.8057 42.7889
45.8846 25.4403 104.102
17.9425 69.0568 123.14
16.8817 234.22 20.0477
67.4533 159.61 73.9563
69.7863 198.425 57.6699
32.986 53.3251 33.0733
13.2358 69.1722 73.1153
83.0116 50.6983 74.7632
43.0923 151.807 68.6096
34.173 199.884 46.6346
28.091 108.633 121.659
22.9098 72.2888 40.0945
58.5643 201.25 44.11
48.5552 29.9506 110.721
89.1987 93.9509 75.6688
31.4785 163.171 82.3953
90.8139 56.4945 105.133
43.0153 211.819 55.335
53.0777 215.825 64.3912
63.2302 36.1425 120.268
100.223 79.3438 67.8852
33.7111 165.913 51.8847
40.4609 86.24 28.7746
29.3399 73.09 35.8269
45.6401 53.7723 30.1251
87.226 99.8678 109.53
82.9308 40.9462 88.1222
56.3026 200.455 91.5268
34.8136 59.1832 27.4492
22.4736 53.0072 50.3478
40.097 155.104 76.7343
36.6321 210.534 80.7547
45.9096 68.2443 27.4847
73.9388 181.203 51.7358
49.4249 172.207 98.2698
70.4068 86.7696 131.801
97.7124 235.468 80.8261
72.6257 116.319 105.976
52.6402 199.583 96.4878
67.9804 217.275 94.4383
60.9613 24.4338 92.0527
54.6384 210.985 55.4274
52.7144 24.8314 103.404
17.5051 58.6055 51.067
68.3826 26.4611 89.9871
69.9427 37.6127 68.3548
44.1547 186.2 37.8357
23.4521 44.077 59.5139
78.8637 75.3645 128.281
90.4292 226.949 59.4697
65.1541 44.526 22.6371
90.5388 93.118 114.609
78.5188 233.153 3.55677
103.003 229.765 75.0228
96.9033 83.2188 106.098
19.1095 46.2176 110.016
71.3349 190.822 82.9082
74.1284 108.48 91.6244
29.1073 170.462 55.0806
20.5316 43.5432 64.5686
50.1883 128.435 93.7186
19.6317 82.4561 102.729
57.2995 151.533 56.491
20.9399 116.124 101.855
77.0311 217.442 99.4053
39.865 126.887 60.7578
74.3737 192.778 72.8823
33.582 159.904 64.1583
60.239 210.784 66.4197
87.6836 220.949 98.3275
93.7673 61.2832 79.3852
78.0737 205.36 75.9969
36.1026 164.831 89.8379
62.3357 103.788 137.963
64.3673 236.353 89.575
48.0738 36.3843 119.149
30.9423 180.885 45.9475
45.5816 195.359 38.889
36.9415 171.764 43.7516
79.22 34.2295 93.3444
63.2967 178.199 40.8375
41.5276 95.1337 135.659
25.135 114.512 115.067
22.4111 91.2761 128.793
30.3438 102.216 35.7375
52.4797 126.987 76.7991
64 60.1844 29.5058
60.223 77.1259 20.9294
43.2688 178.38 99.0796
62.9499 112.54 50.6657
39.5867 28.2045 67.47
52.1335 155.442 54.3764
81.4994 229.392 100.364
44.0062 161.329 90.0207
26.7391 53.6194 43.3516
53.734 33.3264 49.0841
31.5396 192.178 92.3595
84.3531 101.079 102.475
39.966 46.7859 128.637
43.1242 175.973 38.9074
73.9616 97.2992 66.7296
65.5887 41.2725 29.1111
43.866 24.8213 74.365
52.0869 151.303 69.4541
32.0373 125.067 101.885
83.1622 41.3081 100.403
25.4093 69.7639 132.492
75.7792 66.0334 35.4437
69.8642 97.179 61.3435
41.5774 113.767 39.919
51.3065 216.039 71.6018
31.0125 75.0665 135.942
37.9769 125.303 106.789
51.7274 127.925 105.035
20.5685 231.141 33.6081
62.1132 209.122 76.7586
63.3774 114.009 90.7332
61.1415 212.457 57.5907
87.0399 49.6492 105.303
74.2963 188.349 67.1021
91.5255 94.9027 95.2359
57.2168 123.799 109.681
66.4562 37.3306 59.6182
45.2948 164.522 42.4093
69.6901 64.308 34.4961
65.7022 236.197 66.7165
34.173 194.692 104.601
65.6024 203.739 55.2182
61.3222 111.393 71.7761
49.3156 177.938 36.7354
36.2295 129.402 91.0408
64.384 162.426 48.3661
81.1748 53.0893 67.2763
38.9756 34.449 52.4803
58.0076 30.1952 113.575
39.3604 132.944 82.7697
57.7266 95.2703 25.9768
32.2275 44.7961 46.3966
35.7307 67.0861 25.241
44.5552 79.0614 24.8534
32.8669 94.1179 133.134
34.8312 30.8044 59.6766
50.2916 28.9308 57.6982
81.2959 105.353 93.1378
51.9188 206.913 47.3577
74.2328 29.7917 101.432
46.089 212.835 80.3477
39.2634 163.367 46.2142
20.4533 227.208 46.987
97.5055 230.499 65.9335
51.9879 192.174 99.7844
52.9862 93.1765 137.603
51.3356 113.43 39.9799
64.9332 36.4739 49.0019
57.1766 36.0028 119.644
96.2065 91.9404 87.5511
94.804 81.1499 56.7127
84.8654 96.546 80.2186
42.9103 129.213 65.7976
34.8981 26.7152 93.4217
53.6475 156.38 84.591
71.599 235.794 95.6266
43.0534 85.4582 139.667
29.8885 227.807 30.3926
42.9181 39.3176 41.7877
32.6334 116.756 116.847
30.4513 29.5929 91.5119
58.5821 108.08 35.9018
85.3296 71.6662 54.1836
89.6882 54.4217 80.0242
45.6795 155.699 83.5662
69.6695 78.5857 24.3204
51.3254 22.071 95.3978
29.1231 84.2298 134.935
46.6112 47.6762 129.714
18.559 69.5358 45.8057
13.0096 148.963 36.4437
87.3736 52.4643 8.74663
59.2848 24.6974 102.606
58.9411 162.638 44.7694
67.7656 79.2357 135.732
38.3405 154.499 66.834
68.1373 211.322 83.4392
69.3004 199.347 76.7456
70.9713 47.1536 46.6514
25.0408 59.0785 129.018
47.6757 104.602 134.377
35.2479 41.9769 41.6143
101.542 224.617 78.8357
54.0594 69.3755 22.8276
74.5835 101.578 126.137
70.0263 104.539 84.3705
53.6753 110.017 82.561
94.4394 233.582 90.1496
77.7806 93.9137 49.2713
82.4983 95.4099 66.7896
34.59 63.6451 134.753
84.8839 94.6199 121.415
36.0305 104.015 129.786
84.2015 46.8244 81.8801
54.272 23.7556 74.3988
43.9832 72.863 140.172
75.2183 209.849 65.9407
35.3655 117.845 48.0874
80.5969 226.125 58.5043
52.8065 41.4866 126.126
59.4054 96.8934 135.89
56.472 182.389 99.2566
39.9988 56.5911 133.522
67.4809 61.8645 131.686
29.3555 125.899 91.815
44.0629 20.987 85.8255
54.1273 78.3876 142.746
31.5736 34.6376 111.704
49.0103 214.962 57.7303
48.3545 111.88 128.121
79.2609 110.617 102.941
88.7521 66.7579 63.1795
69.3871 219.818 63.5208
26.8263 122.806 96.9416
58.0837 87.6693 21.7553
72.5266 222.798 57.7597
74.8771 103.514 87.5456
49.2473 62.6976 139.558
25.4614 89.4366 131.646
63.6295 219.777 72.1345
89.9953 57.0342 74.0669
51.3852 86.3141 141.184
67.0143 224.083 77.2782
57.363 120.985 95.7693
96.5139 219.847 92.8421
48.453 119.71 120.325
67.0946 191.899 89.1286
41.3162 130.49 88.6589
88.6304 234.704 60.1394
47.1135 33.2661 48.0078
11.8424 46.3752 95.4445
67.6893 52.2282 128.874
47.7493 104.098 30.9845
78.6459 84.9653 125.886
100.418 140.086 75.9571
15.6968 34.926 86.6406
64.5572 108.79 133.933
30.0386 235.137 39.5248
52.1172 81.2242 20.5622
90.3865 99.8952 91.6292
91.0653 91.0469 67.7931
72.8503 100.596 42.2141
50.5447 39.1563 41.217
69.8785 85.9281 26.3302
86.1668 213.629 93.6277
77.236 209.374 90.1881
83.7058 52.6579 115.122
81.2747 67.0961 55.5401
97.5528 221.292 65.5919
81.1815 91.4918 54.502
65.4934 31.2059 113.305
21.9492 233.345 15.3564
87.9603 66.7024 116.531
32.1818 52.9615 132.066
46.3494 113.195 37.7726
23.1738 39.6428 108.076
49.9998 209.703 87.0643
80.1343 59.7072 123.682
78.3704 113.656 110.916
29.4341 156.764 58.6227
101.022 228.188 68.2204
49.9722 129.737 68.9398
85.2109 60.7666 65.5574
23.2867 45.1474 111.73
30.2555 122.471 58.0371
46.3276 93.4207 26.6088
60.1445 114.394 127.733
52.7821 55.8774 134.544
79.7669 236.394 97.6817
98.1136 219.908 72.1938
60.4568 69.0967 139.255
53.8924 58.7108 24.8348
63.9304 100.802 32.6837
82.5909 50.1594 1.43665
87.5007 236.069 94.8217
72.2661 32.0074 78.2347
53.4535 126.527 68.0516
78.1945 44.5858 115.105
83.8357 95.2632 74.4553
83.4418 207.877 67.4473
32.2073 120.488 53.158
86.2243 91.4865 58.8066
