ply
format ascii 1.0
comment Created by Open3D
element vertex 591
property double x
property double y
property double z
end_header
37.7976 117.747 51.2134
43.2556 44.0916 62.983
52.1375 106.098 40.8973
40.9426 124.881 56.137
13.2231 66.6324 145.382
39.0696 71.8188 42.7176
56.5424 128.87 48.0542
43.2239 108.857 100.86
58.5236 88.9093 42.0568
55.3677 57.7704 42.7798
67.9248 43.1489 74.475
39.2166 43.392 75.0988
62.5553 71.1672 42.8504
50.8714 130.283 69.7654
34.3004 80.8112 63.7514
48.0557 128.828 50.0188
14.7824 60.306 140.498
44.3238 123.807 81.443
26.438 39.3337 134.149
53.9011 63.2491 94.3578
72.9261 123.698 81.0198
39.982 122.363 61.6991
32.009 44.3377 153.984
20.8768 41.9937 142.328
49.9348 37.3979 140.438
63.8449 59.897 45.7615
69.8011 64.5592 51.0273
22.7579 57.8585 152.937
45.809 59.6191 42.9787
43.521 118.355 67.3141
28.5625 78.1951 150.139
37.6017 61.3746 158.842
55.5045 120.834 44.7585
15.9577 72.5902 143.412
35.0761 70.6382 154.467
53.6339 67.101 39.4194
51.9076 130.507 84.8788
18.9594 71.9741 138.175
71.0994 130.888 75.6796
44.3075 55.1963 77.8231
42.8321 60.0625 83.2048
69.2444 130.642 67.2091
37.3468 67.3291 57.0123
41.4162 49.6852 56.4542
69.1024 97.3044 91.0245
46.5244 109.579 40.3688
52.1096 112.54 40.6051
48.8944 77.0336 59.1788
19.2046 49.99 140.545
53.2906 113.165 96.3132
46.0712 128.728 57.1356
32.185 38.8674 138.337
34.0788 73.1027 51.6681
65.4497 122.783 51.2244
47.9401 113.855 99.3053
70.167 115.504 62.5111
51.2473 53.7946 47.2272
23.1218 46.0647 134.091
48.0852 131.142 63.822
34.4773 100.808 46.1615
57.4233 47.6036 52.1582
45.9668 105.498 56.9757
34.6754 102.836 67.2356
34.2765 77.4201 141.972
65.1043 127.67 88.4475
47.8864 117.808 86.6691
42.9809 65.5274 42.6325
64.6918 135.823 63.8041
45.627 123.569 45.8582
33.2072 72.4528 60.8775
62.7201 40.0161 85.0216
36.4592 109.892 63.0524
53.7725 75.2812 104.212
38.7343 100.214 89.3453
43.3894 116.639 41.5957
70.6706 93.0275 105.594
66.7659 87.5616 47.7325
81.4933 85.0257 84.25
36.0598 112.021 45.987
84.9325 69.6234 98.0026
32.8594 79.304 55.4054
38.9462 105.604 82.3003
38.3596 52.1393 155.22
33.1979 102.156 52.4591
38.3005 83.4438 144.965
64.2041 130.63 57.2925
32.4309 74.9945 113.873
22.446 49.0866 126.671
25.0741 60.6755 113.721
58.397 81.8527 137.948
42.9728 84.2107 113.18
37.1913 85.8783 74.3521
28.2236 50.3195 127.518
60.6905 53.0329 49.2955
44.3253 41.1731 68.0748
48.1194 38.7223 85.528
59.4928 47.4029 59.0132
60.8951 120.192 46.4995
82.6606 67.6715 85.0083
54.8537 80.5741 76.8641
61.3443 36.0773 69.4083
35.3265 77.7262 148.14
22.4638 76.8158 144.661
42.9081 103.345 40.1236
47.1541 96.1997 39.9076
41.8545 50.7254 71.3788
54.5169 134.554 72.7588
45.208 84.7667 39.3939
60.8101 56.0722 94.1065
47.3447 109.415 82.7891
59.451 53.1958 77.595
69.5079 113.386 69.1928
42.6169 72.8391 92.1809
40.9822 81.637 140.64
53.5897 134.883 54.1604
46.9262 92.4618 100.282
38.802 111.342 57.5912
17.9971 65.5731 134.297
39.708 61.1519 49.6309
73.0913 57.0822 89.8136
43.2372 104.658 78.5422
23.8318 75.5182 136.762
33.4753 85.9651 52.1756
71.792 64.6072 60.1786
39.1126 77.085 98.6392
42.6696 57.7291 68.9531
38.5157 79.2337 42.6691
42.9062 105.083 89.049
50.726 45.207 107.078
47.8929 90.0571 105.281
42.6485 41.7601 85.926
52.6003 65.5516 61.5499
68.6183 101.424 108.311
21.9478 73.1718 122.601
69.672 58.2956 54.1565
46.0324 78.7912 145.069
43.2505 72.3335 80.3098
50.3938 125.335 91.8155
45.7648 90.643 42.6343
32.9305 57.1473 114.61
47.9777 35.5856 113.808
34.2985 81.4562 48.8071
28.9506 49.097 133.941
62.3914 60.6901 113.999
53.3585 89.3344 105.587
35.3336 42.6562 107.804
42.0409 68.9071 155.3
61.2069 54.3051 110.804
35.0285 84.3075 105.592
44.9539 54.8648 107.199
30.1286 50.999 111.142
38.6275 54.0098 54.6678
37.2606 52.3406 96.3465
74.829 101.157 75.0151
69.3296 43.8267 114.899
19.9191 70.8478 130.895
61.1804 93.1625 123.301
41.178 51.4361 84.3736
56.4062 123.079 78.2146
24.5568 52.733 121.859
67.0384 109.005 90.6215
59.2663 128.606 89.776
40.1845 80.939 112.981
21.7534 60.4247 137.929
35.1654 106.442 57.1624
56.3285 57.0267 89.7568
20.1852 65.4963 128.255
77.0566 79.8116 70.0606
37.2446 90.9647 86.9893
44.0869 69.1254 51.2413
56.4349 95.161 43.7551
51.2518 59.2121 102.443
52.2261 92.5929 42.5375
70.7454 80.4994 69.4994
43.2062 113.677 70.2826
53.9163 92.7057 120.917
39.9107 85.6354 43.4892
65.8431 52.5406 56.4444
31.1232 42.6431 147.444
38.1496 68.8348 50.7114
46.9161 70.4983 40.5119
72.4195 108.701 71.5035
45.4069 113.474 89.0096
40.891 106.287 93.9143
43.8807 55.5281 47.1062
76.3946 91.2143 83.1986
19.577 52.2731 129.495
58.6408 66.995 41.749
67.8206 59.4126 120.527
54.1258 84.862 138.677
41.0705 35.6232 116.998
55.0313 59.7468 84.7343
59.7531 43.5555 138.598
39.682 78.7217 121.19
71.1429 84.6698 74.9359
66.9951 124.357 58.3496
35.1514 60.8644 52.593
58.1991 126.01 84.8112
40.5531 58.6497 106.21
70.4292 47.7799 92.5377
35.0319 93.5744 78.8314
38.2397 61.9511 116.432
43.2948 62.2887 159.392
49.4035 35.7099 106.646
50.3121 73.3483 69.4644
28.6524 55.0076 105.331
39.1761 74.0707 150.129
44.6042 127.044 73.2632
67.5567 99.4101 82.2178
33.4717 63.0523 102.389
45.1863 53.6072 156.621
45.1153 83.3661 135.582
65.9744 137.129 72.6834
23.8139 62.1664 126.779
59.5253 71.5693 53.4819
38.373 60.5458 100.376
29.0319 80.6835 134.672
44.868 89.8908 115.523
23.73 55.7098 126.047
49.6074 115.327 79.2326
77.7067 53.5541 80.1555
47.3691 125.53 67.4909
26.6311 50.0412 150.471
53.8211 48.8866 93.5124
45.0133 111.072 76.5172
35.9861 71.2076 106.323
43.8803 37.1031 141.299
53.1489 130.307 78.5592
52.8426 54.0664 86.8219
57.7179 37.5684 86.0441
38.472 73.6073 110.577
31.9088 58.9543 104.413
36.112 48.2407 113.599
32.8768 63.5687 124.533
52.811 99.929 42.8731
44.4917 109.892 60.0422
43.2054 66.2977 78.8086
75.2169 60.0241 108.746
50.7626 80.7003 125.017
61.6707 47.1253 143.666
28.4963 68.9041 110.569
52.6848 78.0961 129.429
24.8562 66.4074 122.734
48.8213 107.516 108.617
69.0964 72.0287 90.4773
30.632 83.6359 138.856
27.2596 49.1325 156.162
28.5727 79.3601 125.141
33.0717 97.4926 62.1756
62.1259 80.607 44.6239
39.8861 83.5462 133.823
27.1097 58.0682 121.307
48.7719 48.2137 50.665
72.6037 77.6178 90.9244
57.0852 84.7783 85.4283
50.4261 42.4518 55.7166
38.1063 93.602 45.9228
34.1223 44.9946 120.235
58.2779 70.0602 133.135
37.0028 50.8274 76.6065
53.0279 58.9131 154.09
61.9487 135.103 79.6095
39.9767 72.7734 117.713
67.2581 43.659 109.523
38.0569 86.2391 58.5623
61.4234 54.4694 140.729
58.9747 42.4824 102.468
39.5574 44.1793 114.277
25.1913 51.6719 116.936
67.3048 101.928 68.818
33.4313 57.5613 152.967
56.3013 53.9781 94.478
48.0883 65.9739 71.5534
39.6426 111.912 67.3631
41.6532 98.3159 76.2799
52.9285 35.7083 80.3318
58.5819 62.5855 54.619
51.5962 62.1259 131.341
40.9061 51.7043 64.8854
60.6362 37.2197 113.171
41.5608 87.2717 120.08
57.6508 67.5391 150.342
69.6879 65.1463 129.837
20.9891 49.0347 147.068
63.6732 56.5353 82.4256
77.4432 76.2558 94.2182
40.9329 79.7817 94.186
36.2701 66.6554 96.4614
24.3274 65.4797 112.628
69.697 54.8875 60.4947
42.0336 80.5718 129.294
62.2728 64.8076 129.622
63.5765 48.2073 137.643
67.275 78.9545 51.8323
39.6431 91.1657 93.8288
31.2812 45.1153 123.81
59.1557 72.9607 124.698
81.3783 61.8856 80.461
66.5168 45.8955 131.893
40.4496 49.7287 119.211
36.5837 59.4099 93.4413
43.1889 94.4703 72.1787
51.5729 116.385 91.5122
61.8143 40.9453 117.878
37.9785 98.8569 82.2995
17.7347 52.3801 135.527
63.9892 107.744 104.967
60.8642 38.6713 78.3186
65.7 71.1613 133.144
51.3821 68.2558 141.086
74.8859 54.8542 112.629
65.4635 93.0022 55.3187
27.0386 73.2495 118.995
52.8499 83.6895 40.2399
68.8362 108.558 64.1949
36.1369 56.1645 89.1176
47.6715 77.4618 39.9046
30.0711 48.6473 117.228
53.3904 77.5608 41.7905
54.5181 47.4098 78.6464
41.9743 69.7813 74.4839
50.2446 63.0273 143.847
54.2339 107.394 106.553
46.3064 58.3189 103.92
44.6142 84.2131 100.638
48.9333 101.401 51.7306
35.3608 47.9583 106.699
56.2187 74.9979 80.3764
40.4501 48.1361 88.7562
50.5414 44.9512 95.7558
42.4065 45.8388 107.988
45.6026 35.5353 123.061
37.7869 74.2115 81.616
46.532 54.1815 63.9433
50.4188 73.2871 47.8141
52.3164 105.562 50.3785
48.0244 55.2383 149.013
36.2558 64.3956 86.1534
54.8536 34.0169 105.107
56.2898 135.369 77.4625
71.6881 92.4966 89.9598
53.2944 39.4709 123.059
61.7084 93.6522 45.5708
36.6089 35.373 136.375
71.8491 49.0821 78.0074
60.467 90.5866 107.931
39.1401 55.487 111.866
44.6505 41.0383 104.974
35.3358 84.585 131.164
62.5317 70.2176 88.279
57.2213 65.1872 90.1752
42.028 88.965 46.8221
64.852 113.521 50.8737
74.4059 105.412 84.8015
72.3233 80.8162 99.0158
37.51 83.746 81.2577
31.3852 38.4814 124.653
55.1852 49.8223 149.198
42.8104 98.0721 42.6223
54.2113 48.2546 103.747
58.5321 108.313 101.787
34.1964 83.474 122.879
54.4556 73.5841 60.1608
58.9377 56.59 52.8227
59.4316 57.3945 75.6138
59.7177 89.9873 112.133
60.2616 84.6633 130.842
60.3424 82.7074 120.331
54.4896 35.3512 136.587
66.1114 75.3698 128.161
37.2999 66.744 70.0709
58.1887 56.2142 104.634
53.3169 94.4336 67.0317
51.2276 52.5817 66.2407
65.6874 61.7607 75.0416
40.56 31.9341 133.12
62.9576 106.252 112.54
45.7714 70.3099 88.9165
28.8935 78.7127 142.407
59.8952 69.8388 93.95
63.3778 64.231 124.255
60.3216 53.4412 121.417
39.5102 52.5109 105.608
33.2519 42.1242 142.304
70.1911 104.409 95.8303
35.9959 89.5624 51.3286
59.5134 35.7915 127.497
48.8965 120.547 72.0039
56.4517 138.321 66.0914
60.7056 114.313 47.6282
36.7136 105.922 70.936
64.7405 65.2138 119.009
37.4395 42.4653 99.2937
58.2659 113.144 94.083
48.5203 93.4419 120.449
52.0674 42.7133 149.221
47.5957 74.7019 148.474
48.9717 88.357 123.48
63.5308 107.711 49.5916
61.0473 99.7471 54.9078
51.6255 88.9891 41.3583
37.9384 81.1214 70.9896
52.661 39.2892 64.9586
65.2128 85.8394 104.285
31.1683 61.2231 117.871
41.476 75.9179 144.401
34.2763 42.6036 133.139
58.9167 37.0276 119.679
69.5077 61.493 67.5735
35.04 91.3996 62.5172
72.3252 112.311 83.0651
77.2695 80.0145 99.702
44.5446 40.8552 80.7393
26.2382 47.5784 121.08
46.0881 47.1393 92.6544
46.4272 81.6767 128.071
46.6989 86.5265 96.8719
70.4207 92.6568 81.2713
45.9472 89.9095 110.238
61.3988 72.9448 64.5667
39.6609 98.8813 94.9777
68.2301 108.918 57.381
44.9775 81.1805 123.066
41.0594 65.9753 105.255
55.4666 66.8329 85.6448
45.1347 43.4587 101.398
75.6153 99.8197 90.5019
54.4073 75.9473 64.8419
52.8073 69.0756 136.185
32.7601 73.1514 67.2554
50.7642 37.5454 98.1424
64.5354 69.5701 120.56
38.9849 41.6905 118.657
52.3016 48.944 153.658
37.1376 39.6742 130.355
56.4066 66.2587 140.739
39.8818 70.1798 99.2963
65.074 79.1024 118.256
45.7599 44.2675 148.021
55.8827 76.169 141.26
71.3223 77.9287 62.8291
49.5233 83.6606 132.876
62.7787 58.3123 103.956
50.4448 91.017 114.744
49.5829 65.2517 149.971
51.8754 59.8585 63.6061
51.685 56.8293 53.9425
33.3305 77.5234 128.643
50.0514 32.6618 133.502
19.1909 58.0993 128.062
52.4459 71.8282 130.515
66.5593 112.542 55.0355
71.0629 87.0304 59.3993
60.6452 99.2884 47.573
38.2485 40.5287 125.722
47.0449 74.0904 139.516
74.4115 80.2857 104.777
68.627 93.7986 73.3671
59.5801 45.5821 64.5477
32.7553 64.2925 59.8276
71.8774 86.2985 97.6373
59.2321 81.1687 124.515
44.8886 59.4153 152.247
31.6057 76.7165 120.875
69.1456 104.889 88.9236
70.1765 54.8121 95.5573
69.2706 49.9173 108.186
63.0238 43.7915 107.064
60.8589 42.0277 123.387
54.5021 85.4237 123.495
60.202 37.5654 137.731
34.8867 64.9177 108.627
63.1322 96.1078 67.4699
72.3917 62.4887 89.8251
62.7856 54.4655 116.78
64.321 42.5995 136.157
56.6298 62.7764 143.646
48.5827 60.763 72.8541
56.4363 55.3925 99.999
53.1808 67.9032 54.508
36.8701 93.666 74.2356
69.8151 103.695 61.6725
38.3837 38.8687 142.043
56.5361 90.4985 69.7102
50.6018 42.5975 90.545
47.0611 69.171 148.03
57.5044 55.8091 133.984
54.0295 111.658 48.1204
79.6628 91.2201 90.7411
58.2035 107.705 47.4036
57.3535 43.073 107.308
58.3937 66.8641 99.422
52.0631 80.727 90.3286
39.728 81.3309 125.349
42.7671 82.8942 89.2308
33.1584 55.82 120.596
54.4161 74.6785 51.6276
71.156 63.788 97.5008
44.4366 116.152 76.0151
40.1665 34.751 128.717
70.1968 113.703 75.6797
48.8472 64.9525 155.115
54.9166 54.8761 73.2225
82.2419 79.0256 90.4554
55.3726 86.1967 128.444
54.9723 73.7956 147.455
28.6833 83.5806 130.76
54.1988 40.2843 113.6
73.0695 63.5256 104.449
25.369 75.159 129.874
28.5261 66.2422 107.718
55.1371 38.9024 142.419
67.3969 97.6512 76.583
66.5878 87.2166 115.431
66.419 49.3027 103.689
81.0511 64.276 114.201
80.4159 85.1333 95.4436
69.7739 102.881 101.985
49.4757 37.2314 118.79
42.8753 38.3593 126.627
53.3261 58.3468 144.264
41.5058 40.6993 149.414
45.0743 41.8894 115.077
38.6703 46.7434 152.358
29.3589 55.4635 117.048
39.5514 60.6625 152.912
64.5569 57.3669 67.7925
41.9985 82.1845 105.03
26.8479 73.0515 126.68
50.5325 72.325 76.3818
65.6549 122.463 94.8816
32.8268 69.5866 118.218
72.3731 87.9373 116.068
60.179 45.3906 114.628
42.1521 78.1193 137.505
71.5224 70.3989 62.2865
42.9274 42.324 110.429
52.5552 77.4703 83.471
64.524 105.717 96.4155
74.844 62.5771 121.401
47.5861 46.1919 152.54
9.81233 136.061 75.3161
39.6804 60.5634 76.4379
56.912 79.051 90.9932
58.3342 49.7236 71.6051
34.9069 48.1809 146.7
35.4873 77.9974 136.155
53.9272 34.4583 128.865
81.6086 76.0617 97.5191
70.4079 106.657 80.0989
51.0983 115.918 44.4431
66.9726 82.2198 124.21
44.5055 102.179 74.0506
84.0453 68.0227 109.955
67.3435 123.911 67.7366
53.1636 43.216 73.2147
38.259 44.0037 123.472
57.5387 45.0129 145.502
52.8814 42.3329 130.414
56.1254 101.777 50.0324
66.2192 99.482 51.2918
42.8857 75.1571 105.518
44.5505 32.3425 137.452
69.6127 115.866 90.783
70.0118 73.504 118.068
61.1199 58.3975 124.568
74.7152 74.4463 106.995
43.72 71.0477 151.559
72.4378 90.7019 63.916
43.0701 46.6429 150.926
65.4052 112.338 85.4934
68.5462 48.4908 118.545
44.285 40.1072 144.949
49.1321 81.0065 139.863
81.875 73.8376 107.426
69.844 76.1179 108.458
57.2836 72.5702 64.0526
70.483 49.3259 87.1708
68.9645 65.0765 79.485
56.6033 60.4978 137.698
30.1145 42.0998 131.275
58.4956 34.0344 132.554
57.4949 51.7644 82.2391
65.3378 118.919 70.6184
78.2311 70.2101 117.888
75.5168 77.2221 77.7896
73.254 76.1167 113.376
67.9352 91.7667 60.6078
59.1939 121.607 82.8509
68.2615 70.9721 58.2992
64.6632 52.2777 136.203
