ply
format ascii 1.0
comment Created by Open3D
element vertex 528
property double x
property double y
property double z
end_header
36.8621 70.6765 74.0803
31.5115 56.1747 102.388
28.8159 62.4937 94.6183
30.9695 72.8835 130.089
99.9317 24.425 75.2122
37.849 63.7015 131.181
88.9095 77.0714 44.6359
31.9957 64.3491 78.1927
39.1743 54.5117 114.713
46.3084 68.1315 87.9307
50.9995 69.0194 72.3357
27.8427 111.617 107.981
41.0738 75.4132 133.148
43.9962 57.0309 106.033
34.5176 85.3418 137.203
27.2465 78.9036 80.2402
35.0917 74.8441 134.51
92.2031 68.6467 43.858
28.7941 86.5353 72.2061
30.8222 102.5 76.5519
85.6719 63.3637 44.8053
68.1125 90.4324 60.8939
93.3921 40.2396 52.8021
84.4239 76.8683 55.8823
27.132 81.6509 86.1578
46.8313 64.5383 77.9948
31.0695 115.604 93.5349
111.778 25.2494 95.1742
113.85 21.3041 75.3043
27.6655 107.538 99.0315
42.9336 109.5 82.8517
65.8679 114.663 93.6752
36.9593 104.475 100.945
77.4913 67.4312 57.4772
30.424 59.1582 113.127
36.3417 93.6298 72.2925
57.9494 83.177 62.5789
118.843 23.3779 70.2958
71.8853 85.1193 67.0922
75.3848 74.0865 45.7302
72.5011 94.3188 68.2279
69.97 83.2805 75.5516
78.8311 80.8614 56.8977
77.3316 87.7877 61.8331
119.509 28.0533 62.7237
66.8482 73.9961 55.4221
34.6682 51.9331 109.862
71.0139 66.1016 55.833
27.4103 90.2644 130.182
86.8935 43.6568 56.2129
27.3252 100.607 92.6417
104.994 25.344 65.1064
54.8592 105.959 80.3994
43.6987 116.34 115.97
99.0487 29.1046 88.4708
61.207 108.713 99.2221
56.1196 56.723 110.143
34.9002 57.2211 117.236
29.5638 105.657 123.711
55.2878 87.0914 67.4093
30.0749 97.4777 131.974
55.3587 114.185 97.817
32.8629 59.7707 124.413
102.862 30.1678 98.6098
33.4802 65.9944 131.931
30.7207 71.608 74.5418
94.126 32.8014 84.0727
78.6722 60.7477 69.363
32.889 100.683 87.759
78.9306 67.2716 67.0936
105.696 38.2091 54.0291
36.9462 71.3578 125.934
36.2654 97.2573 132.269
106.509 30.7825 56.6155
44.6222 95.2973 78.7692
32.2687 108.514 81.5301
31.3734 97.0918 73.238
31.9646 112.642 99.9897
92.3338 35.814 62.003
38.1831 108.299 118.006
78.4516 66.3403 47.7285
37.5868 87.8186 82.1429
100.669 31.5212 105.108
33.4574 64.1144 86.8783
52.0271 95.969 74.1496
52.989 80.9224 80.1302
46.3334 102.008 84.068
60.6439 87.4387 68.7867
28.6847 94.3706 96.1844
79.3441 89.5122 51.1157
86.0308 90.2406 50.5585
87.6928 56.0274 51.5823
44.4846 69.1152 129.957
37.3966 63.6804 120.538
88.0022 107.728 95.0898
47.2193 111.392 101.814
82.003 48.5823 102.945
64.5225 83.1338 67.8124
41.0977 58.8401 119.442
40.2217 109.506 106.765
103.297 31.225 70.7599
55.3589 68.9138 78.301
102.404 36.9466 110.453
34.8549 104.992 125.647
94.3069 61.2419 116.163
100.394 39.0849 57.0414
95.2622 35.3037 101.838
33.8872 92.3538 131.664
46.4727 62.3921 100.373
46.2737 64.1038 107.409
51.3505 103.564 75.3042
45.0212 62.558 121.844
35.9209 106.133 94.7954
29.5631 98.2788 120.121
39.087 99.5948 126.522
69.9003 100.658 70.2806
67.7415 73.8734 78.4945
60.6163 60.8358 108.33
84.1318 64.3584 109.483
34.9795 91.9351 122.997
103.367 44.945 48.919
70.1201 103.936 98.7085
56.7694 68.1197 117.389
41.7491 109.158 112.04
52.8649 105.615 112.837
63.7801 104.335 76.2762
63.2928 73.3378 68.0119
45.4558 73.3002 80.7352
48.7855 69.9887 126.982
47.4118 109.752 91.6257
100.228 32.6631 81.4527
73.9173 89.0628 64.376
51.6621 61.6258 108.782
76.6641 80.0619 49.0989
34.1603 110.427 119.886
67.338 113.966 84.7947
30.2745 99.3186 102.146
28.3264 101.569 85.5753
111.998 28.4263 102.668
91.1494 42.6329 115.435
33.0198 109.415 109.948
58.4822 111.146 93.0026
94.066 30.2821 77.7706
68.1448 56.1011 92.8359
96.6357 45.6985 48.5549
73.8796 76.7713 53.8077
60.5691 96.1176 77.3592
70.1186 110.201 82.1284
36.9137 94.6871 84.2076
61.6354 107.085 104.908
29.9953 85.3609 135.24
104.882 23.757 94.1253
45.8071 105.353 115.145
49.9259 110.279 84.4701
107.862 19.6913 85.9736
52.8951 74.8264 76.0168
54.7727 78.3602 115.357
56.316 95.913 101.126
60.3649 69.0893 109.135
95.4627 60.1286 57.102
44.2169 88.3392 84.6269
83.8776 87.0222 98.6406
26.0627 106.728 81.5562
40.9153 105.065 116.858
81.9888 95.0189 54.8512
73.3961 95.8529 52.1939
59.3854 99.5088 96.2823
50.4434 89.8371 63.7975
40.2192 74.6488 86.2684
65.8282 94.9728 98.866
39.9657 82.0169 123.302
37.2841 112.598 91.8655
62.7689 105.992 84.11
72.7847 54.2517 62.0863
48.5477 58.0567 86.9205
63.0171 97.0055 65.384
29.5676 93.3831 80.695
65.0337 88.6413 70.786
91.0434 50.5442 52.792
59.7197 56.1665 91.1118
71.2389 77.3851 70.3605
55.5286 56.2377 95.9194
48.6739 108.998 97.5279
39.4987 77.9217 77.6359
38.2447 82.5075 85.713
43.1501 84.0101 132.784
51.5716 72.2719 109.437
85.6077 46.4565 66.7779
88.6426 84.5769 84.2937
108.837 22.16 69.1558
46.4819 75.2995 75.5249
47.7911 67.1936 113.232
69.6653 105.807 73.4628
124.5 31.2792 69.1683
46.4979 108.753 110.63
41.9158 76.925 125.95
81.1597 53.7019 86.0117
87.3924 99.4332 62.8981
71.1476 58.1452 98.6321
38.5419 67.8561 90.2477
49.0481 86.6414 79.7914
80.1074 55.3124 51.643
43.145 99.9646 117.896
33.4032 64.1321 99.4094
75.7222 64.1461 103.413
49.1696 84.0013 72.5709
48.3985 94.5916 83.186
107.267 52.9107 45.5432
56.0626 86.0835 119.963
32.6505 101.712 115.126
81.8881 60.8734 76.8932
78.0192 81.5968 83.7725
43.046 106.783 97.997
76.1551 64.7121 79.6252
48.3294 101.392 96.4063
80.5148 52.29 109.244
81.515 75.1067 97.2741
57.8932 75.0732 69.5863
37.3493 83.366 131.42
76.6392 77.3613 100.165
44.3229 85.4061 75.0419
59.8929 75.2524 114.632
60.5967 106.017 91.0696
89.0868 78.5091 89.4095
84.3477 59.2423 113.227
105.185 59.918 45.3464
36.5053 80.0384 136.041
44.5383 106.575 105.444
87.5109 73.5994 94.436
73.1325 63.3402 84.9636
70.7806 58.5173 104.609
124.24 27.6995 74.4876
49.2891 76.7311 128.976
81.1991 81.1935 97.9759
54.5282 108.427 88.2374
110.799 44.2222 47.7058
88.1099 53.28 72.5384
83.3835 50.8911 91.9191
70.3125 79.6557 53.3315
36.2893 98.567 117.102
72.0995 68.5545 65.8106
75.8009 89.3394 96.7657
50.2046 98.304 125.546
37.302 70.3608 83.2229
88.152 105.619 65.0879
38.492 99.2703 77.31
63.5289 101.898 90.9779
50.4178 70.4602 118.369
49.989 99.7248 87.7528
54.4475 109.947 106.714
77.7484 107.836 88.7329
29.7672 68.6759 92.2171
112.462 29.2463 62.3518
81.6283 58.7338 48.4709
71.3918 84.1564 117.419
81.479 46.1635 87.4388
82.4535 47.8387 61.237
91.5654 90.237 52.1242
65.1124 99.8015 84.2501
82.6493 75.0668 89.7549
99.9928 85.1186 86.593
78.6797 109.636 72.9052
57.6605 104.72 86.6036
38.3791 62.3405 100.833
45.0628 82.6716 82.7112
55.9465 90.0855 80.2236
76.0526 70.629 115.492
76.3029 96.0821 92.5299
111.593 39.5185 52.5083
77.6363 57.3288 88.637
58.9114 99.2346 83.7244
37.9547 58.2763 105.897
56.5495 80.0908 71.1836
80.1408 99.029 59.1591
88.2262 48.1085 92.2272
38.4458 103.299 109.366
74.3296 59.613 55.6489
107.469 19.3879 76.2367
40.6528 71.6766 116.419
117.838 31.1883 97.9297
102.736 50.9824 44.5423
48.9175 81.0927 120.887
42.7776 99.3458 80.5516
44.2287 61.3956 113.802
81.3039 106.682 78.4443
33.0992 102.917 107.974
95.5909 40.116 106.427
84.6743 47.4018 111.81
58.2274 82.0087 116.926
44.4544 93.5157 124.8
115.952 25.9109 83.677
50.1725 87.6917 125.832
54.5102 61.2297 101.482
34.4159 67.9896 94.4984
64.7101 62.8664 83.4721
88.1048 89.4803 81.7554
119.831 39.2137 54.8165
43.7239 87.9468 125.645
47.1606 102.916 108.309
34.0809 85.8961 124.184
48.9658 101.361 116.117
71.8391 76.4789 105.78
42.8288 65.2661 86.8844
65.8377 90.2731 103.126
41.9171 65.7636 124.329
52.0934 64.1715 83.9652
77.8653 92.607 104.522
53.5182 95.4947 85.4289
68.5764 65.3801 93.128
35.4847 101.787 84.1355
78.5358 74.0501 57.437
48.279 60.9181 93.8116
49.1247 72.2645 85.2777
95.0464 71.9586 48.4621
60.7266 58.4772 98.2221
86.789 71.284 63.5229
88.0363 55.9523 112.275
95.9163 54.0694 47.6482
72.2788 73.9578 60.9997
81.9026 46.7709 69.7044
87.4912 40.3358 104.428
37.3054 100.064 90.9551
111.982 23.8424 88.7241
85.1168 82.7071 54.4908
125.271 34.655 63.7485
77.119 63.3673 98.2877
40.2043 63.4491 111.738
54.6214 85.3715 112.347
102.918 38.0901 76.8283
42.6865 65.1831 93.9231
70.5322 81.6481 102.287
85.9096 62.2705 82.6882
36.0537 64.6861 109.053
75.2537 78.0117 115.209
77.1744 95.3378 67.5967
31.2861 72.4771 87.5705
53.0708 104.343 101.996
39.1142 97.032 115.291
73.0742 87.0633 105.371
99.654 63.197 104.523
78.654 95.4856 98.6392
74.7054 106.314 70.738
62.0858 80.7737 108.565
76.7128 75.821 78.5349
77.7973 84.1905 102.475
124.815 41.4324 59.7232
80.1084 67.563 74.4639
84.4408 82.0281 87.3635
68.0132 97.1646 64.8278
73.3185 109.681 77.7299
70.0173 58.6162 85.4436
41.0186 66.7482 106.535
44.046 78.1686 113.954
88.8326 45.8825 87.2774
108.287 66.6007 100.148
85.8361 49.298 55.5914
91.2744 87.6389 58.985
59.6838 91.0781 74.9262
65.7029 57.3936 87.4814
89.719 73.9086 53.9472
101.673 73.2068 97.54
49.6669 82.6313 127.564
60.4287 93.4144 105.399
64.5495 61.5899 101.519
42.4126 101.251 89.5694
31.8659 102.478 93.3354
49.2932 74.6287 123.001
79.4309 49.5765 55.3744
75.2771 70.8244 90.0483
62.0932 62.1083 92.9513
67.8322 75.5022 110.014
76.7863 85.7356 90.4183
57.0723 66.4029 83.3203
47.1384 78.8257 70.6692
59.969 72.3402 76.0125
88.6603 52.97 83.2097
112.67 34.6448 54.7851
39.4629 92.8799 125.917
73.548 67.5268 75.6172
61.524 91.086 116.105
74.3381 63.8672 93.312
40.4299 60.7489 94.736
77.8711 80.9359 89.4476
50.0735 97.7692 112.654
94.6467 97.3972 74.2104
90.3459 63.0116 106.354
87.9586 75.931 108.921
57.71 62.0404 87.5327
83.4562 71.6112 41.401
49.6848 97.4027 119.409
62.3383 73.3791 108.248
84.5471 63.4404 92.0342
82.8918 84.44 44.7119
42.2927 111.601 101.248
71.3109 81.3914 110.042
76.6446 71.2745 101.273
39.792 91.807 77.5206
93.6902 48.5578 103.621
48.7228 82.9106 116.895
99.0391 31.3475 94.0424
98.4137 64.3806 51.0173
74.7028 101.843 66.2349
103.084 61.8172 59.671
64.5647 88.3706 114.1
88.281 66.9433 115.81
92.1148 81.1548 55.6581
100.409 51.5779 87.4008
95.7965 89.8851 94.1383
54.3407 56.2846 83.6498
35.815 94.9737 95.4347
81.4962 59.7196 105.859
93.697 53.8553 114.277
110.282 34.5068 107.819
85.1005 108.41 83.0067
54.6681 94.7894 112.694
92.8946 64.7625 50.238
56.3198 71.714 106.846
32.0645 96.3314 113.176
59.2516 92.8195 69.4359
67.1589 95.4252 106.683
98.3651 40.5798 64.3184
40.7039 70.4513 127.458
64.0412 72.9194 115.877
99.0786 79.1852 55.3668
96.3827 74.0766 102.101
81.0947 54.399 71.7054
118.148 24.7196 78.7676
98.7587 46.5357 73.6782
89.8133 104.817 80.903
95.7787 76.4552 95.9935
58.403 92.5584 110.454
89.9298 67.8374 68.2784
40.7539 101.9 105.235
57.5727 65.833 101.384
82.0593 101.771 66.8383
107.942 50.9028 94.4123
82.2733 89.7942 87.3765
72.8915 101.877 94.5589
102.049 45.5897 79.7571
66.9732 104.387 92.3889
78.3276 90.8587 89.7349
73.1425 85.6352 98.2999
72.2372 76.1382 80.0135
53.2267 90.3685 74.1743
112.256 32.2684 93.2685
44.9337 82.5986 124.819
92.7359 41.9009 59.5868
104.646 32.5408 63.9612
34.0348 77.7093 85.6158
56.9661 96.3109 108.235
95.683 41.9986 110.726
39.9152 52.2793 60.6591
71.545 106.31 92.2273
80.2531 54.1438 95.7126
61.52 81.1445 113.907
107.168 53.7346 85.36
78.1204 52.4512 65.6862
117.475 30.4491 87.6555
91.4162 42.9963 65.9083
100.033 78.8132 92.4474
57.8432 100.278 72.4953
61.3827 66.8681 74.6065
124.167 57.3818 88.2993
64.0167 90.3951 108.96
94.3663 92.0972 61.9949
105.255 48.2472 115.524
81.751 103.079 92.316
125.458 33.4137 77.495
50.825 91.2922 116.718
112.546 70.9897 95.3862
45.1724 69.6476 118.599
94.6422 90.3779 70.6533
97.3912 56.3111 108.262
94.7498 68.7221 106.904
63.3352 95.6655 112.897
104.071 38.9525 63.1547
86.8104 98.9417 91.1186
69.9991 66.8875 104.39
99.5998 73.0983 63.7409
64.5379 98.0929 102.113
49.9581 92.3413 111.646
105.325 71.7564 58.5106
65.331 60.9942 97.1889
72.5939 97.3457 98.9877
115.096 33.2851 58.8909
98.3238 84.9325 69.3942
98.9693 90.4049 75.2457
80.5593 106.244 69.1802
86.5468 60.2656 73.2782
98.1358 63.3572 61.33
42.9602 67.0782 100.658
98.8011 89.3114 82.1143
36.4857 102.607 113.176
46.8464 90.9732 120.529
73.0013 71.1634 104.852
94.3459 48.984 93.1452
98.1099 99.1387 67.7119
49.773 46.5508 48.6231
84.7003 106.946 87.4335
26.6675 34.791 74.5351
52.9301 69.3222 100.801
42.7466 69.1652 112.199
71.8724 105.032 86.8354
50.6253 96.2366 106.882
59.1253 88.7319 107.093
65.0675 97.3923 74.8598
56.1659 71.5035 111.824
114.251 67.1183 90.4229
97.4261 46.0283 99.1469
93.5073 45.9638 87.0995
86.4473 80.3961 93.6035
54.8332 67.185 109.178
45.0652 97.2376 122.842
65.0704 101.274 97.7277
85.849 107.153 72.9417
105.104 80.6248 78.551
76.8714 52.5643 59.9823
109.796 32.4258 87.9197
69.8553 68.1979 81.8146
89.8933 43.698 71.5291
51.4906 57.5204 100.35
39.6321 100.446 94.7487
32.3461 82.3218 83.1812
101.05 88.0323 63.3677
50.3246 65.2323 101.609
38.5453 68.5363 120.105
123.628 28.5474 83.0417
41.0697 94.8631 83.918
