ply
format ascii 1.0
comment Created by Open3D
element vertex 777
property double x
property double y
property double z
end_header
80.3768 131.639 77.5146
21.9656 107.292 77.2162
51.0109 126.207 98.2599
21.9426 71.6166 38.6977
37.8716 134.244 191.696
20.4229 72.1319 99.8317
27.0675 130.427 69.5637
38.3353 87.5234 83.9246
54.536 117.794 170.62
20.7273 198.763 188.799
46.4314 49.6754 47.3306
18.6508 57.0306 70.6561
21.7465 226.084 153.989
32.3446 192.801 114.155
17.8201 58.5822 50.1568
19.7916 78.0699 53.7743
20.9441 63.4606 100.994
46.2851 177.884 201.134
29.1629 44.1996 87.2486
23.6886 113.274 100.706
43.7485 130.231 92.8681
21.4865 88.0485 93.522
40.903 94.5713 74.3767
34.4298 56.5635 77.487
58.6596 86.2675 128.376
21.3058 50.8145 96.3518
22.2766 144.745 108.977
20.7431 84.8941 106.261
21.9608 104.813 96.8774
20.3394 124.237 154.085
21.7062 96.4465 93.7803
19.6347 70.5568 53.7216
23.8185 80.991 34.7487
73.8121 177.618 155.146
39.4529 122.007 131.69
47.5711 139.057 175.458
22.1919 86.0955 119.332
24.1104 110.037 90.2799
46.0616 104.184 25.3253
38.5161 142.952 198.676
20.9326 132.405 136.942
19.2487 63.6845 62.0168
80.7445 137.667 179.622
19.2462 42.2262 64.7788
22.1956 97.0293 73.5265
19.9223 73.2631 70.0353
62.3099 152.865 175.687
24.1564 106.456 110.595
31.1117 77.567 132.127
23.7346 71.9907 124.902
23.0673 61.1458 41.5098
25.683 118.251 107.827
25.5407 95.2894 121.736
24.6111 123.392 88.4082
42.0596 166.041 150.679
21.8805 67.4836 112.09
25.0812 149.918 182.26
54.2734 163.323 185.055
50.9319 129.332 184.201
19.0796 162.891 186.7
20.9132 208.153 120.631
22.3413 79.299 121.97
22.6921 177.329 192.514
22.1671 88.1669 74.326
56.2597 107.721 28.3961
24.215 43.3053 106.785
23.174 164.495 203.136
24.7191 100.097 30.8289
49.6669 203.086 140.013
33.0979 184.737 108.189
20.0968 125.913 164.732
21.2688 83.3699 81.2398
40.3413 130.767 73.5668
19.0956 47.1572 58.9134
20.7509 98.4127 40.8499
36.2185 128.642 52.2677
20.2549 123.318 136.385
54.3902 214.544 156.511
42.6093 119.35 138.416
18.8138 184.01 112.746
22.2635 91.9852 102.551
50.472 125.084 176.338
19.5348 108.247 49.5113
61.2322 189.376 180.513
21.0374 219.287 135.893
20.0859 174.102 113.077
37.0904 64.9769 72.7882
31.5157 38.5502 80.3954
32.8257 110.451 125.687
46.6902 141.712 185.788
20.6646 138.426 118.77
21.4243 208.027 174.397
18.5184 54.7691 59.7812
40.4979 132.898 84.6092
38.4916 56.9122 63.8484
32.0085 28.4985 91.4177
53.6274 98.2159 126.869
23.2618 88.9883 40.3556
24.7782 217.775 141.318
24.8308 122.819 96.8516
21.7748 219.759 170.176
24.1425 206.33 189.669
56.0566 166.47 125.221
53.9332 175.227 191.849
20.4261 89.902 61.1427
52.0798 131.272 134.485
23.4057 90.9487 85.9549
21.9163 129.405 181.1
30.1968 39.7162 184.038
21.681 133.219 154.862
22.4358 130.875 170.47
46.5712 101.73 71.0903
29.2895 134.899 85.3117
22.5265 61.5383 90.0559
32.9684 28.2991 74.7957
19.979 73.4981 79.2714
74.1709 176.704 163.211
44.734 132.102 102.874
38.9928 70.5599 67.2749
34.4382 174.202 103.186
33.1256 190.459 202.15
72.4788 183.251 169.714
70.5082 154.78 149.064
18.1457 46.3329 75.4335
21.4801 214.062 128.766
61.8379 68.324 33.1671
53.9874 135.969 161.754
43.4503 199.55 134.352
22.2493 102.741 87.7811
20.2469 31.5236 76.2498
43.1721 200.222 195.327
25.9062 177.587 163.448
35.5532 167.702 207.618
37.5348 79.3619 69.6316
51.9898 73.4694 130.174
20.2622 170.176 187.647
34.367 164.984 98.9995
33.1878 119.068 133.777
30.6581 47.1951 117.22
32.872 115.978 165.651
27.1917 72.152 31.4474
51.8028 158.193 191.708
41.1701 134.015 181.876
72.1982 162.079 143.204
74.1753 122.671 63.1503
44.7666 86.0423 130.923
26.3223 60.6608 121.661
31.7643 184.882 119.335
67.195 170.321 131.756
26.7571 45.3201 176.967
31.2312 200.345 121.968
22.5728 74.4925 116.666
38.425 63.2892 22.384
17.3751 144.258 80.6843
18.5775 83.5269 40.3239
53.9026 122.666 89.0046
44.4428 79.7326 105.015
64.63 76.2352 21.3127
21.7138 177.708 183.703
22.4551 202.568 163.83
29.2458 227.454 166.774
24.1188 97.6319 111.672
22.8452 134.354 190.387
26.3166 127.135 102.871
50.0173 45.4737 36.8324
20.701 167.358 101.331
21.405 134.194 147.584
23.8088 58.5162 108.722
24.2419 112.833 110.38
46.8038 134.744 124.754
73.1496 165.908 161.668
44.3219 154.675 197.822
66.6023 120.552 111.136
31.854 121.429 115.029
50.51 146.484 179.063
32.4516 49.2424 80.584
40.709 166.597 203.294
71.5837 162.209 150.329
30.3883 202.027 108.26
36.1259 45.6178 70.5369
44.0109 175.678 145.33
21.4258 196.783 168.115
50.5454 219.59 168.812
35.8016 124.301 175.896
23.2558 118.471 77.5267
27.1473 148.457 207.962
45.339 94.4156 61.7339
45.1474 190.479 198.503
43.7878 56.81 123.143
28.0833 89.726 26.8496
18.0032 89.7014 49.0383
34.1453 69.2197 81.5655
20.4296 159.983 196.2
23.0717 100.467 80.7314
41.712 92.4646 87.7784
44.4933 137.395 116.58
56.5066 150.986 179.43
20.18 76.4191 105.616
19.7343 185.482 178.017
36.8035 118.576 146.607
19.7974 217.86 159.604
25.5506 52.9513 111.26
58.6598 188.518 136.55
70.9223 191.408 154.84
42.4136 223.275 169.203
52.0979 150.039 185.525
49.2746 202.291 192.894
25.3738 32.0854 33.208
45.8781 60.5953 21.9169
21.6834 170.722 176.937
22.5968 203.318 128.793
38.9374 119.065 36.115
44.4348 194.056 130.183
20.2977 34.7495 85.8934
59.3981 136.215 136.35
41.4451 224.989 146.364
75.9625 168.042 153.408
65.0038 184.478 137.797
27.5682 49.646 37.1459
74.2154 160.373 157.472
63.349 104.604 27.9323
27.8632 206.937 136.732
25.9191 156.352 84.1742
22.5107 107.093 37.5185
35.7435 109.976 47.3807
25.4311 120.845 38.5924
44.056 169.542 122.81
47.0487 158.981 114.397
61.1616 154.077 167.664
21.6802 185.398 107.375
21.4685 91.1238 113.204
19.6383 206.858 159.64
40.577 52.3232 59.008
28.5684 69.1529 127.118
38.3844 154.703 160.335
48.7884 128.266 140.395
22.2288 222.916 129.834
24.5889 36.8089 173.012
59.5952 146.464 129.261
46.8018 123.739 119.898
19.3478 40.6236 91.4827
24.2745 181.63 172.458
38.2591 104.475 130.087
37.3304 83.4365 76.0562
55.9135 58.3703 35.8763
54.4665 202.11 184.348
18.1947 64.3412 45.4723
37.9806 32.018 49.1105
21.3795 136.231 128.328
33.5111 77.9019 85.8627
55.5242 146.243 167.929
42.2079 168.149 140.768
30.4716 135.564 63.1509
48.5106 179.577 127.093
39.7119 149.149 107.773
38.4659 127.702 64.9586
22.7947 185.867 167.237
21.7104 124.002 123.894
26.6265 130.047 79.6437
26.2887 187.277 198.741
71.1436 160.261 132.736
21.3627 205.204 182.735
58.9479 207.425 174.401
31.5231 117.254 150.544
44.1088 176.523 124.98
45.7534 58.2851 49.1323
22.3301 180.573 122.253
52.7593 188.094 132.885
38.7776 75.5836 133.193
69.3281 152.611 131.316
28.6567 196.473 200.057
38.0807 122.308 152.624
71.0408 164.107 173.581
67.4089 195.755 167.252
23.1576 117.385 161.262
25.2015 197.19 105.062
34.1846 77.25 93.349
21.7307 96.688 51.6804
30.0524 204.578 192.322
54.7415 52.1984 30.7911
20.0208 148.611 189.048
65.1785 149.83 165.073
48.2195 114.308 125.666
55.5105 108.648 97.3317
33.6723 127.016 186.267
42.099 92.4748 96.1488
21.187 184.524 186.144
72.5775 155.137 138.165
41.3044 197.855 20.6577
58.4371 136.253 190.821
42.1157 126.147 144.36
27.1658 145.121 138.773
46.625 189.127 132.641
35.03 175.068 112.672
29.3 158.471 117.676
55.0279 138.799 183.461
73.62 184.752 161.031
23.7502 92.7378 34.2709
61.4352 167.622 183.539
41.5047 86.5068 64.2154
50.6687 172.267 198.483
23.8446 191.317 127.681
48.8045 209.195 188.521
40.7198 181.905 203.247
29.7651 112.604 160.296
29.7363 62.8131 27.8468
20.8053 106.469 64.0546
33.4358 95.6237 21.5454
21.8547 193.065 157.706
32.299 147.43 171.652
37.8823 162.578 107.232
36.3352 83.6672 133.88
65.091 177.601 135.665
62.4819 199.002 169.144
25.7039 218.277 176.138
53.431 96.2603 20.2898
27.6578 178.386 202.642
65.61 146.67 131.407
44.4403 93.5833 132.585
45.9154 218.629 148.632
35.4326 39.6215 113.422
40.8312 72.382 105.316
46.0685 101.15 88.8146
41.8709 129.568 157.543
31.4727 191.151 103.329
24.419 151.351 66.9927
52.1878 195.966 136.283
32.6787 203.316 140.216
42.348 41.5262 50.8103
33.9571 117.109 120.687
19.8962 195.577 112.479
22.2412 181.508 101.669
64.8802 173.585 180.362
44.4515 104.208 129.455
44.6183 219.549 175.848
54.2097 107.432 126.76
21.7707 157.297 107.79
28.2522 148.267 130.062
59.3907 179.904 190.336
19.9011 194.223 183.471
25.4728 210.905 154.986
40.9833 186.041 129.301
54.5381 116.269 179.758
70.7551 190.315 162.528
49.5793 164.775 199.975
44.1668 106.682 57.6265
21.9292 118.816 148.656
67.8703 158.044 158.097
72.6379 125.808 103.67
21.1058 196.619 176.697
38.9965 195.151 199.708
42.2861 71.2003 56.1699
33.7336 113.888 54.2189
34.749 118.839 172.424
21.2783 126.028 143.833
23.1791 147.384 121.261
44.6226 214.964 184.287
45.0741 40.6399 43.664
42.5587 216.637 142.518
32.3785 54.4504 99.9933
36.9932 225.037 140.55
55.2041 124.119 105.211
29.0778 166.34 206.947
30.7874 167.912 167.679
21.3609 191.886 107.422
22.0513 168.398 196.251
23.0084 32.4648 93.8143
38.5475 225.806 161.672
24.8808 192.217 183.698
53.5755 126.826 148.638
66.4887 171.454 173.497
21.7353 191.556 163.765
21.315 138.802 139.043
26.0335 115.767 170.03
47.3833 66.236 45.0366
27.3096 122.066 183.348
39.4915 97.8089 61.5354
19.4628 150.749 202.655
31.6876 98.306 127.773
31.7818 90.2919 130.918
55.2689 147.303 120.766
19.5341 189.166 191.193
80.9376 130.787 185.826
27.8386 139.21 167.025
35.9174 155.455 102.88
40.4573 90.2772 17.6939
69.1601 126.65 88.306
25.6653 213.55 135.232
45.2704 55.0975 113.015
33.354 29.9992 62.1103
23.4407 160.999 178.168
35.2174 175.534 205.125
30.965 232.146 141.832
25.7793 33.5455 51.681
56.3724 173.646 126.516
24.7001 114.706 65.9846
69.5982 169.577 168.368
46.2563 130.674 160.869
39.7524 114.489 126.984
50.6511 106.753 89.7448
25.2795 137.878 179.627
41.5367 160.51 160.825
56.3287 168.41 191.541
58.0803 70.2045 116.354
42.3159 208.558 191.652
32.3823 148.405 150.412
32.9327 148.622 100.441
56.3972 125.073 193.127
41.267 44.0439 31.5468
61.0181 205.63 167.896
70.8113 170.266 137.288
43.3105 166.03 117.197
44.5752 126.457 133.678
33.0473 150.442 141.612
33.2659 68.5271 130.433
61.5747 160.735 124.58
22.0174 65.0833 71.2812
32.4489 214.297 123.545
40.6346 45.0457 110.665
29.987 63.5916 96.5397
44.2194 81.4042 54.3063
22.5277 134.253 107.747
23.5565 122.629 68.8199
69.4756 177.488 173.272
53.4401 188.622 188.214
20.3187 33.2167 64.4702
25.4217 211.121 179.817
38.5991 122.086 164.294
30.5404 161.423 171.477
67.6149 147.555 150.8
25.0243 186.536 158.53
37.0348 218.566 135.715
60.3975 204.076 149.901
24.9742 138.319 197.452
63.5128 118.936 164.492
21.3771 49.192 41.4145
41.0613 131.049 120.302
20.3694 191.876 119.948
23.4169 227.401 141.754
57.0528 110.684 69.49
24.612 142.952 102.098
21.9209 69.45 88.4292
28.5046 191.937 134.949
31.4995 201.879 150.517
67.7893 185.018 176.636
62.6499 152.142 126.084
60.8817 133.037 161.827
79.3167 122.819 188.507
48.9846 115.596 42.7451
48.0122 121.824 77.3466
26.8239 216.594 150.453
29.5143 116.441 143.079
51.9673 154.219 115.487
70.7855 151.156 144.065
26.1773 204.378 151.912
44.6606 225.16 162.913
37.4496 35.398 63.3277
30.0651 212.514 185.468
56.4339 122.561 115.493
49.9684 167.667 124.77
41.9412 79.7046 63.0114
53.0977 141.634 170.929
62.8673 125.593 96.3242
40.3935 130.831 170.471
20.7318 210.049 164.735
49.5233 217.471 152.799
70.4612 154.469 163.738
22.5979 125.658 176.006
32.3779 120.518 35.0919
78.2772 135.779 168.772
41.966 45.7022 57.1277
49.9004 110.693 34.4231
23.91 192.629 191.581
68.2883 86.3574 20.355
49.2766 130.686 155.785
27.6704 125.527 115.014
49.5184 195.818 192.143
35.631 35.8663 72.4192
25.4297 172.263 201.181
37.5268 85.6763 97.6596
80.673 124.938 175.896
28.4209 101.855 126.188
43.5552 224.334 155.628
66.6683 200.716 154.513
52.3067 137.13 124.377
48.1526 64.4819 112.038
39.9511 228.654 155.23
58.0754 122.15 61.9807
37.1048 200.734 145.632
65.0372 143.811 140.62
30.5545 53.243 30.7574
37.3049 158.072 138.14
23.7055 141.189 185.199
30.0964 79.1435 26.071
54.4324 83.6589 17.5588
73.4451 183.896 152.834
29.8538 37.2637 41.6191
33.1919 205.368 131.071
34.2653 147.901 157.361
35.3407 183.197 204.175
24.6059 165.304 115.999
36.2111 230.816 147.884
69.9138 147.879 138.312
29.7879 149.532 78.1259
35.6111 139.246 73.871
37.8404 133.026 109.502
32.1803 122.214 124.788
49.6581 127.912 113.902
42.3656 139.55 190.359
35.1151 228.057 155.508
46.2982 128.26 128.524
49.709 143.109 115.96
26.6405 170.57 95.7554
56.9796 130.656 145.362
50.9602 58.4516 41.5239
71.8522 128.628 160.949
52.4906 205.705 147.055
19.3078 146.609 70.7149
63.051 112.077 181.997
49.814 183.507 131.633
35.2201 154.417 206.643
66.0318 192.422 173.045
46.2938 125.918 147.811
49.7428 105.337 127.664
23.3413 152.878 115.798
31.3875 137.38 105.668
32.9351 74.6235 60.952
44.017 96.9327 81.3419
52.9139 210.642 149.863
36.8131 217.457 179.547
61.1902 198.32 147.045
66.8007 158.675 127.447
38.4198 36.6682 39.6267
52.0457 109.838 75.2047
70.6996 128.363 77.5772
24.3158 175.894 99.3409
47.0702 86.9148 105.094
36.8116 97.7277 132.883
36.6484 193.566 139.998
22.6032 135.686 161.775
63.6871 198.109 158.702
30.5679 186.915 154.085
35.0082 221.729 171.93
40.7814 61.938 56.9396
25.5821 64.3738 31.674
73.0023 174.01 148.931
31.5495 98.2969 50.9574
20.0986 42.2553 80.6629
36.9726 159.868 207.642
58.4665 140.548 126.319
43.9457 85.9529 115.992
62.3344 96.4843 22.6007
28.1237 109.185 29.1746
29.2752 132.258 193.687
24.8774 115.249 152.576
30.6915 36.9187 108.687
29.1024 185.274 98.3385
45.645 152.188 111.757
61.3093 175.111 130.301
37.4842 124.036 159.793
56.3369 190.468 183.31
33.5066 213.895 129.891
33.9663 187.511 126.647
31.8198 136.637 199.194
46.2383 144.696 109.602
35.7036 216.204 188.156
73.7775 116.663 186.081
22.4778 152.292 100.399
32.0762 135.209 97.4161
37.6752 178.245 124.8
70.1947 156.593 171.397
48.9929 124.517 52.6008
26.3891 87.1112 129.535
30.7216 200.864 196.002
27.7026 108.018 57.3577
32.2102 146.444 164.693
59.1422 109.577 122.95
65.1756 71.3386 25.0762
61.2416 168.124 127.093
26.5397 116.2 134.442
48.2877 136.273 167.318
65.8903 155.527 170.929
24.5051 200.932 157.806
71.3613 105.778 110.267
56.4088 154.735 121.371
42.2875 210.144 139.419
33.0607 158.048 127.272
61.1012 116.275 119.792
38.1313 190.776 150.526
24.8064 25.2118 77.626
45.2722 151.501 192.486
28.1936 144.4 203.707
58.4831 197.702 180.123
31.8504 165.946 124.716
57.7169 115.38 49.4587
26.49 158.348 95.7446
26.8858 139.67 152.283
24.8396 104.243 122.701
52.88 92.3607 107.611
62.8357 167.441 177.416
29.8288 158.433 203.21
62.226 143.303 155.14
50.2497 184.363 192.352
41.689 87.3779 71.2436
28.7971 107.279 120.41
22.1539 75.804 91.2826
36.9772 126.765 124.816
30.0464 43.3827 34.5103
37.5377 119.375 140.301
56.916 139.91 175.713
58.9218 132.194 151.621
42.3965 67.4107 131.644
63.9048 183.653 172.691
54.2545 195.74 189.335
54.1927 70.3263 19.2844
46.273 145.562 193.86
54.0713 79.4403 109.419
21.2065 155.431 190.007
49.2128 106.93 82.813
22.4032 205.082 111.862
43.5097 98.8525 19.2965
37.9273 148.38 202.96
69.5886 93.617 19.1174
73.7183 161.136 165.455
59.5149 200.985 175.531
51.9597 215.687 178.529
34.6182 73.4368 20.2882
70.7137 152.699 156.596
39.5412 165.748 133.35
58.1585 138.533 149.471
68.3693 189.165 147.38
31.9366 127.64 108.852
70.5946 97.466 23.2038
33.0299 114.987 155.321
44.272 125.842 55.986
44.4898 82.3595 124.386
46.5997 75.4494 48.3782
52.3143 124.982 59.1359
36.2759 41.8357 101.615
45.0144 125.615 48.5447
49.124 204.289 181.477
59.7577 160.33 179.417
50.5381 181.587 196.864
64.9382 114.315 71.9215
49.8929 101.102 100.517
54.6591 207.745 179.699
71.995 169.829 145.9
38.2461 179.871 153.996
44.4871 75.5239 18.0617
27.5353 142.985 158.947
43.9521 79.4797 120.453
24.9356 220.274 122.798
50.8917 103.085 43.2287
60.3064 62.8142 24.8708
37.8928 164.113 165.475
31.9307 177.006 159.039
37.4804 175.806 118.341
64.2609 121.854 194.151
31.4364 148.458 202.702
41.1009 110.083 67.2248
58.2978 209.558 156.536
22.2468 144.059 195.01
52.4835 135.807 129.511
35.159 104.737 56.6094
49.7474 93.0808 50.8204
26.2673 85.2359 125.342
24.5729 143.098 146.213
50.2478 56.4102 26.3088
68.53 164.748 134.102
53.467 78.4929 41.6624
61.1531 141.644 143.827
64.0435 116.893 55.4952
35.1872 172.833 156.991
52.1212 90.862 129.77
32.4125 38.4526 94.4231
54.7618 178.904 129.611
60.1009 205.771 159.188
29.5753 231.399 154.931
29.7515 74.1022 50.8782
39.6989 166.166 111.957
69.0395 112.145 122.962
58.8799 113.461 88.5936
69.2225 196.489 160.624
48.5647 212.765 181.614
52.3785 132.742 144.403
57.5276 178.104 182.931
20.2937 179.722 170.978
21.8172 122.122 43.9106
46.8757 48.5471 27.9589
64.1687 164.049 129.441
45.0874 168.558 201.88
53.6429 213.78 163.767
69.0906 139.272 162.273
81.2818 117.782 73.961
50.8406 213.853 173.253
63.0274 124.787 108.412
40.0694 67.8774 119.434
23.4792 128.044 50.5819
64.0671 178.904 183.414
41.4834 93.0938 48.0432
64.8768 148.688 158.601
66.8255 94.1988 123.745
27.3756 177.168 129.266
26.5999 145.447 83.1452
34.4915 100.408 44.5016
33.0034 225.449 132.463
56.8885 160.635 121.796
64.1627 181.307 178.231
64.7707 185.946 143.132
72.2969 112.587 177.531
40.5244 42.9816 61.6512
72.436 172.174 165.568
58.0099 211.973 167.761
36.4722 197.809 131.604
60.9693 92.7158 123.728
41.7818 172.777 202.588
30.9221 32.9867 101.287
48.2111 159.437 198.345
31.8923 153.785 189.782
77.7004 113.049 107.378
66.0555 116.23 84.656
64.3866 196.129 143.754
50.9188 112.256 175.368
26.1978 156.71 176.637
58.1047 179.635 135.063
59.7668 193.656 142.5
71.732 145.754 176.737
24.6716 192.915 196.221
56.095 128.165 163.532
48.8528 218.751 161.061
28.1555 215.113 117.173
45.9606 104.172 43.2159
35.5779 97.5662 35.9429
34.8871 49.2198 27.9521
27.5779 79.3837 53.7493
58.3025 138.746 157.556
26.3587 127.1 188.097
78.7909 116.836 99.2101
41.6857 204.828 140.37
77.3313 131.418 96.5497
27.0206 208.431 111.785
44.5543 64.1199 117.919
27.4276 57.4951 82.6021
32.108 209.63 140.158
25.1711 201.121 193.357
81.4043 133.035 89.0442
31.1484 74.3498 79.8561
53.2052 196.635 142.788
43.8651 124.139 43.3184
24.1266 154.573 202.326
72.5754 119.111 114.3
58.931 141.281 133.582
64.4006 162.319 175.243
66.7399 105.857 120.089
34.5123 153.014 173.197
62.9064 145.117 183.523
38.342 70.9562 41.0775
34.2704 62.7611 82.5069
48.3029 125.648 60.6418
82.967 125.259 62.6383
30.0424 174.064 209.607
31.2927 100.34 132.925
62.1625 113.122 100.562
23.7069 184.777 190.827
61.9901 104.268 122.226
41.0296 184.775 142.974
60.4593 195.038 183.678
31.4866 162.01 180.81
25.1185 143.533 199.756
71.4751 134.643 193.731
54.5215 58.1477 23.4284
71.0149 180.365 140.865
31.6763 117.328 47.8104
27.8453 108.609 45.9849
41.0195 86.9874 102.874
70.834 179.422 146.486
31.3514 222.684 178.661
