ply
format ascii 1.0
comment Created by Open3D
element vertex 381
property double x
property double y
property double z
end_header
39.3483 150.067 46.1462
18.4076 37.5597 85.1251
29.7916 157.524 72.9843
21.2863 53.894 54.0513
52.0209 114.608 86.8438
27.0076 119.728 58.9948
31.9278 134.623 125.443
26.5763 127.242 132.11
20.7915 150.972 55.9643
38.3997 179.556 183.946
41.4177 97.9359 95.2975
55.2858 92.1891 69.8636
18.6314 147.095 66.168
50.3769 182.993 193.344
20.3614 63.7042 59.9628
70.0744 83.9624 74.4829
64.6325 53.9965 114.572
23.1377 150.24 76.4148
38.4944 111.371 83.7266
37.5138 95.2801 85.0606
32.301 160.412 62.0064
38.9128 43.8164 40.601
30.5695 142.24 44.5374
17.4918 49.4101 73.6607
61.7017 116.543 81.7381
35.8897 65.0457 41.6871
47.0455 108.807 75.9461
54.3841 138.424 44.6324
33.6538 158.482 52.7945
23.4288 28.2405 74.5931
23.9142 84.2541 98.371
38.8256 165.823 68.9463
30.9703 114.281 80.4554
45.3153 41.8216 117.385
66.0339 125.952 85.0605
66.0321 105.16 154.916
72.6201 126.591 158.429
18.3975 76.4315 90.1531
36.6594 119.437 90.6692
44.7525 158.401 53.3759
53.0971 152.191 49.256
70.1272 84.6049 88.9477
20.263 138.068 71.858
46.4073 165.069 197.993
68.2618 28.7899 82.4757
18.9278 74.0579 74.1834
31.4046 26.9015 98.5077
30.5912 125.909 90.6759
29.6243 105.12 144.305
65.2509 121.185 59.4558
45.2819 159.265 83.2902
37.7096 59.5115 122.229
20.4057 169.572 191.02
21.1279 66.3673 105.878
17.4717 171.596 174.562
62.0308 151.351 56.8356
18.2649 49.127 90.0539
47.1613 99.1252 104.626
19.8649 157.145 179.751
84.5558 60.7244 83.2993
28.5734 147.919 149.205
27.7592 56.8822 44.8627
37.3094 97.215 112.776
18.0075 40.5584 76.9662
62.2478 88.2523 75.6293
17.2939 58.9192 70.6227
55.8471 126.984 43.8264
30.3746 195.532 187.755
32.1421 47.4728 41.4354
57.1205 33.4428 109.781
64.165 116.84 69.7784
44.3749 123.432 95.8263
28.0269 119.732 137.51
30.536 137.877 162.216
84.6835 69.3192 82.9952
18.92 133.269 63.5621
39.6938 87.0769 117.585
24.7025 131.187 86.5192
17.9723 142.722 57.151
30.0774 130.391 46.0487
20.849 41.1742 95.3399
31.1357 152.675 188.088
17.5725 62.8994 95.351
35.2303 118.305 51.1068
54.9147 105.936 121.54
25.6191 87.3176 81.7694
81.4284 74.0344 75.6666
57.1271 159.725 66.1943
36.1381 155.363 85.3944
21.0952 135.263 55.7734
60.9174 26.5791 66.0253
55.1954 109.795 71.8522
24.1644 30.0405 87.7178
44.882 153.262 89.6381
36.301 125.996 117.418
19.3022 50.5914 101.875
51.8515 98.3203 97.2441
55.1494 156.978 82.0974
37.7748 109.252 72.4141
53.8214 79.6913 51.5749
47.0286 27.1421 50.8853
19.5605 41.6668 139.036
49.6515 97.201 87.2897
52.3184 167.035 165.067
58.6076 132.754 92.6639
21.9939 32.6899 67.8164
51.3725 128.822 94.2024
28.1731 91.6468 98.943
65.9459 88.3186 98.7985
31.267 138.343 91.9428
55.565 188.211 172.373
45.8748 103.164 119.797
43.6947 51.4959 121.267
57.7652 150.312 87.5684
22.5043 75.1921 102.058
55.2455 162.751 74.8388
17.9633 67.0923 83.519
36.8538 98.7396 137.948
43.1154 114.765 90.1857
25.214 33.3363 97.537
58.251 114.048 61.9073
56.1514 171.882 175.099
37.1579 137.647 42.5796
44.4491 17.7768 77.6229
68.3005 66.4655 114.24
50.6772 91.5524 114.32
29.8492 94.1012 85.7346
19.1488 40.3048 65.2105
29.2348 23.8715 86.0435
26.3925 44.8816 45.3799
24.4091 142.696 83.3337
37.0125 129.457 95.435
23.5235 126.24 78.2506
20.4431 131.734 76.6003
19.638 137.301 143.228
38.3869 54.8169 39.494
49.2493 114.022 114.15
18.6215 47.8536 62.2339
42.2656 93.5462 71.5008
76.3347 36.4292 75.311
26.0816 130.194 153.536
21.2905 181.445 172.913
47.5803 163.433 74.2675
34.2821 98.3268 97.2101
39.4875 158.28 163.879
51.7202 95.3104 79.374
47.6717 124.572 43.3336
24.8163 64.546 113.197
42.42 119.672 111.034
81.7034 49.0586 81.9245
40.6448 23.8619 98.3598
58.1897 122.702 90.4144
22.8977 140.484 132.115
37.8248 41.853 118.174
27.557 152.392 51.7941
20.1587 177.713 186.425
55.8631 57.5815 120.913
70.0854 127.596 61.9895
36.7999 171.482 160.924
30.518 75.0356 51.0326
28.9887 44.9573 115.163
74.9838 76.5873 66.6559
30.2505 33.9742 46.2876
52.3163 74.0779 122.652
60.7329 22.8969 75.1765
47.644 155.992 190.078
27.4286 120.277 81.8079
31.8724 110.353 127.461
45.5949 189.521 163.82
31.3264 91.2153 109.905
54.9353 143.748 93.5661
51.0615 66.3871 123.325
41.1707 135.456 95.902
63.3166 143.467 86.888
73.5398 118.135 150.151
46.9793 144.476 94.0371
60.7422 43.5744 114.581
76.6819 45.8326 97.477
70.9413 127.862 129.62
73.3766 49.7176 57.3766
57.9342 94.0435 103.773
44.5671 136.976 42.0422
50.0224 98.5998 130.434
67.5979 49.9473 50.7295
68.5413 122.677 74.4255
55.5818 183.233 184.699
60.6615 32.6776 102.782
50.0021 195.313 182.349
32.9893 121.354 174.475
39.3252 153.751 153.607
39.0185 19.7948 86.1706
40.07 126.736 44.1055
36.7252 108.021 169.987
33.7968 51.6049 119.014
41.8525 165.153 157.86
20.4941 165.776 168.916
52.4699 21.8621 71.7354
30.5763 166.873 159.624
48.1266 33.6116 111.074
66.2631 150.618 68.5952
27.2118 57.9668 116.797
35.0622 155.593 179.424
68.7659 82.1068 62.0539
36.9532 145.302 91.4992
53.7541 164.623 180.518
44.9228 112.12 177.153
34.9211 191.771 165.73
26.1081 79.66 109.402
23.4393 141.426 49.9193
66.0714 111.939 128.451
46.1829 49.0809 39.7385
72.9849 48.546 104.609
24.21 38.6776 48.9567
46.1201 115.46 51.0809
77.3763 73.2444 98.7372
53.3147 116.279 53.4268
28.9784 114.154 70.5614
45.0726 110.588 60.8859
82.6144 53.9445 72.0227
50.0232 173.729 197.55
24.1512 76.3341 63.5882
25.0183 128.427 52.8726
29.629 150.392 84.2756
43.4663 35.612 45.0725
19.4558 161.258 187
63.7875 122.512 120.424
65.6374 110.028 163.999
33.3608 196.464 175.381
72.512 78.7402 101.213
27.185 65.2207 48.993
58.0761 101.193 160.869
36.2095 34.5475 42.5462
50.7447 174.423 158.264
68.9798 132.03 79.1131
63.0648 136.086 50.4573
67.295 105.74 143.937
53.8697 45.1503 117.046
40.677 99.5405 156.739
32.192 31.2922 53.357
56.9405 87.0803 115.178
83.0361 64.2008 72.1682
32.9676 91.0565 75.0604
34.7 182.549 204.651
58.0719 85.5467 62.2491
46.5915 192.374 192.34
34.8611 113.361 118.734
67.8684 46.039 110.408
17.416 56.9732 85.4177
51.3197 141.513 170.828
75.375 63.7593 59.5096
39.7864 152.277 169.984
62.0991 39.7595 49.0112
30.316 22.229 75.7795
30.64 185.017 161.371
25.4639 153.659 211.033
48.8748 6.88614 120.747
38.6719 160.911 78.3799
26.0182 190.956 175.937
39.3725 99.8186 105.981
23.3349 53.403 110.654
23.1048 81.6528 75.3273
80.3666 43.9057 74.9347
49.8627 22.2241 94.3556
79.5723 69.9734 66.1571
73.2959 36.3339 67.299
57.6214 121.834 49.1122
35.6316 112.055 61.7281
47.4434 162.928 64.7296
66.7357 131.971 126.018
61.7539 31.2751 57.6619
37.9669 197.517 187.417
60.419 10.4173 117.144
39.8284 32.1583 112.102
40.4749 144.771 198.508
57.7338 78.7932 120.299
40.3806 71.7448 44.3184
54.0685 44.8592 39.9856
30.7276 25.7619 64.476
22.7569 37.3006 57.4997
23.0963 121.018 70.8868
23.8378 72.8502 56.8978
45.283 122.814 179.907
24.6006 176.806 201.192
35.869 20.7394 69.3234
54.113 181.684 160.939
70.2387 76.9914 108.166
27.5503 141.843 136.783
18.7722 137.042 153.389
37.5492 164.173 203.53
44.9747 127.809 111.04
63.0133 148.136 147.579
31.1052 68.9451 119.745
57.6379 66.3658 43.8264
62.1589 127.6 175.147
70.0936 135.513 141.983
43.8581 80.295 120.7
52.3666 25.0575 59.2464
28.1047 182.002 167.456
55.1675 153.627 148.317
73.3722 116.089 141.278
75.3422 48.6014 64.3527
27.3963 83.4867 67.3295
70.1808 134.992 66.0767
69.1323 34.9253 61.2943
53.9018 3.00674 125.013
81.9338 69.0183 92.5973
45.6056 182.583 158.592
46.7487 159.912 173.809
45.5041 76.3663 46.1507
44.3905 180.854 203.267
64.6456 4.43991 124.018
50.9811 26.307 102.588
54.244 34.5063 46.3011
63.8901 62.9098 48.4413
39.2398 28.0859 54.2652
38.6015 81.4211 52.7073
54.0245 123.693 111.156
34.65 88.0283 65.2861
76.6799 81.2221 80.8987
57.6761 91.7938 88.2647
40.1047 27.8274 105.472
59.2523 22.5191 89.0256
75.1419 37.7405 87.665
79.261 48.7594 90.7048
66.5569 38.7026 106.687
62.9276 88.4926 109.128
63.5124 153.681 73.1575
46.1501 148.555 127.181
43.5545 22.7206 61.3908
41.9092 150.372 184.936
48.4204 2.21341 104.132
30.2834 129.287 166.648
69.3324 141.929 75.3322
26.8398 188.968 193.174
27.1992 40.4013 103.796
68.8657 119.165 168.378
57.4615 148.614 157.959
49.1165 64.3859 40.6671
26.4922 147.591 137.721
48.6248 197.016 168.953
22.8724 43.4227 108.542
28.0114 166.083 202.076
45.7171 2.52964 96.1475
60.2466 53.7922 41.7711
53.7191 96.6574 139.539
61.7181 79.0965 53.0829
25.1057 161.276 165.566
59.4845 137.164 171.752
47.322 59.6257 122.621
73.5098 123.106 47.9015
19.9172 185.839 186.347
54.0374 113.88 177.569
81.8218 57.679 92.8609
36.4958 188.718 197.531
54.3758 3.17999 52.6979
25.0436 178.845 160.386
68.9681 66.5113 53.0448
61.8589 5.42363 107.829
44.2778 88.5388 60.5362
75.8625 60.8852 106.827
53.1989 127.742 178.77
28.9885 195.171 180.652
58.5394 108.49 171.306
68.6653 138.639 162.496
49.8331 153.726 180.719
36.0892 177.301 156.553
55.2776 167.729 187.847
27.6943 150.345 178.585
57.2568 5.81308 83.6142
68.0732 141.679 64.5877
61.4825 66.8857 119.832
24.6616 143.953 158.184
40.0518 1.48082 92.2298
24.7345 168.013 162.56
41.5357 1.19359 118.806
26.7281 135.736 130.37
34.6957 35.8678 112.544
58.7748 5.55166 89.6592
28.9933 146.545 160.606
34.2518 0.934291 106.31
67.4588 5.46825 117.002
