ply
format ascii 1.0
comment Created by Open3D
element vertex 1895
property double x
property double y
property double z
end_header
91.1018 256.885 81.2781
13.129 284.265 77.2187
36.872 123.02 132.126
13.1698 293.186 61.6522
14.5645 77.6273 282.327
55.7883 72.2878 210.548
22.9973 67.1113 261.138
35.82 216.79 116.615
59.6037 171.78 55.7036
21.3388 64.8404 286.853
31.4106 60.2825 305.593
42.0442 304.828 111.899
50.9521 150.214 203.633
57.3401 161.932 287.079
20.5476 93.7366 323.056
15.483 252.54 197.15
29.6733 98.6567 233.424
24.8449 245.945 135.955
18.8467 94.5522 248.232
15.7497 84.3356 102.889
23.4442 293.299 321.027
14.1097 263.554 84.9691
19.194 307.608 108.095
41.324 325.646 319.144
20.795 93.5299 127.725
36.0018 305.229 302.494
36.4913 312.322 307.957
14.9779 99.6604 306.527
15.7745 304.911 326.379
13.1028 191.52 108.436
20.9273 136.152 286.644
23.2874 71.2056 315.181
29.7075 134.537 319.319
17.0078 89.778 112.103
14.0919 177.818 120.077
56.3986 155.219 10.2252
72.3244 40.7317 125.162
13.9384 141.203 149.129
35.9195 244.269 141.129
13.0724 265.282 103.483
12.3206 128.936 136.317
14.8942 255.622 93.1739
16.8332 207.777 156.008
14.5107 125.57 251.453
18.2121 200.877 163.533
18.3051 85.1612 250.759
91.8093 88.2115 3.99408
88.0126 249.05 85.5656
50.8131 176.391 57.0826
71.4664 85.3529 106.369
13.87 311.437 44.6848
13.4386 74.6921 97.7174
24.2126 316.621 330.396
18.9244 135.815 139.543
42.6801 319.991 313.509
14.081 93.4114 264.791
49.9157 109.368 336.096
74.3274 166.813 5.81692
57.671 99.5101 112.165
14.0406 81.2958 112.49
16.7204 274.724 41.3095
17.3431 80.2355 93.8114
42.5446 296.494 344.215
13.6026 309.829 80.351
14.1712 80.6684 300.185
13.3826 123.72 294.77
26.2824 58.9639 282.258
28.0248 146.056 247.005
48.2549 235.088 219.832
12.81 158.481 139.753
34.4291 113.433 329.067
77.972 74.1239 119.851
23.8927 289.213 114.175
30.212 55.8256 293.08
48.9659 48.2188 276.58
78.5721 163.044 13.6013
77.8237 254.713 111.329
28.3105 73.2819 319.784
14.6507 56.8236 96.0997
13.3165 90.183 277.528
46.935 318.784 84.915
73.1793 135.249 279.053
99.1035 76.7857 272.35
37.8335 167.919 188.001
13.4743 282.354 57.8065
33.7494 77.638 80.2724
82.1116 298.854 67.0018
71.5894 42.2544 101.714
51.1319 312.434 56.1055
20.0845 297.235 314.785
43.3392 285.262 347.921
43.8083 53.5255 302.293
13.3486 122.503 281.068
13.2459 281.122 66.9411
49.9628 295.231 319.4
38.2754 291.445 347.332
16.0965 69.8536 282.515
49.3421 301.676 311.557
13.0993 92.6849 301.149
18.287 237.313 99.6507
24.471 118.042 320.002
26.6056 168.73 182.928
51.031 274.697 214.492
12.8983 181.671 134.722
59.4109 161.902 52.9966
14.2941 44.4409 115.405
40.5956 140.548 316.091
12.434 64.5277 114.685
34.6269 316.521 68.2059
34.3686 232.173 139.433
36.0515 321.559 339.696
15.1288 131.578 283.889
74.0521 118.402 279.071
56.6711 251.113 211.207
31.9698 262.4 27.8616
51.208 144.577 211.218
14.8387 292.611 100.823
38.1574 151.955 287.646
53.6055 298.137 326.904
36.8358 222.85 66.9632
12.3451 108.912 269.125
20.3904 164.76 173.962
27.5818 93.6632 98.8746
13.6973 71.2134 130.536
37.8043 103.901 109.747
21.8811 126.241 314.004
33.1623 175.533 186.011
14.5043 53.048 131.097
12.2434 188.248 141.317
21.0929 232.28 104.831
65.2372 64.7316 327.545
79.2372 300.745 83.253
27.3433 90.6732 237.517
16.4485 89.4411 120.282
16.5632 100.007 258.148
13.1033 82.7547 127.253
14.1493 104.958 263.566
14.9482 103.629 287.073
26.3084 147.206 284.992
15.1475 241.36 70.6526
89.8394 96.214 5.16749
60.0083 139.732 323.106
37.7139 224.419 59.0563
13.43 279.905 96.5841
14.1274 275.038 105.174
20.9016 175.696 179.489
28.7459 66.1227 313.571
16.1686 238.912 83.5159
13.2112 266.377 93.9216
37.8658 56.893 310.24
29.3969 323.939 327.855
81.4785 141.366 201.119
13.9521 163.158 149.394
26.4686 71.1584 255.041
33.3926 116.402 144.719
32.6852 105.002 190.909
95.6602 134.139 17.0067
46.6546 218.984 84.6973
45.3284 57.6065 314.279
89.4155 154.937 19.0061
55.3869 262.472 209.283
31.674 233.557 108.213
23.6244 127.945 258.725
20.5764 102.1 244.806
13.0036 73.5297 121.292
24.692 293.499 329.704
39.301 305.814 318.507
13.0753 266.438 69.1404
13.4816 257.772 65.5805
41.3767 141.042 172.161
77.282 57.5746 102.369
53.594 99.9292 337.544
12.9249 200.122 145.059
13.1152 274.837 88.0131
33.4702 289.615 308.843
62.2761 73.0629 234.516
71.1139 128.947 272.048
24.3635 64.1272 303.516
21.346 120.042 248.647
23.6199 142.519 121.612
78.5678 66.5215 123.76
75.4187 44.9441 107.766
22.3171 315.905 339.389
13.4345 263.602 76.5274
12.2584 233.992 250.209
15.9993 77.1226 273.644
16.993 149.909 130.53
13.4825 285.318 88.5034
17.0487 211.011 139.012
31.4397 226.801 98.0743
26.2407 122.666 234.036
30.0711 325.876 319.185
11.8924 184.459 150.295
18.0955 268.109 215.613
28.4145 99.79 123.614
18.071 83.9726 314.332
91.7712 276.34 65.8487
94.0639 77.737 302.821
14.439 103.019 273.525
79.5126 151.995 149.294
16.7211 315.217 95.9057
31.4232 150.71 291.216
94.5062 73.6143 265.21
33.6764 56.2561 265.392
16.518 304.771 45.8014
12.9067 61.9659 121.17
36.0746 95.6223 331.932
36.1062 221.333 74.1938
35.2943 321.374 313.332
78.5245 144.272 208.596
43.2475 279.894 219.899
52.817 68.3562 331.495
24.9209 141.361 280.142
13.2482 175.414 146.824
20.1851 37.4809 126.62
32.3816 291.494 342.036
97.4765 238.241 76.0929
13.3664 249.772 83.3364
19.0836 244.479 58.6583
31.5626 142.89 237.491
19.0203 310.803 75.4414
28.4155 281.861 120.347
35.0452 282.181 343.91
43.9884 168.136 54.2052
13.2042 192.604 130.982
86.2316 284.63 93.5682
73.0763 57.4219 135.216
43.7935 108.356 336.046
52.5316 142.979 318.536
19.7265 125.235 263.757
16.0557 260.242 214.854
19.9004 33.547 110.877
23.225 305.985 338.688
34.4974 301.054 116.204
43.3527 151.816 300.313
47.5384 143.03 314.728
15.0272 301.051 316.414
52.4684 142.303 198.616
11.8649 114.247 288.449
41.2613 227.37 51.6842
20.9457 137.713 304.391
19.2221 118.605 314.625
23.2874 136.438 296.783
25.9461 266.338 187.766
31.8198 24.5779 116.686
15.2032 276.04 52.4581
58.5607 164.005 4.26031
22.96 100.174 321.115
35.5779 326.186 321.355
55.0621 87.1031 227.474
12.7683 112.806 136.19
29.8014 270.717 30.6096
30.4636 146.514 258.97
26.0217 297.198 115.912
13.8423 185.933 158.243
13.1799 268.505 60.7981
67.2456 32.2987 117.376
69.5503 76.6494 141.032
28.9976 123.858 318.618
22.833 229.312 91.4503
76.5882 158.484 209.703
97.4405 95.4516 305.946
41.2334 53.3056 266.822
30.1301 108.428 133.195
35.1199 102.886 121.405
41.7763 212.539 112.448
13.348 86.4925 284.119
53.452 35.6375 85.9503
70.2141 121.954 264.87
33.4136 303.031 347.15
35.5001 54.6775 274.176
22.2133 239.396 132.471
14.9513 250.76 209.123
13.7716 44.4609 107.166
22.5696 78.9933 251.458
26.3897 320.917 85.1801
97.7491 102.546 306.43
35.039 288.038 320.821
29.0191 100.8 333.94
22.9088 316.098 43.643
15.4631 335.28 365.819
40.0814 115.804 222.512
42.6535 218.902 73.2676
73.0606 48.4822 96.5946
19.8085 130.648 272.024
35.3421 117.809 235.472
18.2125 114.788 262.029
59.0811 172.446 44.9318
108.312 106.937 14.0022
29.6177 124.872 225.905
13.7301 272.215 70.921
13.9197 272.974 79.249
26.0488 61.7564 266.414
88.8597 284.975 72.9623
66.9542 33.7669 106.646
34.5759 140.164 168.593
31.014 134.837 152.333
74.4014 80.1348 125.021
35.419 322.548 94.1612
19.2955 109.772 246.628
76.4302 72.4187 128.42
14.0267 266.469 52.2539
23.6407 96.3273 114.761
20.6294 293.245 38.1265
15.4812 244.782 77.0354
77.0706 57.2016 126.114
12.8436 73.8052 109.041
22.3164 83.7151 87.734
77.5755 67.276 106.08
44.9252 240.823 228.649
18.9917 311.473 313.526
11.3526 148.195 144.929
57.5708 215.201 165.919
11.6159 53.0546 105.406
21.7396 236.024 56.2244
14.0823 293.859 90.4465
38.0838 109.267 335.239
30.7868 299.423 330.466
45.7536 267.915 188.704
16.4474 198.844 120.749
26.6666 293.647 39.6963
23.2344 308.438 41.6543
16.7135 77.3839 264.569
17.7179 303.192 85.8274
19.3806 176.538 170.564
47.0508 100.347 227.335
17.3579 73.9436 89.0469
46.8102 300.543 338.081
44.218 308.06 304.77
54.1482 100.875 125.137
39.1165 274.425 126.456
81.9894 242.148 91.9592
12.8842 102.355 295.869
13.944 294.62 80.6598
44.6622 319.403 339.152
31.3112 91.6249 91.4845
15.9929 45.5291 127.692
49.5322 168.789 46.7337
19.3263 247.14 108.033
21.6248 61.8639 273.045
37.8963 223.033 129.984
44.7417 22.8526 109.176
42.4013 86.0552 333.007
22.1121 77.2579 84.2618
16.8227 285.298 106.315
15.8478 92.7625 255.316
16.08 124.654 307.658
30.7701 53.7434 281.204
37.6017 134.965 322.388
24.5654 323.896 367.901
32.6058 153.714 181.135
47.0997 50.4771 265.72
59.6003 79.687 229.011
19.5352 255.607 110.312
44.5545 151.106 259.485
36.6159 233.536 274.083
39.3919 98.342 228.224
33.4202 147.469 298.266
82.8878 238.674 77.1211
37.8627 286.831 339.542
39.0858 317.909 79.2337
33.2616 319.023 109.735
22.6541 146.56 113.555
32.8781 94.2558 184.142
56.0343 242.765 209.012
75.8338 148.158 162.201
30.6455 28.2727 126.616
28.1893 141.414 165.687
53.7117 78.384 331.29
15.8078 83.6924 135.649
26.1331 160.671 180.931
54.8307 166.001 59.4488
15.7947 170.069 164.707
21.2853 298.194 102.015
32.9053 96.8399 173.356
37.7022 220.163 84.959
71.5296 90.7969 111.875
28.1529 144.986 273.663
83.7909 161.1 149.733
26.9555 121.39 246.52
79.5 65.989 113.612
15.2955 85.3931 270.979
103.474 84.4755 14.9925
53.2781 289.984 326.992
118.131 85.7971 12.7064
57.2731 96.8877 224.337
67.818 128.75 239.743
102.088 139.949 22.7239
92.1814 126.996 21.5553
20.5815 90.1961 103.131
20.8054 273.833 200.66
26.4518 258.01 118.795
58.1702 255.914 204.626
31.7126 314.934 75.7754
14.4638 115.787 271.327
20.1311 316.449 318.637
31.3574 137.217 307.583
26.2647 295.636 336.222
47.6073 74.1226 232.36
48.4739 153.121 252.448
19.8556 262.037 116.04
24.3186 78.6937 145.86
11.8794 60.8183 104.47
36.4809 54.6947 300.165
17.9409 210.762 146.972
78.6529 195.909 131.794
14.9733 61.9648 134.679
41.0994 177.562 190.963
23.8816 113.185 243.723
18.1956 96.9995 314.846
42.1591 127.851 236.049
26.2054 190.109 182.533
77.4001 235.903 59.295
30.9213 121.282 328.061
21.7211 89.1237 243.366
51.1812 153.604 298.017
30.7118 135.569 137.454
28.0437 75.6412 80.7497
41.1101 322.585 332.368
57.578 153.904 272.523
98.0281 71.4478 289.761
82.4189 63.8261 260.69
35.9972 103.156 167.885
86.9055 291.679 77.8728
14.306 257.435 55.3914
13.0762 203.953 136.725
34.1534 104.813 332.058
43.8414 135.47 323.004
28.7277 56.4369 272.122
22.6011 105.716 135.903
54.2522 69.7498 178.848
50.3714 164.634 284.745
20.2147 186.554 175.472
18.1847 67.6677 273.484
33.31 150.403 281.372
65.1692 152.088 179.226
42.2043 94.416 335.677
43.4506 69.1679 237.588
22.4442 314.638 58.9225
97.1124 98.112 15.0619
49.1312 283.469 333.154
54.0321 256.687 219.827
99.4799 83.2646 7.5738
72.4125 37.7099 113.34
76.8956 200.907 156.9
28.8734 294.145 307.779
14.2985 136.432 142.835
17.6845 72.6097 302.813
21.7773 70.7351 82.7573
43.6333 313.771 343.026
45.3978 288.766 123.35
29.5106 222.803 73.172
24.4935 226.305 59.076
27.0184 302.869 307.572
59.691 135.591 239.221
24.2014 30.4935 120.711
16.5026 44.683 98.0772
52.7833 92.18 338.617
35.9268 296.334 306.154
14.4014 161.256 157.82
24.3974 116.315 228.168
39.3657 151.726 278.329
19.8126 71.43 266.071
42.014 149.853 237.428
14.6002 74.6595 290.984
18.5821 193.869 169.223
70.1945 106 335.82
65.0312 137.181 258.346
74.8093 111.275 274.237
79.5992 60.961 292.191
20.6116 82.2501 140.219
16.3579 281.666 38.833
26.7661 152.885 176.657
29.4524 135.447 251.901
79.1483 162.249 121.563
89.4072 260.333 92.5149
70.0633 59.3195 255.887
88.6998 74.3482 251.721
87.5177 269.714 50.2329
31.3762 302.686 307.111
42.4306 50.0692 273.481
17.4804 135.986 132.424
47.8498 306.691 345.867
42.2548 291.681 307.19
25.1748 313.342 311.548
51.8727 306.672 112.596
44.884 49.2885 289.868
41.0059 156.108 252.448
15.9048 83.3787 277.638
41.4193 147.166 308.695
14.8479 85.9967 263.074
21.1921 70.3759 307.907
21.0335 323.041 90.8722
50.9547 285.826 342.023
18.4886 316.737 84.3797
12.7843 68.0672 101.416
22.2898 322.78 327.924
92.8297 279.711 91.5773
99.8778 84.5356 271.766
40.4975 220.992 93.4459
72.8129 129.483 172.507
50.651 306.973 324.662
17.7073 294.93 323.559
38.492 130.994 154.961
65.6267 149.145 282.452
13.7828 296.194 71.8648
90.3409 108.313 190.266
33.3231 215.729 155.681
52.7349 68.2856 236.87
31.1401 294.171 117.817
80.9732 131.806 306.39
20.8066 309.529 83.6034
39.7126 102.507 335.82
35.9302 283.165 123.557
16.2162 301.18 94.9894
12.4244 50.2548 119.443
24.5347 96.4668 107.885
38.037 309.631 348.189
73.964 85.885 118.73
27.272 139.47 257.976
32.1078 164.957 189.485
45.1996 100.449 337.669
28.2037 146.308 173.089
20.9659 204.577 114.366
16.8496 130.746 292.21
30.8656 102.026 114.111
16.9599 256.124 220.302
23.0285 101.387 238.305
19.3896 64.141 85.5073
58.2435 78.398 149.87
54.1758 45.9785 79.833
41.9515 125.578 185.045
53.7871 74.739 155.29
16.3514 290.644 50.9587
26.694 138.154 156.638
19.858 309.857 333.801
22.3186 304.094 311.21
14.805 244.255 146.016
53.6295 50.223 269.623
36.4899 124.222 141.295
50.2323 320.438 333.621
49.5226 175.846 49.3369
13.9245 315.185 53.518
29.798 79.5879 324.192
57.8163 147.954 315.055
12.5242 85.5445 291.239
32.8517 149.993 238.63
87.7839 246.672 78.2405
42.0353 115.206 333.496
25.0484 320.964 50.3525
24.5524 213.796 125.7
34.3597 316.96 85.9373
98.5988 77.5834 295.384
21.6226 152.872 111.229
27.5917 223.778 88.7702
40.4798 272.156 30.9717
23.3652 296.831 45.4855
20.3773 231.318 137.997
15.612 233.671 68.6889
72.4957 58.9108 92.7861
15.0434 257.729 103.902
28.9782 86.089 85.9237
46.0191 55.688 257.786
78.4675 53.3212 119.455
26.6075 313.463 70.3235
38.2277 118.545 192.504
79.165 131.54 290.11
58.9683 126.799 9.9276
29.5533 271.837 225.191
38.3891 232.478 260.091
36.7181 121.62 326.573
52.3056 140.695 7.42483
36.0112 118.25 181.33
59.8995 40.9261 143.714
54.4527 270.626 206.003
30.0352 320.374 335.175
27.8851 235.928 134.027
35.1018 88.8795 334.581
19.2909 68.9474 143.567
19.2089 158.593 168.934
16.2824 150.84 147.742
34.5402 81.9266 331.854
76.0338 245.243 106.818
18.9965 267.091 38.6697
20.6466 308.586 66.6971
46.4468 293.26 349
30.0637 86.7776 330.219
35.4241 298.273 340.916
58.354 50.384 277.352
112.889 84.0222 15.2564
77.1973 75.59 237.874
75.1606 65.8122 135.18
52.8903 137.467 332.523
30.4962 142.873 266.631
16.5933 155.721 122.584
13.1825 247.635 94.6708
88.1321 134.033 24.9075
46.1787 200.643 180.089
30.7192 100.335 105.401
75.8222 150.155 132.473
24.2454 100.948 328.395
19.2023 84.913 259.422
36.5697 133.202 244.966
84.9253 170.173 156.631
56.4717 164.293 44.4413
76.0748 137.246 200.714
27.3732 86.9445 142.433
13.0168 169.589 140.857
69.3043 136.496 271.049
42.9729 297.225 323.191
33.7548 152.013 253.022
40.8386 187.291 187.826
29.9176 108.158 232.443
25.4777 306.206 54.4604
13.7583 254.504 75.6104
39.3262 108.006 227.084
44.0923 194.341 109.008
70.6777 142.506 282.688
99.6729 93.1972 294.567
25.1862 260.219 34.9603
12.4749 175.035 128.976
33.5761 141.173 313.917
14 187.928 124.532
81.9033 106.829 259.178
19.8265 294.77 109.559
41.8956 78.2403 79.2353
55.9967 49.0586 283.542
95.8933 92.4475 10.3527
18.6172 231.176 62.1912
65.4843 159.862 16.6639
36.3139 55.3807 258.924
14.519 95.1295 292.393
23.4545 209.791 161.634
93.5963 112.01 6.0342
52.1148 122.324 331.922
42.0733 302.761 331.742
13.6496 305.748 319.466
65.262 137.48 249.537
14.8762 105.322 279.89
23.495 46.3788 84.885
39.5396 77.4677 188.781
42.7941 95.0588 92.5935
69.8548 128.409 248.648
15.257 247.896 65.406
68.5264 148.442 290.282
30.6725 284.919 328.9
13.7909 109.944 295.839
74.9783 119.653 260.806
69.2745 161.596 300.921
45.4353 89.7413 229.132
15.9013 179.404 162.736
32.9799 280.441 32.6621
32.8718 50.1722 78.2484
35.9144 295.701 40.8987
18.9236 36.1087 103.138
86.551 289.458 87.2272
79.7831 289.553 100.535
49.4582 135.74 323.889
70.7425 80.6239 232.056
37.3615 314.041 59.103
19.0069 50.9845 139.006
17.3857 244.73 138.071
58.2819 146.967 252.626
13.9455 117.411 297.77
87.2147 100.197 240.433
58.2105 59.1808 153.437
69.855 122.441 328.179
41.6125 304.614 324.757
66.1535 63.8134 83.8454
72.3885 125.145 277.261
45.1938 140.201 241.373
40.4907 316.98 91.2566
26.7451 111.636 328.132
50.5274 317.426 69.4904
26.0492 234.804 196.654
33.7188 128.675 234.65
110.759 89.4654 18.3423
27.0043 127.286 331.854
16.6917 105.054 251.93
18.6449 90.8483 310.981
46.5115 67.1616 326.49
33.2135 254.563 122.062
63.6583 112.64 336.73
93.9764 256.531 65.2933
64.006 227.846 53.3602
64.4037 33.5056 95.6397
49.076 147.103 307.204
27.5472 260.237 185.014
38.1365 150.195 299.029
66.8555 45.8623 143.826
49.3403 172.936 190.657
25.5882 231.661 99.7887
23.4237 274.548 215.846
21.3754 96.1117 121.554
38.3565 75.2204 154.212
64.9861 94.6855 114.425
51.3012 291.945 35.4654
29.9716 245.97 139.069
85.7803 107.253 288.88
53.0608 26.4113 127.713
70.4256 144.636 126.829
14.0935 159.429 128.295
40.217 262.804 125.855
85.5001 181.84 150.771
25.4231 300.887 109.989
72.1577 124.771 22.3975
90.415 273.042 92.8822
45.7259 289.403 323.427
17.242 161.113 115.638
74.2122 197.424 164.422
51.2331 221.059 93.0926
58.3977 72.9214 334.609
84.7571 89.8628 322.542
82.6156 281.619 102.064
27.2247 179.945 185.575
28.9977 311.227 86.6482
32.1999 311.772 341.841
57.5334 283.457 35.6563
38.5247 255.976 29.5465
45.0155 85.0409 339.389
92.4209 242.625 79.1058
53.4956 60.3604 322.306
26.4346 82.6091 241.72
28.6789 73.1072 246.77
29.3452 297.746 345.212
21.831 261.74 226.308
24.8659 231.281 50.9322
14.8746 128.363 276.042
60.8181 146.568 21.862
60.294 44.7689 83.1225
19.2526 265.891 192.854
51.1324 84.2963 337.543
27.5062 315.897 340.75
11.8369 55.7208 112.705
47.9251 294.634 310.824
79.9362 201.416 138.245
61.899 53.797 296.423
83.6325 114.156 320.441
39.7445 292.63 123.271
54.4046 52.3421 301.37
101.955 86.7623 290.656
12.5716 195.004 154.638
80.1108 86.6622 235.154
15.9743 125.363 286.539
36.9645 316.471 345.155
28.8134 142.99 307.058
46.6304 67.4646 157.244
83.3033 158.635 142.412
42.7343 62.0366 320.532
45.636 314.362 334.79
52.2545 290.505 122.69
40.2617 314.594 109.959
45.3169 209.243 172.304
53.7762 296.755 120.671
39.6716 51.083 281.459
68.3039 281.991 118.014
48.0686 267.001 126.783
60.4137 302.416 113.841
78.6162 138.232 299.363
58.2938 145.059 242.567
65.1567 150.742 274.618
58.6134 247.025 122.339
24.6579 134.924 310.38
91.3767 68.004 296.412
46.7474 104.092 117.558
15.4685 189.468 117.809
21.2219 146.89 158.926
51.2968 59.8073 156.948
29.7277 232.067 212.927
61.2573 95.2193 102.196
40.1516 78.8175 331.325
24.853 226.756 142.542
60.0756 57.234 315.508
41.7409 302.702 347.511
45.49 150.141 184.36
41.8365 65.5103 244.841
82.6283 127.615 312.752
36.1245 222.059 249.084
31.8178 74.3092 153.095
33.4095 110.788 222.534
42.5939 297.374 39.6706
23.9211 332.687 366.823
45.9339 278.089 125.796
76.3909 189.239 126.845
54.9745 134.737 204.694
19.5125 69.4855 294.429
21.8156 79.6494 320.897
82.7844 194.974 152.455
18.8428 106.252 319.095
35.5189 324.194 332.833
119.173 96.6567 16.6043
65.0834 199.535 178.936
66.5961 74.9409 88.4632
31.085 132.933 242.1
21.648 130.52 307.18
85.7742 169.83 146.281
66.2572 90.7619 105.312
35.3847 63.2366 315.071
43.5409 152.939 293.049
14.3154 271.99 200.035
11.8364 120.401 139.242
94.1887 259.056 70.7338
89.7913 258.551 104
21.0862 53.339 84.7058
15.1691 112.369 283.071
25.8149 265.57 121.09
19.0212 153.042 163.265
41.2096 311.537 325.922
95.1513 271.911 86.052
78.1552 156.005 167.252
74.2266 161.823 310.183
17.204 119.096 288.324
25.5061 241.987 114.596
14.3595 95.7133 285.172
47.165 25.8803 94.0583
62.0658 163.656 9.78662
44.2454 167.604 191.909
33.495 146.706 272.754
38.7557 283.025 208.709
33.9406 68.7482 321.677
77.575 232.737 77.9457
81.4249 128.462 299.371
35.2705 145.203 305.167
27.0758 86.8848 322.878
57.2459 304.019 46.2704
85.9002 63.8358 292.285
55.412 196.002 118.759
25.9826 178.222 98.3013
59.8569 233.333 108.778
28.704 107.461 238.504
105.352 93.046 18.9106
18.0307 37.6287 118.71
51.4304 96.9897 225.035
80.2699 67.9253 318.057
85.5427 119.418 297.133
78.1646 49.3869 111.649
79.3617 153.581 204.65
16.4907 263.857 44.9224
49.416 250.934 124.182
24.8715 301.387 342.261
77.372 140.008 28.6856
58.7145 316.693 69.2991
38.0196 142.926 259.44
16.1896 108.788 257.654
48.011 77.6806 153.983
67.1618 207.759 165.143
95.3555 68.8124 271.294
37.9676 54.7487 74.4424
89.9597 276.546 56.1834
18.4244 241.435 215.318
88.205 245.47 63.4717
37.2966 52.1363 290.561
50.9066 48.5096 286.648
13.1789 68.9233 92.034
35.0512 90.7796 231.231
30.521 82.2915 149.653
54.6407 243.832 197.886
85.3633 295.052 72.6714
83.5103 239.16 68.6374
13.1291 176.172 154.575
32.5916 243.817 185.52
37.5177 287.205 332.265
17.9064 88.6249 300.248
61.6382 27.6912 114.148
39.5757 290.071 35.7931
65.7569 140.636 164.873
36.1839 250.965 182.723
43.902 127.369 178.632
55.0104 247.454 222.542
65.8135 42.4182 90.5081
88.1563 103.591 282.558
74.6249 78.9982 201.707
17.2159 57.3746 86.9285
53.8534 60.8456 245.308
67.07 143.503 274.994
32.5253 94.1748 140.021
53.5173 67.6815 158.213
78.1457 246.004 45.9241
79.2873 121.246 285.594
88.2652 247.52 70.1457
40.7273 299.069 301.183
28.8862 291.623 324.043
34.3506 112.643 186.141
69.5102 68.6493 330.201
19.8722 174.012 104.618
62.1934 130.486 20.0015
45.8462 150.729 275.562
52.3401 166.49 101.608
47.871 82.0509 230.684
86.6291 115.879 199.524
39.4152 23.6656 121.685
20.5329 253.084 47.3417
98.0804 92.7773 313.052
70.122 49.9138 90.0126
17.2845 288.848 41.4636
77.8601 89.2273 331.596
16.8166 115.864 253.641
50.6591 182.086 190.043
36.9387 131.647 131.009
58.8284 160.498 317.385
46.5566 316.886 95.2402
63.8284 240.946 38.3148
34.9847 318.482 327.795
59.4092 50.7982 269.278
22.9565 133.626 259.374
18.6693 250.379 223.655
19.4236 149.753 120.346
28.0127 129.217 126.751
74.5322 151.355 122.932
18.3485 276.774 111.818
51.1877 306.529 49.359
37.0321 70.6319 241.407
42.4005 229.948 201.185
31.6869 273.428 189.076
74.8297 230.086 70.5006
19.0452 189.389 111.442
53.0672 132.184 230.73
38.2434 212.182 168.064
40.2182 297.639 115.337
26.6605 94.0562 269.154
83.4843 164.17 132.159
20.8765 144.137 151.431
46.5331 142.542 249.869
61.0446 85.3489 143.949
47.5861 60.9112 323.93
32.2343 193.43 183.016
78.4758 68.8942 309.085
78.0479 115.854 257.416
89.5981 255.233 60.9212
85.3383 121.7 193.01
13.4086 166.437 123.118
91.5383 252.152 73.5145
63.5963 131.572 243.297
74.6589 72.6869 174.153
32.6589 294.549 318.416
57.04 155.628 184.878
69.8943 88.7907 126.783
26.4964 92.8546 327.99
19.6875 225.233 85.0079
38.6569 196.865 182.072
71.1412 201.648 125.297
58.2646 64.1691 328.21
51.6369 282.504 126.68
15.4489 107.121 301.89
17.6693 207.147 130.144
45.8703 37.9951 80.812
96.7937 90.6859 286.681
38.5363 146.827 181.565
27.7923 305.908 117.261
53.3429 291.351 337.753
91.1658 102.515 3.54216
50.3958 131.523 154.88
63.5224 104.108 337.17
24.272 133.118 244.081
81.7426 106.729 281.042
55.3564 154.027 280.674
44.0425 313.371 311.264
33.1989 186.185 187.302
72.696 140.265 318.106
43.8937 172.054 99.493
49.6099 153.143 270.611
54.1701 95.9511 96.5577
73.2118 136.803 288.454
17.9686 316.648 327.405
34.3084 203.831 175.256
83.3884 151.929 24.9022
35.2254 129.842 227.743
63.1133 198.494 123.7
24.7135 146.59 295.12
65.8795 35.2986 128.511
47.137 314.105 107.047
59.9408 38.3261 87.7974
41.2699 320.761 343.313
15.1446 108.347 309.933
67.9803 237.043 105.28
56.0887 152.719 290.321
46.0416 72.45 183.521
65.386 75.3659 332.042
77.0306 80.9565 112.264
25.1916 44.4222 142.179
14.3054 77.3771 133.796
30.6229 243.463 150.01
38.1916 73.6526 329.092
20.1817 300.165 333.072
54.8469 155.251 105.605
79.8443 157.173 129.724
37.2442 289.124 313.65
38.2692 268.727 227.918
15.7357 281.74 46.234
80.657 262.085 107.754
94.1326 106.263 302.011
28.769 117.039 240.387
84.925 250.914 50.8182
79.0995 165.087 168.589
54.6226 137.447 324.094
41.6287 292.948 316.927
15.8084 99.8133 267.054
29.7376 312.823 59.5903
81.3617 241.955 54.1923
30.6073 287.622 336.853
23.5015 273.118 118.756
38.704 79.0183 236.059
45.9316 162.32 49.0515
30.7414 209.35 167.754
16.3332 305.989 312.281
34.0193 165.123 97.222
36.2854 247.368 248.663
23.5642 88.624 94.1236
20.7657 278.775 117.428
69.5236 48.4778 137.876
54.0452 264.576 197.979
116.518 106.905 11.252
64.6546 151.036 294.674
75.9857 106.584 213.641
19.0785 311.095 323.817
53.6134 44.6084 149.494
96.7413 275.002 75.6378
35.9867 28.6632 134.503
70.7402 180.83 121.068
13.2329 321.268 355.733
44.8147 154.037 280.458
52.1868 188.437 115.94
90.9821 97.4052 177.397
23.2451 161.785 103.307
54.3718 52.3975 262.07
44.0619 59.8682 250.016
17.9685 78.5837 309.06
46.3242 108.161 224.619
49.6751 188.81 187.456
19.6023 165.517 113.092
19.2166 181.757 107.528
80.7457 173.772 168.209
38.9001 118.698 172.726
54.6514 150.006 259.758
15.9218 95.1062 275.781
66.5332 179.131 183.788
72.7926 161.504 317.369
101.858 84.4398 297.409
62.2041 55.3867 303.544
83.2829 171.5 162.881
67.3749 66.8718 243.638
25.8867 277.974 202.628
69.2452 82.7498 97.058
52.8311 56.8679 316.487
24.4793 314.532 82.0696
22.7902 139.306 271.875
49.3744 23.4559 102.406
98.4897 90.8838 268.876
17.1377 115.834 308.166
87.2034 275.086 98.9725
34.9217 278.222 194.481
52.6582 147.781 240.393
90.6471 99.4734 275.728
26.1782 96.2614 131.431
76.2884 77.9003 104.091
34.1255 81.7959 236.887
28.4937 279.994 211.657
41.2751 55.3276 258.951
48.5728 72.0169 191.028
60.6777 49.0141 147.329
49.7414 147.248 1.96662
49.8057 307.434 337.45
42.0425 278.076 198.014
78.5586 113.534 4.41481
34.4271 281.276 217.068
68.4627 313.871 71.5884
78.0223 174.612 3.94276
86.6591 122.662 17.0613
44.053 323.595 324.066
36.9883 282.165 322.655
80.8497 155.029 156.877
41.9395 262.757 30.4315
39.184 274.78 222.195
92.826 66.4919 277.539
45.6361 203.038 110.931
75.1913 68.0063 98.3185
26.8998 139.926 301.291
30.0513 136.897 263.157
89.9761 118.816 314.573
91.9878 266.274 90.7837
78.0875 69.9337 245.4
24.9048 66.1974 78.8843
77.6841 261.573 114.222
87.697 260.485 51.9049
22.7438 109.748 323.796
75.5724 148.869 195.021
19.2155 304.762 99.6857
44.6129 280.912 212.325
64.0415 55.1238 264.272
33.9267 99.1521 133.745
56.4181 199.59 181.987
27.4275 39.6022 87.5841
90.3827 264.366 59.7138
66.7005 55.2839 144.345
12.9123 225.975 243.687
83.8201 269.247 104.715
19.3558 281.501 30.3083
59.1196 134.119 159.915
19.1679 131.257 298.041
56.559 258.353 126.224
82.3838 297.319 59.2356
24.003 113.389 236.341
36.3694 306.485 112.87
74.7419 157.948 302.849
53.918 75.0708 230.391
80.8409 80.7335 172.215
22.0831 86.3886 323.742
78.3726 111.499 252.43
38.4947 228.742 106.979
70.9966 263.662 117.435
40.962 136.235 121.322
94.0995 267.786 62.1308
34.7545 267.92 185.307
40.1289 319.545 100.281
31.7411 59.4345 75.2966
24.3716 298.651 37.2271
19.9286 109.068 312.879
114.099 99.7179 16.7206
61.1567 154.747 282.361
71.6997 117.665 271.363
58.2453 91.79 139.168
88.2843 173.452 139.733
26.3037 229.677 150.536
89.9274 111.693 302.002
91.2018 74.5219 310.72
33.1995 221.364 135.351
97.5984 103.865 296.21
13.8957 170.213 133.767
69.4476 56.3832 298.601
35.5337 99.4734 100.156
25.8632 296.452 312.992
41.2467 70.2919 155.984
86.217 68.5331 305.118
38.5095 60.7185 154.912
82.1126 252.632 103.088
32.307 119.801 220.104
80.6482 303.409 74.3768
25.0958 189.89 102.782
69.0616 71.9497 237.054
30.4886 312.325 308.043
37.6801 134.276 230.616
74.8374 150.657 214.981
67.1981 293.036 114.869
100.948 94.7981 300.142
24.468 36.3819 94.4443
27.6651 290.373 31.2924
36.1281 234.326 149.655
15.5252 64.9428 90.569
71.8324 64.4005 247.675
22.0969 272.673 223.641
75.5648 61.4723 305.393
49.8191 223.749 101.8
48.5855 53.7643 307.181
43.4213 216.264 161.19
48.8667 50.6129 296.102
58.4129 29.7661 95.7426
42.8076 41.7955 77.9108
34.2785 83.0943 188.611
39.4232 140.07 245.268
55.7565 88.5575 89.5227
29.8567 146.541 108.903
85.6219 175.909 129.753
23.4382 63.3063 294.897
57.8938 50.9451 291.356
24.1632 214.054 152.688
100.452 89.2171 305.08
43.071 316.513 66.4826
57.4703 70.2135 192.96
56.933 35.2864 140.447
58.9969 101.054 341.988
100.339 106.858 5.9723
86.092 250.892 91.9989
31.8991 107.605 173.554
85.8972 111.758 177.619
94.4451 99.1651 285.778
85.7668 290.193 60.8596
28.5944 236.438 154.209
56.7331 106.638 341.502
33.8872 141.052 116.214
54.9773 168.814 189.121
83.3986 103.574 264.59
48.6515 153.809 288.107
33.1564 173.929 96.7404
17.7353 116.32 301.628
22.9088 315.583 110.922
73.7664 134.242 322.292
36.0793 150.457 266.03
45.8667 142.72 234.209
75.1157 99.857 342.817
49.8853 156.958 281.642
33.535 62.3245 255.838
36.9117 53.0485 153.496
37.4114 80.2376 177.636
54.5688 277.285 126.61
59.7234 30.161 130.498
55.1149 153.394 252.947
46.4863 125.176 227.2
94.3919 149.062 22.0849
78.976 277.872 108.938
13.4896 82.7594 119.812
35.2543 28.5391 93.5999
38.2701 150.07 258.531
79.9953 116.806 12.3775
82.3844 256.265 44.9029
41.2034 224.581 100.63
18.4305 234.379 150.031
16.6608 322.127 365.936
56.8708 204.323 120.077
86.956 262.788 99.9487
49.0338 77.8098 199.965
61.093 88.7858 226.858
17.3929 301.34 60.5974
86.5011 123.882 309.621
59.9201 206.273 179.002
64.4537 51.0015 285.698
60.2162 291.933 121.186
34.7925 208.073 106.839
45.1006 73.8819 177.039
72.3298 115.861 2.09216
25.5497 216.535 136.112
46.0796 179.037 104.769
32.0096 258.014 32.9335
36.4872 90.264 87.9685
55.5658 124.746 234.255
93.1398 80.4689 312.002
74.8365 252.083 39.0211
84.0485 237.987 61.4711
18.4687 145.711 139.685
14.9611 119.4 264.381
50.1954 239.438 200.992
83.4438 185.592 132.021
71.7826 156.828 114.973
23.5729 128.287 251.74
68.3185 60.444 319.774
50.8153 265.352 219.663
56.5419 55.4838 251.16
60.5008 225.749 98.0736
40.222 48.0063 75.9718
72.6335 130.531 187.196
49.2166 115.784 337.143
38.7641 38.8667 83.2647
80.302 191.963 159.443
79.7691 269.861 116.182
33.094 96.1813 336.46
90.9743 280.103 76.5257
49.8144 295.448 340.617
16.5488 248.185 99.5556
72.8706 77.727 133.77
22.1563 301.58 324.048
53.8694 136.616 169.976
22.1245 88.106 134.263
26.2397 28.3472 109.151
34.6507 25.4613 101.702
33.8023 290.017 34.8532
57.9215 62.9649 241.007
33.5176 149.941 247.302
25.9055 50.153 80.1945
28.7791 251.613 185.001
31.604 298.347 41.6004
56.7398 84.7861 335.879
42.8777 234.747 194.791
83.0774 103.336 274.085
28.3462 237.841 227.848
67.4768 84.2685 138.624
49.4973 103.497 340.677
92.0249 238 92.1366
82.0905 84.0521 201.281
90.3737 117.975 307.539
44.4265 219.987 64.5678
81.9264 181.398 164.742
42.9453 80.0988 168.839
33.0731 230.497 48.8788
67.4174 159.354 321.482
52.0646 56.9853 256.216
23.9862 108.023 270.008
43.9956 121.825 167.375
87.1118 249.693 57.2959
66.7228 90.338 225.141
84.6604 166.2 6.94979
29.8007 106.371 328.129
15.8114 242.708 8.31883
39.9698 248.547 32.3984
48.9156 21.3423 114.809
32.0998 139.541 246.747
20.9428 129.226 150.85
77.4303 94.6951 214.074
112.054 80.4412 7.17873
24.6946 201.671 173.277
96.0787 103.773 11.6114
39.1534 308.305 51.2218
44.3313 224.339 129.856
65.3141 152.364 322.901
41.5219 95.5349 140.14
24.4816 35.3742 133.231
100.991 91.593 281.11
36.8104 248.349 122.073
52.2155 223.95 133.459
90.7286 98.7903 260.234
55.5631 97.7001 132.979
50.4917 273.681 201.937
48.432 62.7006 246.393
24.3722 141.755 291.713
65.92 301.601 108.348
62.3315 239.505 116.283
77.1354 113.31 281.702
83.9261 122.339 302.722
57.844 186.712 184.972
28.3279 215.326 119.156
81.0793 113.665 289.063
23.427 148.017 167.752
89.2844 98.1609 247.502
54.5203 111.733 340.819
31.3029 221.051 80.5692
57.2597 213.671 121.863
83.3967 83.158 240.446
23.2734 141.345 132.363
38.1437 132.02 143.235
12.5621 235.251 266.933
44.8288 186.204 105.41
66.4982 140.089 132.163
100.463 83.5321 279.726
70.9457 243.378 42.5103
70.4703 123.32 213.498
85.4015 190.093 146.079
41.9554 221.327 121.151
57.8695 176.156 188.218
84.5544 192.547 134.238
32.006 39.3779 142.842
47.6834 273.595 195.259
43.4189 114.664 205.273
49.5726 72.292 75.1566
45.0982 80.3305 335.383
69.365 190.004 125.474
91.9601 265.102 84.6356
59.1121 90.1059 338.889
32.9269 237.755 43.5523
47.1891 119.365 223.153
25.254 120.37 122.927
66.7403 210.163 129.426
93.1545 88.0022 317.267
39.4164 129.523 324.039
105.459 78.537 9.55325
26.899 319.794 317.596
86.8136 253.583 96.703
67.1954 116.357 5.99728
48.4144 278.397 206.968
82.3127 263.488 44.1785
44.9466 133.97 159.112
66.3046 269.088 122.228
66.9443 96.0104 336.869
89.935 109.052 320.886
78.0005 94.1475 156.69
31.6785 272.721 123.643
59.248 221.103 60.3176
39.2561 313.709 101.116
50.6284 181.241 112.416
44.6053 248.519 186.827
69.9075 58.6941 305.955
28.8206 266.473 229.449
39.6035 235.37 115.478
63.7073 218.882 141.735
47.5408 75.6797 331.895
63.9943 145.809 260.201
103.413 103.385 17.6255
63.9604 162.71 205.944
28.6007 29.6846 96.7822
28.3584 212.906 112.379
48.5523 222.082 59.0651
52.6303 157.244 1.75301
96.7434 86.559 259.014
88.3696 100.592 268.359
22.6658 245.198 150.996
58.9543 96.1617 338.292
55.3122 62.27 76.9483
52.839 160.762 187.197
41.0672 35.5942 142.703
39.4977 105.263 117.843
64.4398 51.6808 276.053
26.7565 244.56 44.5838
37.6127 135.14 236.999
76.4502 63.9399 254.292
108.418 148.357 6.85383
22.0892 241.649 192.82
83.2566 162.464 158.472
96.0841 84.6987 305.778
87.9128 142.88 28.4498
85.0372 103.605 322.88
48.8392 136.528 118.906
28.7775 65.5446 152.225
71.1222 161.811 200.125
82.0154 99.2977 207.403
59.0359 222.089 87.5038
23.8089 185.022 145.573
76.094 119.359 166.765
56.5112 244.418 34.2214
44.2696 282.573 31.9878
96.5147 125.779 11.6495
21.823 253.731 189.354
82.614 238.576 83.9766
43.4103 283.919 331.991
57.0447 158.253 310.238
60.9436 284.031 122.043
40.1272 150.52 270.514
55.7761 219.222 78.7125
33.6287 33.0207 138.567
43.152 123.515 328.935
75.9499 134.908 311.688
55.6481 142.055 114.495
54.6179 116.135 227.12
76.9474 106.98 268.09
31.4466 227.013 58.8196
42.5337 159.857 98.3461
34.5608 66.5435 251.435
102.984 146.079 2.55916
38.339 44.7684 149.954
33.5743 280.715 203.328
18.641 122.956 301.853
68.5583 126.845 255.91
70.5918 55.139 292.445
21.668 267.459 220.992
46.5614 299.787 118.754
24.7924 155.987 106.534
42.4484 232.206 208.84
90.4111 282.043 84.1825
91.1038 64.0979 284.758
82.6192 101.206 164.332
53.9761 75.8695 80.0066
93.4358 241.7 85.7792
53.819 151.387 193.198
70.4976 114.836 336.201
32.1429 289.746 121.454
75.8014 126.785 281.577
16.6717 123.025 125.02
42.1839 282.646 326.463
50.8264 129.664 328.629
70.4323 65.4998 140.879
38.4309 95.2155 163.306
50.4593 218.736 71.7466
40.4514 238.681 188.733
81.2378 88.5935 164.255
51.5412 130.218 173.37
39.5451 102.08 127.81
32.286 124.889 239.312
57.3657 116.077 335.945
75.0356 177.965 176.78
47.5338 153.659 240.679
47.0807 48.161 152.396
89.4747 67.6481 269.741
66.5876 69.5151 321.141
65.4155 233.708 47.1127
21.0271 236.73 200.334
26.1412 58.5626 297.837
59.0874 137.588 123.684
71.2998 152.84 23.6701
84.453 61.9782 275.912
92.227 107.606 314.155
85.3841 106.795 204.67
53.2342 293.899 332.754
61.0167 71.1802 82.7704
36.5802 65.2374 75.0838
29.7069 156.069 100.345
100.327 144.525 14.1888
55.0881 158.959 204.713
98.7561 84.0103 264.448
53.9755 210.488 174.538
32.1579 223.323 89.1992
63.6571 215.859 159.207
19.0702 229.556 236.583
48.0391 93.8293 338.244
43.2773 278.975 340.056
80.7094 89.2508 206.33
83.0282 101.787 333.542
54.748 82.3507 83.6758
57.0681 137.662 214.299
66.0424 172.469 114.082
50.7632 216.071 163.913
107.27 145.747 15.2063
56.2711 314.648 61.7495
37.9541 160.563 191.976
64.7249 114.82 213.661
72.957 119.514 254.655
83.8815 83.4038 181.895
80.6054 295.519 92.0225
39.3181 121.464 226.287
14.1869 123.316 267.479
64.5311 53.1605 84.6445
69.749 138.767 152.07
62.0156 70.3198 150.875
75.3571 284.165 109.303
92.5364 72.8048 258.24
64.2554 217.757 131.81
64.0252 58.7292 249.113
75.8266 97.0829 334.913
18.6238 120.993 271.974
74.948 61.2964 298.032
29.2251 249.262 38.9878
48.646 103.315 104.227
25.2886 101.329 270.694
55.7054 146.089 1.7936
61.1298 267.532 123.712
45.8519 232.219 43.2338
61.7025 62.4931 318.968
44.5098 131.505 149.38
98.6693 72.7608 279.234
57.6212 109.957 225.154
75.1264 75.3481 329.878
13.5993 117.635 276.675
66.5312 64.5808 146.227
53.6212 221.537 57.6879
62.0733 315.556 78.559
117.48 138.796 10.285
66.1777 140.923 320.13
29.4825 305.848 344.845
87.6154 63.2277 266.93
71.4149 134.58 209.685
98.6479 76.0189 285.059
44.9079 113.699 157.71
45.2292 99.3927 133.806
95.5626 162.181 6.4881
51.8494 108.422 149.77
49.2765 220.056 121.074
75.8791 304.735 64.9164
32.2973 43.1516 80.3012
36.0715 76.3766 324.317
52.1348 148.193 217.915
43.5982 314.426 57.7552
65.2932 313.4 93.0931
97.1723 157.512 12.9278
35.2934 136.091 123.181
44.51 309.408 47.9938
34.4022 242.018 267.744
82.7599 103.368 3.5037
67.6526 134.249 326.796
55.3281 57.9221 309.687
49.7873 260.876 191.523
53.6787 27.8095 93.3973
94.0972 154.343 1.93703
38.213 133.461 161.891
18.7413 233.863 87.2622
39.5115 66.4245 323.381
25.9547 203.72 108.084
46.1049 120.328 331.065
40.7264 100.259 206.741
84.2946 89.8065 1.61277
74.1002 75.2014 95.7241
66.4327 147.601 220.179
37.17 183.62 98.5069
69.0011 130.384 260.722
41.4052 25.5201 96.0428
70.4335 114.975 211.849
56.7189 95.6881 217.786
60.1902 80.2682 334.108
36.9826 116.34 200.045
82.842 129.731 25.7902
28.5369 307.163 108.146
76.2995 148.807 139.966
72.137 72.2424 321.432
72.9823 60.5358 314.702
80.2644 115.821 206.102
93.0005 83.0912 246.784
20.504 126.166 233.432
13.0856 148.778 260.899
71.0888 253.579 114.782
58.3426 152.804 297.334
53.1175 314.138 101.335
54.1189 316.429 93.9933
39.0471 305.084 43.5268
34.8712 235.447 196.023
74.5153 65.9487 325.665
59.7234 151.119 219.738
67.6938 93.1414 121.852
72.3827 144.585 312.274
57.2469 220.927 141.243
38.0044 144.263 108.855
73.9565 309.077 72.8952
49.6713 74.0502 166.722
56.0532 148.849 308.266
22.4911 55.0603 145.701
42.9524 132.452 226.38
59.1615 67.8715 155.877
37.6864 88.2249 198.722
74.9236 145.39 147.652
61.4758 67.0502 238.144
38.4471 81.7977 193.51
63.3719 190.916 180.109
46.0733 105.592 154.979
65.2695 278.074 33.6117
64.6344 147.01 267.52
70.5413 141.181 161.103
30.2933 214.572 257.286
78.7272 111.042 237.993
40.6678 122.254 198.037
47.7037 321.114 327.415
43.5314 90.7881 147.13
46.3523 131.545 130.362
65.5976 82.3385 229.086
59.4715 168.616 109.151
46.3693 96.2534 196.142
60.2222 313.863 95.4547
47.9565 129.974 190.19
81.6245 121.353 316.011
48.0078 134.772 236.929
46.1292 193.996 184.925
68.427 227.801 82.7698
31.2531 310.962 113.872
69.5766 136.857 262.929
66.9071 315.106 81.5723
59.0996 132.342 218.528
71.7958 55.1765 270.182
78.718 180.821 124.559
42.0318 240.625 36.991
25.0151 305.572 93.1711
48.2507 234.708 115.372
94.139 88.9317 310.403
44.2835 29.6249 136.259
92.2437 94.793 266.988
87.0167 176.798 1.6094
29.0943 218.092 145.01
92.0364 263.087 73.8264
102.787 133.672 5.21359
50.4667 30.1816 138.177
96.8409 149.147 16.0444
78.8465 108.679 342.322
85.9588 103.791 251.735
24.3851 60.9034 149.422
60.7027 220.62 75.561
52.7607 318.853 76.6771
57.4894 272.777 124.837
44.105 32.2815 87.1041
35.5004 258.324 181.856
65.427 210.312 173.117
102.903 80.8869 290.432
54.4763 54.9179 78.8072
51.5166 248.166 191.919
79.5008 204.447 146.675
88.9447 116.869 3.68497
46.3552 97.0275 154.978
47.5059 139.447 169.815
46.1053 87.4708 158.87
46.3036 62.6293 74.1041
39.3972 83.7169 150.518
76.9527 144.393 297.158
76.3745 190.163 168.697
87.5137 81.2246 316.601
50.0496 139.009 232.853
82.3533 97.3164 327.853
55.0258 87.3705 148.006
24.0725 58.7285 291.776
53.4941 238.596 214.344
69.5794 212.504 142.152
79.8641 124.451 182.387
48.9661 153.938 246.735
32.9722 22.7432 107.574
67.086 122.233 157.612
61.8205 94.019 208.354
50.2066 103.442 215.518
52.3673 147.389 179.707
55.4589 24.8838 107.45
90.7653 93.8762 320.91
119.632 100.753 8.11947
18.0893 269.816 209.823
94.94 79.0114 256.965
98.3121 81.5887 1.64295
86.7001 235.51 85.2385
64.8168 123.627 233.885
35.9199 108.45 232.068
78.0684 131.419 295.466
92.4071 275.063 79.7959
52.9525 128.112 164.595
11.9556 179.977 169.477
59.2682 122.686 333.511
23.4145 128.409 246.43
52.9766 82.0265 159.043
48.5502 148.525 106.51
71.3081 57.3617 262.706
85.338 119.238 183.934
90.1583 89.363 243.207
26.3153 237.886 52.0539
46.2089 116.66 230.035
63.8246 89.9378 336.104
61.7986 91.2664 95.3515
73.5165 142.952 290.421
65.7542 228.947 97.8255
72.4598 230.108 63.9578
39.3446 220.361 145.827
74.0482 59.0347 276.815
42.9351 122.984 229.633
56.0647 152.255 265.498
13.7344 151.667 265.963
76.0535 96.4859 227.36
67.8746 70.6954 191.986
66.93 225.327 60.7241
103.661 153.278 11.9085
16.9339 112.942 143.282
93.8654 88.5658 253.165
94.5865 82.868 252.111
52.1484 143.698 245.301
20.5633 173.506 141.339
107.395 156.213 6.01071
32.6003 250.403 259.157
111.103 128.294 10.829
63.6298 145.343 318.742
91.7174 163.857 12.7007
52.3562 161.814 295.531
70.1142 75.5364 330.399
59.4685 180.348 117.877
87.4176 113.324 9.64483
30.2505 224.025 65.5997
74.2095 84.1766 218.736
24.531 94.5817 276.798
85.3839 73.7924 313.248
47.0471 99.0477 98.029
97.2573 98.2293 313.723
95.357 134.249 27.0967
63.0614 126.767 332.382
73.1573 117.303 242.713
28.4319 171.542 148.525
87.8011 79.1825 244.28
35.4294 99.1557 199.61
59.9733 59.2177 256.319
57.5106 227.357 49.1729
55.5497 124.781 226.615
90.7134 109.193 197.151
90.4979 233.992 76.762
27.1691 222.922 224.191
44.8811 253.228 230.683
46.8192 120.504 161.062
71.0054 99.1044 332.486
29.0492 225.429 235.767
21.1287 318.847 363.218
54.1674 156.858 213.412
38.8805 196.819 104.972
71.1942 226.93 76.3246
72.8 149.983 171.652
50.2757 126.377 230.074
71.99 286.534 44.5814
74.832 113.724 334.523
69.4172 53.5529 280.431
62.5505 150.026 301.244
55.1504 317.635 86.0324
65.8329 39.9868 137.158
96.7277 93.5005 275.103
25.0719 298.912 327.606
71.9269 292.258 108.169
57.7234 126.782 158.952
65.9229 141.297 120.537
70.8654 125.549 203.59
43.9731 71.8585 330.791
38.0898 110.325 166.181
74.4471 237.382 98.2248
58.4371 104.595 224.22
72.7971 234.994 53.3799
93.24 269.954 72.4112
81.6148 112.829 335.512
70.5023 94.2101 117.247
47.9214 91.374 197.287
67.9825 127.07 330.714
63.016 75.2035 165.245
52.3802 250.579 30.5444
118.649 83.5144 6.22254
59.9899 132.939 171.989
79.3078 75.2422 321.986
47.4528 269.369 220.703
67.05 136.625 215.861
27.5397 125.644 241.518
62.0807 132.681 324.346
84.6095 80.1716 322.264
80.6606 124.012 290.973
101.178 94.5285 285.782
54.5775 131.652 217.832
88.8351 107.741 295.305
16.873 260.197 71.0166
84.5273 106.05 243.417
80.2869 93.6332 233.469
75.9255 276.293 40.8183
56.472 133.997 183.472
56.1899 159.227 196.767
14.2272 276.503 207.871
66.3237 131.578 208.707
54.6118 131.584 130.85
52.4599 91.5913 213
100.953 112.006 3.77663
59.0271 74.4335 199.861
95.6577 234.248 85.1406
82.4994 69.336 253.674
60.5493 53.4476 257.059
68.8057 162.937 181.026
56.2919 141.759 191.239
83.2617 109.986 1.25514
41.9806 70.5118 74.6472
12.2604 1.15136 37.8929
61.1449 222.5 67.418
60.7044 114.214 150.073
54.1778 126.923 202.013
73.5881 141.286 217.014
50.4237 115.107 211.872
51.6251 131.291 146.173
25.865 131.537 315.972
71.1023 167.051 115.761
58.5848 187.732 120.4
52.6903 124.604 157.929
50.4174 83.2095 206.409
47.5622 300.116 39.012
64.5167 157.86 108.971
75.6964 126.528 329.421
63.8235 55.8034 309.315
77.2331 125.371 197.354
94.5753 72.5308 300.668
16.4293 237.659 90.7163
55.7638 224.017 100.516
63.4076 53.6399 315.93
47.1571 25.1891 128.422
31.7952 240.187 118.065
17.4572 216.822 244.31
62.4066 218.488 150.382
120.179 198.213 6.1191
76.5492 209.393 148.818
55.179 236.056 39.6976
90.1191 68.4131 261.091
59.0932 132.705 329.18
66.4175 134.979 185.063
72.7978 172.518 180.994
66.2972 136.473 143.285
74.4888 83.2566 329.413
74.5818 165.292 177.359
65.9877 136.498 192.268
67.3833 106.646 149.973
33.8567 244.81 231.041
89.7582 114.618 319.33
62.8652 96.6929 224.025
56.1365 220.009 152.597
65.8492 79.4967 206.338
77.9018 60.009 269.077
65.709 133.623 173.641
65.6838 250.079 35.2141
19.4691 122.039 238.78
69.2208 91.2845 330.798
94.0701 101.577 316.873
66.2064 128.617 164.289
64.4561 146.555 188.046
18.0865 235.435 271.843
75.2074 179.896 1.36235
63.7126 130.469 194.417
33.3736 305.389 47.302
84.6646 285.266 53.4983
95.2791 93.3291 256.412
56.3375 139.849 2.63811
25.0664 111.855 265.552
28.8039 281.33 202.111
81.9549 120.016 177.271
35.3417 75.0847 241.957
65.1838 119.375 228.235
63.8119 68.5236 177.675
60.7512 153.121 292.5
64.1899 91.1681 131.114
64.8428 88.7629 213.652
13.5075 92.132 314.35
74.9437 74.4736 190.004
72.057 145.604 302.632
70.0695 158.018 214.799
73.3427 185.992 175.953
43.7889 104.011 210.438
76.0142 166.071 114.239
71.2574 88.1602 334.683
63.4216 105.971 218.762
83.8416 279.889 47.136
76.9446 116.616 247.683
16.0966 104.096 313.994
120.212 93.5653 6.52158
72.5065 141.912 298.6
57.358 127.823 1.39773
67.8094 171.039 1.502
52.915 164.295 1.12276
80.4213 122.288 18.9044
23.6956 251.055 261.438
73.3448 231.936 90.3091
83.6535 272.422 43.9956
68.2865 156.487 190.901
118.469 195.371 1.4126
61.6124 247.098 115.076
70.9484 84.8569 211.208
56.0852 107.271 218.148
14.8885 264.552 207.954
77.3786 172.626 174.19
92.48 283.37 62.6651
59.4647 152.957 320.811
28.1131 250.745 261.267
75.7823 296.945 100.657
58.9687 143.26 175.791
79.832 60.1364 282.905
69.6677 153.682 299.011
63.7582 311.195 61.0225
42.1923 135.268 163.015
57.5771 80.7476 207.181
21.6333 172.193 148.683
