ply
format ascii 1.0
comment Created by Open3D
element vertex 1008
property double x
property double y
property double z
end_header
17.0165 172.288 199.288
51.8162 161.774 152.244
45.7836 156.085 194.474
36.5969 202.694 156.164
22.3596 193.087 200.364
79.6747 150.537 105.873
56.972 156.218 187.462
45.0328 192.578 157.345
32.6892 180.02 126.234
38.0037 125.482 136.511
35.1164 213.878 216.297
67.3343 129.659 104.225
17.2012 176.247 254.348
56.1932 188.559 229.069
34.3814 181.586 210.897
31.2163 137.387 111.801
75.8857 115.984 42.8937
50.8297 187.554 124.848
70.7576 197.234 164.132
46.113 125.218 127.276
42.9471 132.814 121.294
22.7076 93.133 59.7848
66.942 85.5758 93.5875
18.6136 21.9977 27.443
38.5306 104.646 67.0364
14.8478 193.262 220.734
21.7517 204.187 237.054
50.5739 138.548 154.569
41.2253 173.691 147.153
50.6748 155.58 207.121
77.4227 111.142 103.819
41.2689 79.3192 81.9692
86.6383 120.029 43.1906
65.5221 140.955 98.8152
48.3922 186.252 133.82
64.9058 220.396 187.584
69.6948 49.8832 51.7788
29.3364 214.952 233.287
67.8062 120.239 50.187
83.3737 148.677 73.1063
38.5971 113.392 53.1078
67.5117 230.671 142.374
33.4809 197.94 149.36
88.388 154.742 117.091
29.8913 193.998 254.59
16.912 171.688 263.573
15.1988 91.7648 61.4299
48.3717 141.868 100.907
17.2133 201.898 207.798
22.9023 18.9475 38.9729
33.6585 183.435 203.192
52.9042 92.8143 62.7008
43.4101 186.512 262.875
52.5169 188.741 162.652
75.7897 146.03 65.5687
53.052 84.7511 75.8092
32.3821 202.974 202.229
44.7677 157.488 166.801
82.3927 147.047 64.0729
15.968 107.358 76.6357
13.9693 105.083 65.5441
18.5242 180.881 184.189
81.6075 119.227 35.465
51.3114 140.092 173.315
75.7637 174.551 155.504
39.472 203.146 190.344
72.9375 226.2 168.911
15.4968 164.122 268.009
58.3664 137.541 75.1227
35.6679 170.007 106.882
17.6067 182.986 195.869
49.1193 155.76 117.399
72.0397 221.788 189.198
37.1345 162.385 154.614
37.568 85.9962 65.1947
48.4474 155.116 106.734
57.5577 65.4162 47.6777
87.8446 138.061 51.08
62.4386 163.741 159.682
44.8854 107.906 74.6104
14.79 186.12 214.757
41.9112 78.3286 73.9564
69.0222 122.685 134.68
30.165 24.5317 11.8704
36.5856 219.231 229.523
32.4192 193.498 141.311
27.2812 205.743 241.384
39.8418 162.61 240.27
78.7444 41.452 55.5726
60.4509 89.06 91.6022
25.87 199.465 247.166
72.7944 137.303 102.686
15.2528 187.31 235.331
78.854 45.0045 74.5685
28.6524 185.74 120.587
15.3184 188.177 241.855
31.5664 162.999 119.173
96.7163 126.998 44.419
44.1445 153.721 160.653
21.3106 182.057 265.66
48.352 146.181 201.652
39.6535 172.546 196.057
68.8061 155.926 100.647
26.4542 169.103 244.457
25.4341 20.6272 27.9218
46.6459 70.2299 72.1372
37.7273 134.583 142.015
69.1615 146.445 73.6244
40.9806 20.5739 19.4389
43.9915 29.4437 38.3258
81.4903 51.5999 39.4444
86.7678 59.1839 89.9356
26.1138 175.012 190.596
34.5573 169.7 249.886
16.6614 197.132 234.543
47.3069 24.6449 22.2
49.6657 170.281 177.944
58.0361 215.327 155.449
42.8862 167.931 204.833
37.6328 170.603 231.194
56.4941 116.371 126.322
30.1118 209.28 210.143
57.6846 195.1 122.946
53.3906 112.609 77.6939
87.6111 66.4453 91.4656
68.3782 174.849 152.851
68.7057 221.062 153.792
21.198 208.381 215.065
73.1662 60.1954 37.6482
44.637 173.849 235.615
22.977 208.044 207.994
58.4319 195.432 160.737
35.1915 128.246 121.268
29.625 185.497 260.652
45.7132 180.409 164.381
26.8257 154.26 139.777
14.9996 189.369 203.641
38.6775 180.885 138.68
14.2626 183.769 224.594
43.5363 191.845 146.889
48.0875 216.958 194.998
35.0752 191.029 135.761
19.3708 109.364 62.9897
78.362 144.123 57.1134
34.0078 125.145 111.06
47.0061 203.087 205.593
57.4311 226.06 167.046
74.4104 101.58 102.69
61.5419 195.647 150.59
80.591 202.796 120.74
33.4852 118.906 114.134
59.6982 126.517 92.7628
80.562 148.297 80.6416
56.3038 104.746 49.1202
60.5546 137.847 101.118
13.675 91.3707 73.169
62.139 146.83 176.674
21.9588 28.1528 12.6572
69.6584 222.378 142.019
37.5287 191.368 259.859
61.4672 179.659 157.787
77.2555 212.297 128.275
87.1722 51.6402 82.9069
27.5912 87.7918 80.9134
78.707 223.131 185.689
57.8926 156.195 163.874
55.0179 71.3782 53.1581
67.6579 66.1901 91.4553
29.7014 163.992 142.211
44.6821 99.1621 64.4805
52.6107 218.884 158.211
25.113 105.258 81.9497
82.4838 225.177 6.71278
71.6005 141.433 59.2794
55.6297 127.621 102.239
61.184 101.614 93.5264
54.0085 173.386 192.473
81.19 144.36 108.048
51.7893 209.539 146.788
61.9878 226.916 182.981
82.3517 209.674 125.049
38.288 136.178 124.917
43.4232 136.083 141.277
22.6989 179.654 247.837
22.8234 173.321 265.439
60.6748 221.492 142.778
87.3229 112.509 31.3597
56.0771 83.3421 84.1361
25.1154 259.116 105.662
64.9523 132.036 62.8842
26.4078 201.321 200.653
74.6008 77.8155 96.5874
19.1645 189.752 229.311
80.0189 59.3398 35.8506
42.7254 167.472 112.02
20.2598 174.753 242.208
34.2168 190.112 200.175
56.4182 167.437 111.194
31.9446 17.6367 34.0107
61.0299 116.916 89.4568
70.5293 110.915 103.362
32.436 197.88 245.98
46.2472 177.805 155.534
41.9324 187.62 215.464
16.694 178.872 230.138
96.7735 122.804 94.415
36.5068 174.945 182.536
66.3982 194.994 118.4
50.6496 227.781 189.262
42.0011 154.481 108.375
64.3237 142.995 72.466
52.5837 166.604 167.342
57.1644 146.361 99.5648
60.2851 91.8065 40.5624
58.4437 167.49 148.344
91.9197 81.0171 39.7191
63.0865 200.474 162.199
56.7106 222.54 150.08
58.837 120.205 131.933
50.3948 26.6711 30.8961
71.155 44.3226 58.4831
49.5054 231.639 181.392
31.2202 170.022 124.017
44.5208 151.815 185.457
55.4969 153.182 196.065
63.9913 225.461 167.448
73.719 54.8608 87.2379
63.5544 72.9955 90.4002
65.2171 141.58 62.7194
72.4638 129.713 139.039
56.2873 132.264 67.1543
44.3733 190.627 236.61
106.907 14.7534 44.124
68.7344 67.36 36.5815
16.7544 179.407 209.275
69.7226 149.627 105.227
85.6597 38.8296 65.5138
48.7991 35.3963 24.4511
65.6946 205.796 127.839
34.2744 165.581 241.876
39.4579 148.955 113.659
72.0979 210.235 142.202
44.7155 202.044 191.959
23.0212 177.028 214.788
60.4236 162.653 168.899
45.5894 183.764 150.26
45.4969 136.649 148.395
88.6651 212.603 127.064
20.142 198.18 241.876
64.4288 82.7244 36.5358
16.7296 194.705 246.711
38.4049 159.264 110.06
44.1211 210.464 194.51
56.8491 123.536 87.3662
40.0205 143.842 128.495
24.3993 72.6499 68.3858
29.3468 27.3376 39.1827
25.2039 29.6545 28.6295
34.3446 173.796 118.571
31.0154 217.2 223.488
80.0718 75.4001 31.1222
27.9982 112.325 67.024
54.6415 188.517 219.68
76.2438 43.0076 65.8254
76.3452 117.289 115.195
61.4462 129.222 103.694
77.765 214.744 138.778
75.8275 214.68 187.922
29.0945 94.855 83.5719
67.9771 61.6702 40.3256
44.9434 152.352 171.954
73.9123 148.438 78.0437
53.9719 193.935 214.212
68.3946 103.277 101.241
36.0637 190.095 190.712
48.1924 192.051 114.132
25.0471 104.056 61.8584
42.7039 159.934 202.781
51.4581 174.867 149.431
83.4823 143.936 55.7822
78.4241 49.6953 81.3571
102.01 23.3893 53.2065
68.5566 135.251 168.5
59.7959 132.617 168.706
52.2793 120.06 74.5631
24.5596 179.097 206.352
70.8466 93.2134 32.8481
59.2777 188.602 154.995
44.2625 128.461 138.182
34.8662 148.967 122.941
57.2379 72.7223 44.863
42.281 113.464 62.5123
75.1709 187.536 156.546
37.9514 141.548 117.486
69.5435 144.876 85.3996
56.6471 65.243 54.3917
70.1992 163.567 169.145
51.9298 97.3374 53.4451
15.1054 194.552 208.397
36.4337 13.1913 39.0302
51.0546 114.43 69.6932
77.5009 66.7946 94.1183
50.4731 135.059 132.38
62.0364 214.076 137.5
40.675 201.267 148.098
93.5226 72.6618 32.2109
16.6316 201.292 229.364
88.1868 127.992 43.868
116.62 26.5281 49.7745
56.6099 208.564 198.039
21.2452 187.494 251.014
44.8933 39.7926 34.5066
58.1552 144.181 187.198
75.0819 123.994 43.7701
85.1093 112.074 104.92
71.8878 103.252 33.2421
20.1821 26.3485 33.3829
45.9037 147.192 190.451
71.6768 144.72 158.372
100.991 29.1613 60.2055
67.6029 115.632 43.4652
41.5127 170.026 242.414
66.1566 215.553 195.182
76.645 146.552 88.4176
53.2424 216.234 145.139
35.0757 157.401 117.607
56.1289 179.428 152.777
40.842 204.869 242.883
87.9179 77.6592 30.5785
70.0328 44.6383 68.3764
66.1748 77.317 35.4216
32.3652 33.8811 15.0072
39.0952 210.211 208.67
45.0801 172.129 257.475
38.5276 175.148 205.621
42.0894 31.3794 16.302
43.6841 192.309 259.2
34.1803 184.831 253.865
18.8144 175.322 235.328
51.9422 74.8273 65.0649
54.1944 201.222 157.846
68.1439 77.4167 96.5767
34.1748 28.5865 20.2452
47.8189 159.733 186.859
52.2235 102.432 74.8357
33.007 74.3935 71.044
90.3794 106.525 33.1297
63.5291 217.487 158.795
70.3869 145.172 66.137
97.6077 222.118 161.038
80.9252 126.995 44.3643
49.6586 127.713 141.294
52.1527 175.029 171.029
40.7702 166.499 234.926
78.9322 57.451 90.3896
62.4825 60.9438 44.81
52.8762 70.0545 60.0526
51.9995 138.652 146.509
63.0061 157.328 146.058
16.2196 201.056 222.146
45.3963 179.25 265.024
56.5197 177.542 183.2
79.5946 104.274 31.3936
42.8568 158.392 155.017
62.16 51.5348 62.5998
19.3364 207.555 221.077
53.7534 176.043 163.492
82.17 52.9089 86.7854
67.881 59.9079 86.4961
48.0341 147.169 174.602
19.252 258.38 95.6297
54.3101 85.0021 49.1727
14.8623 200.624 214.752
96.3575 221.459 140.933
77.4857 205.102 205.81
71.8077 70.5812 96.002
38.7347 199.135 142.581
27.0885 30.6837 13.2612
31.2646 182.42 177.915
29.0378 151.692 148.153
93.5122 93.4765 99.5508
54.3957 201.077 208.172
42.3908 201.046 221.387
24.9914 17.1761 20.8691
34.4452 147.678 155.27
42.144 99.2518 77.0887
73.0664 84.8368 31.9703
46.88 153.197 149.995
28.1573 182.301 183.345
23.1055 183.364 258.993
75.7083 166.22 107.526
51.2637 210.578 153.8
63.8453 209.357 158.248
27.0962 187.045 200.027
73.674 47.9946 75.4294
55.2781 118.67 83.2351
60.7598 149.012 187.404
20.2667 112.439 70.8715
62.4801 156.748 105.309
58.3188 55.9172 65.1353
72.9149 61.1807 90.9692
62.2124 230.875 171.493
58.0666 179.356 118.383
66.4701 133.883 53.897
61.1891 134.045 90.372
38.0965 193.142 245.817
67.2733 97.2583 97.7464
40.8654 40.8646 17.7618
38.4545 190.288 120.367
61.4369 149.823 155.638
51.8094 122.753 136.914
55.2832 178.912 252.412
47.3441 148.496 102.568
61.4473 202.786 147.077
76.8673 97.8112 31.1322
28.2177 185.94 252.772
52.1653 146.687 184.246
38.0117 45.6217 30.6937
62.6821 129.173 55.4511
63.3884 108.18 99.2147
53.4204 194.601 156.244
86.7066 72.8419 95.3921
24.9161 163.014 267.071
48.63 158.108 144.556
55.6888 90.1932 45.8793
55.0988 216.537 196.262
62.0791 79.5464 89.2622
50.7235 192.316 236.752
65.9303 135.25 92.9998
78.3468 65.9663 33.5464
36.0777 164.264 141.422
76.9553 44.4197 49.2019
58.2347 163.618 104.147
35.0091 109.543 63.9019
28.7295 145.602 150.714
98.7305 117.51 102.689
68.0574 145.176 182.747
66.7897 140.525 91.4038
42.5717 164.985 151.383
66.1874 130.479 95.2226
56.5979 61.3683 68.7787
43.0545 206.917 153.991
71.1371 206.204 128.36
47.1409 147.931 121.255
68.2206 207.269 162.377
35.5026 116.179 68.0982
26.5333 137.516 126.924
76.1342 205.624 125.616
30.4871 164.645 127.14
30.1212 157.859 145.095
40.2484 199.683 230.181
55.8433 231.292 175.756
89.1622 44.1638 72.8379
109.054 28.3689 63.1511
60.1103 206.859 152.802
55.7676 77.5957 49.2011
69.5743 51.8956 77.2898
82.8595 44.3939 47.2671
46.6715 172.714 193.356
25.957 213.482 219.099
54.9428 112.403 86.4351
73.0015 200.473 121.484
59.7755 221.724 161.495
70.5451 211.236 134.497
77.7813 90.4684 100.039
66.0815 123.709 98.7596
51.0067 150.622 193.965
40.4069 165.544 143.166
56.8736 136.266 114.59
31.8936 154.003 152.942
29.4842 148.922 142.553
54.9006 174.37 233.224
76.5743 229.338 180.794
77.3722 123.502 121.66
75.6293 131.418 106.303
91.2755 85.3922 31.3302
30.7343 167.067 136.602
100.69 44.6489 58.6522
54.9628 178.612 197.393
30.3109 141.44 119.552
29.8862 108.813 74.7816
82.0786 220.903 12.4188
74.4946 74.6286 34.1273
59.9675 144.692 147.964
32.2642 148.853 130.95
38.4283 158.798 147.435
45.4604 167.239 246.485
44.0665 170.687 157.866
24.8353 78.8809 61.4718
50.1423 173.486 140.543
52.2003 168.986 119.83
67.8114 87.453 33.8068
51.2396 165.915 144.132
77.7912 147.268 72.9041
88.749 23.9465 44.4431
54.7699 124.707 79.4224
90.3602 38.825 61.8241
41.4656 113.406 71.4771
47.8658 210.705 211.057
33.5202 133.935 137.598
80.4156 77.6476 97.0165
45.3984 20.9689 32.6951
49.9361 181.869 258.938
62.4116 190.216 167.831
78.4586 223.283 171.069
55.3 147.79 141.687
27.5436 11.0923 29.4084
53.6273 99.6451 83.1625
82.8263 222.9 179.831
59.6354 83.9056 40.1513
55.8335 156.43 102.046
64.5051 119.164 127.304
54.4411 137.609 162.265
91.3956 66.2679 32.6626
49.4115 188.637 256.739
66.1021 48.409 60.0991
83.7902 38.5425 58.4823
57.53 79.7691 43.5391
68.8747 128.375 49.4333
43.5788 181.018 140.682
96.6197 200.813 148.543
71.0097 167.976 145.827
61.5346 207.79 134.272
62.5339 149.92 98.663
54.7338 128.773 132.339
48.547 166.991 126.679
23.268 86.1782 70.7391
54.9372 126.12 72.552
61.1269 58.5711 51.7704
49.4294 168.651 234.782
41.2486 182.654 205.059
60.3138 158.12 179.431
30.1888 139.774 137.199
37.037 199.464 238.472
34.1849 69.8008 81.3017
17.6023 178.852 219.553
85.1597 214.079 142.888
52.4508 135.81 106.479
68.4338 203.591 193.627
68.9569 117.122 100.937
65.4756 164.25 105.285
30.6456 142.459 143.934
45.5369 192.716 139.664
26.9451 174.463 253.833
79.4916 100.898 106.427
31.3935 74.7566 59.5239
21.2186 207.891 227.1
44.8113 196.266 207.944
40.0275 186.287 223.883
46.6468 196.896 232.413
54.4646 77.4666 78.0372
45.4496 191.735 121.934
99.4587 18.9807 46.5772
49.3431 160.144 127.596
49.8358 203.211 196.265
57.8164 129.62 84.2773
32.3212 163.198 99.6631
27.31 37.3254 16.4371
96.3703 141.356 75.3279
102.968 129.763 49.0751
76.8829 219.323 165.162
82.9828 146.466 88.5191
37.4689 10.8668 25.1051
45.1865 165.064 169.272
92.3414 49.0139 77.5166
60.0732 188.838 120.077
40.8259 141.505 152.862
44.9603 177.121 204.81
105.925 21.9285 45.2071
52.3779 85.3979 62.1677
55.2846 63.2281 60.3618
54.6901 106.927 82.6817
30.9335 155.923 130.786
54.755 64.8537 74.8945
90.5694 147.23 73.1407
56.7111 89.9316 84.5745
75.0122 205.496 159.34
106.74 68.446 59.3922
52.6602 150.74 100.967
86.7635 82.2514 96.8132
46.4466 201.458 137.392
83.5631 107.237 31.3319
34.0794 157.908 125.16
13.7744 87.4951 68.7469
39.3683 165.456 254.145
49.9227 157.081 133.78
20.8014 167.102 201.583
25.1277 173.944 223.233
111.826 26.9439 53.7565
27.2526 131.086 116.287
41.2132 197.286 214.771
81.0577 41.4267 66.2767
25.9496 209.015 232.853
69.7514 72.9044 34.8239
37.3785 173.258 137.2
72.5532 122.057 108.638
68.3031 232.532 174.488
39.0876 101.036 58.6227
74.8181 130.774 48.04
44.6661 155.408 180.221
41.4216 195.263 191.754
98.0941 108.757 33.0889
53.2142 200.531 138.002
36.6289 91.7583 56.6301
34.7172 209.188 237.129
85.2848 144.796 130.568
94.4819 41.9622 56.7694
66.4254 163.52 144.663
17.381 101.644 81.5465
59.1727 182.041 223.438
52.9116 220.685 186.621
72.3616 109.672 35.375
29.4216 177.328 216.025
21.599 180.614 226.293
30.1777 134.207 132.407
69.6111 184.96 113.47
50.1545 176.79 200.986
66.0314 184.858 156.516
57.5739 75.7618 84.0878
60.7631 134.755 82.2699
51.6992 210.358 196.755
66.3539 99.8984 35.9724
54.6846 112.087 53.4077
96.9741 45.6507 71.713
97.1232 15.9706 40.4561
60.198 57.0104 57.8059
34.3901 168.587 259.721
86.6366 152.076 137.934
17.2222 182.709 247.086
63.6505 134.28 176.273
47.9626 172.077 131.023
63.0429 163.937 175.775
95.6585 59.042 85.3473
86.7935 62.6449 33.6632
21.2355 25.1959 18.601
49.096 163.582 117.163
32.976 181.212 134.578
69.6478 147.594 145.243
85.1929 46.4048 76.0588
27.8815 178.934 210.262
86.2315 215.287 182.025
66.2764 108.206 38.8883
70.0294 116.674 119.635
100.019 93.7505 37.8727
39.8225 186.609 243.444
49.5061 203.445 252.114
49.8534 191.897 197.061
44.437 165.456 190.818
64.6688 95.2962 37.9387
74.5728 192.696 176.603
50.5636 138.09 123.693
61.9981 67.2001 41.784
48.8078 193.671 217.588
76.0391 83.3971 98.8555
74.2669 139.938 146.157
93.4654 100.512 102.117
57.6421 223.634 185.498
91.9288 41.7049 67.6529
36.1699 185.264 263.476
50.5852 140.759 131.762
95.7992 212.383 116.501
80.8708 137.468 51.2877
90.8969 106.526 103.648
27.5082 163.863 242.531
96.2179 39.8756 62.5416
51.0484 169.328 187.147
62.0848 53.1861 74.04
49.458 200.264 211.751
33.5605 127.258 128.944
88.4916 41.8405 52.4845
57.467 153.328 140.79
108.588 125.788 52.5718
86.8862 99.4751 103.035
62.8246 105.522 43.8175
62.0771 59.9424 82.8083
70.8551 215.547 190.716
49.9991 169.655 249.306
67.8049 200.753 149.011
77.1316 209.787 147.41
58.2418 186.608 165.077
50.5108 176.684 244.103
65.3943 153.953 181.99
50.0091 151.095 125.755
49.6832 179.342 132.614
58.9444 111.563 96.3959
45.789 164.01 158.248
14.5129 20.0901 209.015
66.5032 207.848 142.102
43.7017 197.648 257.315
87.226 133.12 122.343
49.8893 145.818 128.313
56.1359 138.07 179.485
39.1929 45.2989 23.4202
35.9322 143.248 150.702
82.431 63.0849 93.9526
105.918 99.4883 41.3721
63.0057 150.12 144.179
62.4448 73.7479 40.0048
59.9809 111.255 46.4889
59.1992 58.3678 75.6856
112.339 58.4797 52.0095
40.0921 185.411 110.781
43.055 185.447 229.931
47.0268 42.6622 23.1083
74.93 213.46 160.169
51.312 80.2696 57.9128
93.8347 141.041 55.4014
71.9294 161.339 105.148
87.591 145.95 67.4269
82.0441 177.554 153.116
52.5262 192.412 151.605
30.922 173.121 128.497
58.287 125.411 59.0766
72.6208 194.465 117.12
28.6217 20.1205 43.1554
52.2341 101.765 63.17
57.0908 162.522 219.406
108.506 228.813 152.344
83.2221 93.0863 102.181
94.8636 139.615 87.2566
14.7335 167.824 184.208
46.9259 161.845 136.656
38.9559 194.71 202.225
77.9391 112.944 33.8558
72.1154 199.895 153.404
16.727 174.925 189.558
87.3435 141.203 92.8129
70.9634 153.675 158.82
49.5272 134.686 140.116
59.4301 118.415 52.658
75.6561 136.753 51.9996
47.5249 161.65 180.205
90.114 147.943 130.025
24.9886 170.152 269.052
51.3138 185.464 153.439
93.7649 33.5558 39.7858
45.2024 106.183 85.1888
84.4616 161.148 142.934
45.6909 139.599 127.9
35.7487 68.1606 75.1571
78.1761 196.846 116.775
80.231 119.804 101.552
51.8999 108.379 59.3718
51.121 195.549 131.951
50.1536 205.152 128.723
46.6316 198.662 253.519
84.3061 219.761 165.869
38.7907 151.972 155.296
88.5717 169.931 117.49
48.6913 168.731 137.124
93.3604 68.186 89.0132
89.2483 147.085 60.8388
39.2427 177.347 264.829
16.0549 4.2563 30.3713
40.1437 23.1859 28.9737
59.7954 172.918 152.663
86.3928 57.4198 34.7141
72.6976 146.835 98.8011
81.5402 131.181 48.6171
52.1724 106.579 69.3668
44.9856 167.351 182.504
101.402 102.594 99.0946
16.7749 47.2465 261.127
70.8897 128.217 97.7109
50.3434 146.914 135.543
54.6445 187.179 241.447
90.2347 88.502 97.0997
46.2616 195.872 213.814
53.7726 197.201 199.097
48.0299 194.779 224.547
96.0266 140.34 68.3203
27.6046 171.151 228.265
77.7708 185.452 115.619
113.713 32.9868 47.5299
62.3759 126.082 51.2035
70.358 137.712 54.5838
65.4138 221.406 164.278
33.9817 145.817 135.979
63.7661 133.414 69.2701
46.0383 201.877 247.02
41.1019 172.002 249.593
64.9673 49.9509 70.4609
93.4313 96.1588 32.8608
43.893 178.363 242.387
75.6839 149.284 146.48
103.831 46.7941 64.3586
106.15 132.098 66.2512
55.0343 222.845 195.07
53.7019 71.2311 75.0766
108.297 50.7546 56.7356
63.8111 182.916 117.24
51.2556 104.308 55.2128
39.5628 187.814 197.404
58.4944 97.34 89.0862
51.7194 156.766 140.839
45.1828 129.792 114.66
86.606 70.1101 32.4507
20.1913 16.0867 28.7446
61.8267 198.472 196.72
81.2113 164.862 112.972
45.4119 199.669 226.585
85.2125 162.246 125.243
51.6726 185.417 200.281
82.1666 214.479 187.204
40.6189 160.308 175.867
78.2911 87.6179 30.5223
47.9488 164.962 238.996
47.5698 166.463 254.583
39.1703 170.08 260.333
57.3949 173.065 117.424
81.0083 213.862 161.87
53.6396 117.207 58.0116
48.2466 152.022 133.242
88.6454 133.279 45.7931
45.5523 91.5969 71.0391
67.4366 53.9053 47.6599
87.7717 200.526 152.459
64.4624 140.284 82.3072
48.4643 121.584 131.138
60.4055 202.739 125.698
50.9127 113.836 61.8404
92.9766 217.612 173.969
61.2434 178.471 177.437
33.2797 176.3 266.237
59.6488 218.844 193.104
69.9323 181.993 191.018
81.5581 82.096 31.6352
49.9 39.2967 33.6156
106.476 28.7398 55.1535
91.6347 163.864 125.737
92.8032 90.7801 31.5041
97.7641 28.9202 49.7883
87.901 47.5049 42.7552
81.7261 150.876 140.212
102.906 138.353 68.8009
74.3026 134.512 134.139
31.6711 164.482 247.204
92.2328 62.4905 87.6442
60.8552 68.5546 86.764
95.3903 72.7318 91.8096
48.9718 189.904 228.009
75.5632 129.377 99.6074
56.8257 182.616 172.462
96.234 76.8159 82.5896
80.2409 136.269 105.821
52.488 79.1451 71.1036
83.9323 105.081 106.029
86.2667 93.5548 29.531
88.748 204.566 121.613
98.987 70.5815 34.1008
90.7777 212.25 139.317
109.374 36.4027 43.5809
74.8299 184.451 163.402
53.0086 90.9254 53.7235
47.6799 197.197 240.192
84.3981 97.9371 30.1892
71.2793 120.614 126.269
44.8189 197.093 129.869
80.7043 129.602 98.7062
100.03 94.0474 100.295
59.6712 132.833 143.331
48.1052 144.101 180.588
32.9887 140.443 147.731
36.7335 184.217 218.778
68.2361 56.7832 44.0729
83.0936 72.8073 35.5335
71.2936 166.447 154.551
54.8108 121.712 59.3766
57.3815 181.209 236.99
95.3628 64.5775 36.2679
62.7258 205.9 197.499
91.9666 45.0369 46.8448
56.2271 125.331 65.0381
52.051 119.617 66.1861
52.4932 174.224 123.786
57.7291 109.151 91.1182
53.801 94.8277 79.7655
96.1205 134.2 50.5135
88.9694 127.559 97.0261
104.359 109.477 36.0691
51.9186 95.7896 71.8885
65.9209 147.09 150.973
54.3756 66.9652 66.9411
54.296 226.488 180.777
78.1194 137.305 133.176
47.7378 150.139 166.279
56.2392 171.098 209.408
89.0693 143.914 54.0266
33.4398 172.116 133.127
84.5778 196.281 116.926
32.9851 155.327 136.148
76.2096 138.819 93.6978
69.0958 173.323 110.777
69.6501 53.6453 82.2021
96.2322 52.8778 80.6141
64.0851 138.334 157.137
74.5595 53.2687 40.224
69.5184 90.7662 97.6737
86.87 193.275 156.768
93.5535 60.1209 39.4319
95.1266 183.782 143.923
95.0708 82.9122 94.0558
100.123 32.3199 53.9998
74.8948 49.4057 44.6215
87.3752 161.461 112.839
51.6271 76.4825 54.5206
74.5366 124.956 131.583
61.3181 174.489 202.264
53.3466 184.789 246.635
100.657 86.9559 35.2262
60.418 182.12 257.705
88.1428 147.619 80.2565
93.1268 77.5909 93.4389
58.694 193.789 197.618
89.6712 28.9973 39.7323
76.7681 130.606 127.223
76.8602 171.705 113.812
53.485 90.664 74.211
31.5604 176.493 221.227
68.7596 190.712 155.108
50.9268 181.767 173.832
28.2526 171.479 251.322
108.993 128.99 61.4711
17.3735 54.1954 33.266
34.4795 175.667 225.359
53.3883 179.483 125.115
68.5971 155.434 176.756
46.6046 166.177 162.823
28.866 216.101 250.881
75.1061 157.426 143.715
89.3155 145.184 123.139
59.2086 138.335 136.592
63.5902 184.462 192.875
88.2307 183.411 144.568
25.0978 13.4153 34.593
22.9803 2.79268 38.5921
68.9165 214.611 162.693
41.7667 177.861 230.616
108.347 133.347 73.7817
75.9666 138.267 140.891
84.8623 205.189 158.166
58.8661 98.9861 42.7285
97.6055 217.639 134.43
81.0992 182.569 161.018
82.4208 138.595 132.435
113.934 122.392 67.2049
60.7227 119.246 95.3861
106.644 130.328 83.7385
80.2387 158.813 106.116
106.802 214.598 119.423
95.9139 144.824 80.4283
51.0895 192.692 245.969
43.4655 88.9824 63.6118
85.2887 134.846 106.925
50.8403 145.616 157.151
89.0831 144.955 87.2533
52.7852 160.004 191.553
67.8131 142.805 175.13
87.4457 191.374 150.1
44.5607 190.506 196.113
89.0103 154.092 127.029
95.2416 211.434 128.058
84.436 168.964 154.927
91.7175 217.485 143.55
84.6566 139.132 125.056
81.4718 131.809 125.767
36.18 202.355 252.623
82.2141 201.162 211.572
92.7065 53.0022 41.9604
108.453 32.346 50.6254
99.4057 134.728 85.8096
35.535 204.759 234.525
75.4315 23.6595 40.4485
81.9479 83.7139 98.4179
100.595 64.8332 36.2682
45.6679 163.198 174.619
45.0706 203.184 236.891
103.14 132.367 55.9956
32.2355 127.621 115.959
103.682 222.858 150.219
60.4027 65.4932 83.3241
86.2758 142.129 114.702
31.8053 163.15 132.296
61.5667 116.447 46.2565
23.7275 34.5796 21.0995
63.9136 139.264 180.819
103.518 109.015 99.6265
20.2616 79.5812 1.09951
90.9232 141.529 115.303
111.692 215.777 121.129
62.8173 173.45 110.917
84.0667 88.0392 31.5782
109.384 218.588 144.897
73.1409 197.319 219.307
55.2887 187.319 235.541
15.2114 164.358 194.869
70.1573 197.37 203.163
93.2621 145.544 66.2357
98.3533 212.842 123.457
42.4234 199.292 238.595
55.6354 175.457 242.007
42.851 172.992 262.195
85.8482 220.766 173.532
52.85 145.07 177.404
104.255 139.641 76.2294
97.5007 221.541 148.753
53.3978 148.233 87.6125
82.5908 117.674 122.036
