ply
format ascii 1.0
comment Created by Open3D
element vertex 395
property double x
property double y
property double z
end_header
26.3166 211.33 65.4676
40.1925 186.616 92.736
25.0098 197.335 96.0185
47.239 212.66 88.6666
47.0499 115.269 94.6655
26.1416 118.607 47.2258
29.3005 61.2253 83.8965
33.2347 185.708 74.735
34.047 202.366 62.2581
22.3128 202.36 63.6496
45.1159 168.628 102.366
23.5448 53.2654 83.3965
24.0826 118.451 65.5218
50.057 121.787 77.5598
49.4814 133.5 92.1667
39.1839 201.565 97.4232
33.8156 179.929 98.0563
38.3162 128.575 98.1814
54.9323 118.245 36.6924
30.9764 88.2556 126.677
30.3939 212.804 54.4728
23.2614 72.4216 123.033
36.9057 198.145 71.7813
45.6854 179.454 100.294
41.4639 86.803 121.975
36.7677 141.447 86.2922
41.3228 71.3305 77.4419
39.4953 214.057 89.7813
28.319 108.449 64.1127
22.3192 207.709 55.8323
25.5142 125.909 62.4736
33.2527 114.21 85.6314
31.917 129.433 58.0661
55.8601 129.984 74.2052
40.2131 182.084 82.5026
54.5513 138.903 82.1343
28.3581 67.1696 74.9814
33.8983 208.123 71.75
48.3031 114.48 36.4532
50.996 197.935 104.987
43.0765 126.579 77.8499
29.8443 130.619 40.9137
39.9887 130.733 63.4205
22.8621 114.238 57.4363
48.8167 135.838 75.2562
42.7802 137.726 78.7894
38.7821 16.6669 87.4096
43.0328 210.696 70.6635
50.3677 104.607 57.2261
28.3953 53.6299 90.0237
22.2061 184.241 62.2248
25.2821 80.0568 135.548
55.6223 118.416 25.1574
46.5096 83.1485 125.963
43.9291 109.895 21.91
27.9436 32.364 84.1074
33.9569 127.611 89.2135
51.9429 220.243 97.2075
30.4801 135.386 65.2598
31.4945 7.35561 16.5705
56.6063 206.815 105.723
33.3642 71.6163 110.205
43.487 137.244 59.38
39.8713 117.099 91.5544
38.5985 135.38 48.2617
49.608 62.4414 134.498
43.4841 58.5799 139.018
41.8809 136.987 91.3452
42.867 193.213 67.4567
28.683 139.762 71.7511
40.4481 109.6 71.0794
34.1378 67.5894 82.9469
57.0532 110.507 90.7379
47.4475 176.614 66.8927
46.647 135.147 50.3632
22.9462 18.0449 114.107
35.4549 112.732 78.172
44.6619 124.623 63.5491
38.8545 90.1321 129.56
33.9026 120.819 62.7323
40.249 6.47099 80.86
55.2329 118.533 100.032
47.2419 130.001 100.475
48.9257 189.588 106.486
33.6419 122.969 95.6899
47.3491 213.342 108.589
25.0524 133.56 72.9614
54.4762 116.469 92.4078
56.7819 186.423 69.7263
34.2361 197.37 84.7688
42.1564 119.109 42.7107
51.1414 132.565 61.1131
59.3388 108.262 55.6249
22.3887 194.207 70.7492
23.0692 70.9558 131.407
44.2592 104.262 63.6735
51.2886 180.879 75.15
61.6005 118.499 86.8816
36.0267 60.2819 139.154
48.0038 71.8103 128.165
32.3647 187.074 97.5523
51.9262 94.722 50.7496
31.8085 109.007 25.9549
23.5093 120.491 83.9955
41.7515 135.079 39.1966
41.1789 188.817 102.375
45.4182 88.9156 133.228
25.6462 119.293 32.7625
27.7401 124.859 51.9723
46.0216 198.483 91.1417
32.2426 95.1359 48.0053
33.4665 104.468 67.2928
44.3951 94.6267 56.3266
29.8443 113.162 33.2387
23.2242 111.921 48.1633
35.7548 88.6489 119.631
33.3262 123.751 28.5517
23.4879 200.1 171.047
50.496 101.46 28.2894
30.013 20.1991 108.389
28.113 57.2764 116.03
31.597 185.297 58.3083
22.6973 114.209 41.6585
38.1745 192.475 118.077
56.6834 191.233 100.917
35.9034 200.96 108.368
30.7242 117.071 25.906
45.9651 110.93 84.0541
55.232 212.234 83.8094
36.2899 63.3939 91.0743
26.2002 103.941 35.8286
45.6053 134.809 65.864
43.2977 128.906 85.4648
30.2104 64.5078 134.697
41.8969 42.1876 78.5705
27.6207 111.784 73.2484
28.5712 15.5352 86.1443
34.0361 128.14 77.4688
37.8406 25.3969 101.998
39.0057 55.3816 117.583
47.0598 117.996 24.226
36.6603 94.3214 55.6777
26.3513 68.1774 112.033
46.7157 187.928 85.8772
30.1773 56.0276 132.126
24.4538 124.065 76.1145
34.8122 106.481 34.4029
46.9357 105.413 44.2604
36.8406 70.8105 69.8528
40.9799 100.314 48.6286
41.4874 129.034 43.8177
55.3309 187.936 81.9465
60.2438 140.399 75.8056
34.5391 73.3239 144.996
41.3648 207.818 105.054
37.0755 195.465 56.5727
55.5045 126.254 100.302
47.7958 124.362 31.3198
50.6049 81.5384 133.437
24.2071 60.5719 125.791
34.7023 99.4208 30.1775
26.608 99.6191 44.2063
23.3418 194.684 165.369
28.2085 137.002 80.4001
33.7865 6.31586 5.52854
53.7878 115.146 50.2954
38.8784 167.189 91.442
53.2916 107.111 82.2411
37.6636 53.5349 137.223
30.8028 132.216 50.8371
45.5603 192.207 96.5395
33.9372 65.1805 114.982
22.5404 62.2619 81.272
63.861 132.18 73.9722
43.6314 125.306 93.0917
41.136 127.01 36.606
25.96 210.216 77.633
33.5069 105.848 49.9231
47.2242 169.433 92.4152
42.8274 126.653 25.1831
58.8402 128.369 87.9889
45.6543 188.53 53.9534
37.7911 121.578 48.5158
51.8837 210.418 115.321
31.4893 80.4915 110.674
39.3898 213.33 98.8196
35.1768 101.397 41.323
42.3583 91.7791 47.0614
55.783 184.201 109.918
26.403 191.804 103.811
48.6334 98.5005 42.5811
36.1704 138.108 57.1407
57.9778 109.945 30.578
32.7994 69.8865 138.405
29.9704 118.446 91.0539
39.1397 19.0255 77.6367
51.2656 128.036 66.3066
44.1835 54.4939 128.87
26.6035 179.42 67.6247
53.1035 117.816 44.1603
53.6994 141.668 72.6307
36.6194 30.4856 95.2822
35.843 192.962 63.6128
40.1963 118.095 56.1837
50.7519 106.625 74.434
25.2885 107.447 55.7791
54.6585 212.387 93.8924
60.2914 174.612 78.7574
41.2434 89.3834 141.339
50.923 176.071 100.393
44.2429 116.921 32.5079
24.315 121.314 57.5118
31.5823 134.171 93.5427
26.4093 25.5443 78.0379
32.9628 197.549 101.25
47.3308 136.979 84.3964
49.1273 116.996 69.7284
34.7268 16.6976 82.2094
43.7097 62.3029 89.7528
52.4512 60.9157 81.5305
42.7366 81.6233 147.624
53.8407 196.498 96.5542
57.594 116.948 79.227
48.4088 133.633 39.4147
47.1546 213.652 99.2844
51.5935 122.568 61.1302
52.6305 126.662 37.9088
52.0738 127.389 95.2777
43.9329 70.2407 117.521
31.7681 19.8785 76.1335
35.7799 141.943 67.0343
41.7977 41.1755 89.9525
45.9254 67.9222 84.9117
31.5664 70.3022 127.305
48.0924 77.9071 142.477
38.4313 121.86 84.2721
29.0336 101.465 31.5899
45.7822 54.935 71.1109
43.4326 103.674 30.9854
48.2968 66.4172 75.2921
37.4613 119.646 77.779
43.0851 10.9404 16.0001
26.108 129.455 86.9639
29.2832 80.3219 139.724
51.1879 205.552 88.9224
43.2034 2.6223 4.96383
44.2745 115.064 63.0535
53.0524 183.627 93.7843
34.6574 94.4865 38.3559
48.3744 104.705 36.2434
37.9946 67.8419 130.447
35.0553 102.982 57.1422
47.8304 206.013 96.1616
39.2581 117.178 33.7655
62.1548 186.656 92.0774
61.1184 118.966 50.9939
35.0235 2.56952 25.981
57.4942 202.942 95.536
45.9468 127.139 70.6325
64.4281 109.467 49.0369
39.6876 108.113 41.3493
26.2498 45.505 81.7
24.7556 177.621 76.0715
51.2311 112.537 87.31
23.3237 63.4705 119.991
34.9768 41.8682 92.4624
38.0316 120.714 23.2583
44.9332 112.224 54.4896
47.6558 99.029 57.0786
57.2552 126.272 47.2047
41.4859 119.847 99.174
34.5571 114.979 45.1189
39.2616 128.607 51.9712
29.0453 107.475 40.4582
42.2166 25.33 89.3134
51.6935 96.1593 37.6838
36.7697 59.5994 76.5092
33.8755 76.3442 130.634
37.6285 25.8537 75.7489
35.0941 135.633 85.4452
25.672 203.732 80.5369
41.5775 67.9555 137.333
53.798 132.936 49.2779
47.0703 50.9378 80.9565
43.7093 92.5619 33.9856
51.3618 113.486 60.8402
34.9044 63.9062 66.1115
27.5661 99.1346 51.9613
57.3699 110.491 72.3081
38.0009 133.659 72.5366
35.1212 47.4585 86.7547
39.3065 132.641 30.4773
57.8917 99.7488 40.715
60.786 102.376 48.8413
31.4479 60.7662 125.949
42.2614 97.416 28.1291
41.5882 98.6688 35.9711
37.4379 124.139 70.5885
30.5923 118.11 74.1742
45.1905 200.366 113.225
34.9489 128.568 40.404
60.0362 109.385 83.0956
28.8781 54.2273 66.283
56.6394 110.602 61.0841
34.3185 80.7524 116.531
31.1859 26.4854 87.6015
48.2882 120.514 88.0129
65.0085 122.787 80.1588
24.5468 16.9515 90.9098
26.0977 82.0954 129.602
59.4637 131.665 81.1452
61.5674 115.494 42.4632
48.563 172.282 82.5571
40.1655 51.9174 96.2806
44.376 161.998 77.8508
32.182 47.5184 70.5315
33.3784 114.652 52.0808
53.9427 132.634 42.6212
47.6673 126.793 54.7523
30.8806 129.588 31.6305
43.2746 24.4773 83.1979
39.9903 112.046 27.5519
25.0802 24.8561 91.9399
39.6863 206.062 89.1409
39.3726 111.601 49.6368
41.6826 31.4373 74.6646
41.9826 206.134 112.058
61.6056 123.171 41.7671
55.5755 196.391 83.6821
42.3053 194.847 81.0498
33.1018 112.546 67.2402
30.2476 122.094 83.6725
63.2541 186.032 103.189
38.5879 9.18727 92.3779
48.7188 117.671 49.502
68.8237 198.449 106.544
37.2273 52.4515 67.0566
39.2681 110.29 85.3575
62.4677 185.682 83.0315
50.7063 110.569 30.3228
36.9485 109.669 61.4339
52.934 138.422 66.6074
43.6359 75.2593 133.504
61.8604 116.498 71.5212
39.5176 80.1701 138.688
42.5734 104.552 54.7909
53.5954 123.907 53.0398
29.5256 29.2266 95.1873
37.3794 112.018 20.9314
42.9545 63.7549 67.3071
45.2734 212.114 80.4287
52.3605 126.498 25.8618
50.5585 108.485 23.402
28.1286 52.0923 78.9534
54.8922 102.966 47.8743
49.6297 125.799 45.3347
53.0358 179.578 85.5961
62.6314 137.073 82.7055
29.4327 15.3762 92.397
31.5181 21.743 98.7273
34.4879 143.203 74.6589
38.9894 193.946 110.704
45.3459 1.87671 14.6711
59.685 176.108 69.6263
40.3045 52.6586 91.0337
34.5683 86.8773 141.983
63.4574 122.137 66.3849
42.8784 117.514 78.7598
63.0956 108.368 39.248
31.185 48.0613 93.2655
50.7529 133.278 32.035
39.7036 179.078 43.6435
39.1413 102.51 23.2173
40.305 186.348 40.3031
45.0691 75.3871 123.688
56.3625 123.575 83.1155
59.5136 124.002 72.6538
39.4643 117.427 72.1765
32.6934 17.4553 114.022
59.7072 194.028 107.924
43.1861 59.2889 117.878
48.5599 117.536 103.094
56.3368 124.64 64.1322
29.1574 126.014 69.8158
26.1736 104.843 120.187
59.6879 121.114 31.3349
56.966 137.475 87.8637
33.1064 53.5335 123.252
34.4856 117.103 37.3904
50.4895 129.269 81.7134
58.9627 126.945 33.9432
32.7961 98.7542 61.03
42.1877 46.0599 87.5949
43.0895 173.901 77.9589
38.0818 75.4448 122.035
