ply
format ascii 1.0
comment Created by Open3D
element vertex 339
property double x
property double y
property double z
end_header
27.1084 88.0317 30.7366
54.2122 28.5295 52.4675
73.9433 81.385 80.2133
35.7163 39.5312 23.1874
50.9083 48.9025 96.7515
42.893 23.6232 32.4182
31.9783 36.3102 48.9451
21.9025 45.0491 38.3893
32.9887 94.9816 37.369
24.6954 37.158 35.9607
36.1759 55.9714 62.6617
53.3875 34.5401 40.8159
31.7099 38.3178 35.9007
27.8616 36.6476 59.8529
38.9705 44.1061 60.9394
53.9121 36.8181 55.3367
21.8094 65.2984 81.7244
23.9859 41.1706 47.6773
43.6068 29.1382 45.4744
44.2674 53.7322 62.7735
58.8961 96.3992 111.144
40.641 96.7885 76.356
38.9442 91.2343 45.451
35.1691 84.9543 110.878
43.5825 98.2927 95.6229
71.6337 74.4317 105.729
23.0438 52.822 41.2958
31.2884 75.9016 110.526
49.2057 94.7947 69.1487
24.7653 85.328 40.8822
48.3728 76.2987 114.813
60.8666 58.3747 111.33
26.6953 72.6437 103.068
49.0356 41.2167 33.1808
22.2468 56.9313 84.4131
27.0581 75.7527 82.2473
39.1303 62.4661 38.8106
46.8633 36.3351 27.4902
57.8123 58.8664 61.5246
49.4181 87.4525 62.8936
27.2868 59.0085 36.8873
51.4202 51.5227 66.9553
54.8829 69.793 56.3593
30.1165 49.4833 55.2544
35.3577 74.7829 91.6469
73.1551 74.0334 76.7328
26.6052 53.3503 89.552
40.7833 62.0322 91.5632
39.0407 32.6932 24.5139
46.716 43.0314 55.8747
40.0715 33.0802 68.2307
45.5305 19.2884 35.3733
38.0298 18.5818 64.0436
61.6098 99.9759 92.0948
49.1403 33.3347 67.0826
60.4813 99.8406 104.324
33.6604 26.806 68.2666
33.791 37.0521 65.7567
22.7087 74.2448 91.1782
23.3596 91.86 38.8355
42.881 43.5641 84.1494
44.8978 47.5084 45.6196
48.4369 76.8387 56.512
26.7112 61.449 73.8509
33.9 53.1454 83.9614
35.3039 75.4541 38.0576
57.4594 88.2997 64.3368
37.0708 62.2663 106.74
45.4915 38.4016 43.2335
21.7699 87.4112 96.5449
25.9657 84.3089 77.8483
43.129 79.5096 116.455
57.9413 65.657 116.97
48.0209 18.2742 41.3553
40.3948 52.8997 99.3286
51.9478 27.683 39.4648
38.8367 63.4715 76.4331
29.0114 53.9233 30.223
42.6061 87.8191 108.72
47.6761 82.9325 112.065
46.0222 60.1188 56.4583
46.0269 83.5993 79.0067
62.4363 50.0826 88.2867
31.3235 63.6569 38.7808
35.8253 55.8203 103.018
28.7194 83.0032 107.241
24.8908 88.7888 47.3198
32.1202 88.5328 88.6814
55.0614 100.837 90.6134
54.7978 97.5297 72.8461
31.967 84.2756 51.6361
45.2307 16.8918 47.1689
35.8895 63.2727 83.5492
38.048 89.2497 31.3254
30.2652 47.8045 33.2311
34.4638 53.8007 27.7927
53.5277 23.41 43.6488
27.6544 77.5814 41.9223
54.6252 33.6786 63.6443
29.9451 97.3547 91.1512
44.833 53.7534 103.044
29.4306 51.9412 76.6049
50.7687 33.6755 81.7176
51.4108 57.7892 57.006
48.7687 101.302 89.6542
40.4793 85.3036 33.8236
44.5875 32.8296 65.9051
22.4236 83.1448 84.3867
36.4887 95.9531 90.8386
50.4848 23.9679 37.2328
47.406 51.8167 72.5637
25.9871 44.4661 30.7015
63.0167 50.7405 73.7726
30.1266 69.016 63.0637
32.0624 60.1039 67.0036
51.7949 59.4825 88.1078
62.6123 97.7085 98.8557
33.2797 68.4548 96.5355
29.156 53.1246 49.7816
23.9986 60.6795 92.531
41.091 50.2556 92.0742
35.2581 70.2213 76.0661
38.4893 97.8477 41.1655
28.9035 72.6069 75.6558
50.019 24.8198 65.8226
52.4136 91.6346 74.7533
26.099 94.3868 96.7259
24.3249 92.2686 87.9182
49.5684 88.0454 116.88
50.4144 95.5202 111.118
38.9531 82.5264 100.322
43.4419 81.3934 56.5471
65.3594 59.8658 90.8288
28.9527 81.8691 68.3143
28.0079 39.2303 26.686
25.535 50.1224 114.169
35.9462 22.5829 35.998
28.7127 39.2439 42.7279
65.9707 90.9787 111.88
32.8171 20.2207 57.8051
56.9996 69.8422 109.097
26.6885 28.315 61.2905
32.9363 51.7 70.5067
48.5556 49.0834 89.3577
41.4452 94.353 36.5282
41.6008 95.5313 86.687
71.5454 84.5765 106.275
48.2275 58.0882 98.5185
53.7347 83.436 69.7116
57.6447 52.6385 71.9346
48.4792 68.6421 69.0616
53.3229 77.5729 113.261
27.0187 85.9731 84.7632
29.6128 78.7526 75.4007
53.1341 57.5129 106.049
61.9315 96.4521 74.2659
26.705 78.2838 33.6108
57.4353 52.28 100.532
30.5243 63.4774 89.2817
31.8549 95.5741 76.5991
70.2618 59.7988 84.9238
28.2276 60.687 97.1148
34.2181 78.7119 67.9957
39.5564 63.7496 55.2488
47.1585 39.9426 64.7129
23.0688 73.8783 77.6007
43.9378 60.9736 64.9489
57.2007 54.5307 107.292
45.6523 67.9015 52.3963
63.9058 65.4644 63.5407
64.4714 85.79 66.6262
62.64 57.0832 68.1526
60.057 77.4799 62.2167
66.5048 53.7736 94.776
29.6622 59.1246 47.307
30.6717 47.8103 41.918
31.1572 79.2908 62.4419
38.7262 32.5619 32.789
28.0391 63.1147 69.2198
54.708 75.8508 119.605
37.5603 96.3738 98.9236
56.0729 100.695 100.11
34.9838 69.6383 57.8629
72.2819 55.3767 76.7081
42.2519 60.1528 104.218
46.0294 87.5716 71.762
63.0644 75.6429 113.311
37.7813 30.8994 45.7726
65.2826 80.7908 94.7142
47.0055 59.1934 70.983
42.1883 21.0851 68.1757
39.8051 80.7896 36.4789
38.6748 72.1587 103.07
59.9425 101.788 84.3479
70.7073 92.0657 92.4314
34.9445 46.4856 81.5524
69.2519 92.1131 100.397
35.24 26.9757 39.5354
28.8841 90.2262 78.4244
42.0146 16.8955 40.8495
41.0466 69.4361 58.0508
31.1671 41.5916 58.8325
48.3408 58.9098 109.919
52.2419 48.1241 83.9654
25.8959 66.6195 92.3291
28.4997 31.1703 54.9545
52.85 44.9688 78.5245
58.82 91.1786 116.504
39.972 81.5614 79.7227
39.4285 18.1184 53.6364
54.8957 46.2277 89.5194
44.1844 76.1651 75.5253
56.287 60.7696 111.074
40.3898 37.8033 63.0532
66.1865 61.7245 105.819
30.7321 50.903 92.5832
45.0623 70.0201 108.664
34.3284 76.1537 45.0769
62.4098 71.1699 116.681
50.0202 67.142 117.556
38.732 83.3895 43.9249
50.2829 43.5855 43.0976
47.3746 91.9624 105.559
73.0218 68.0926 73.4065
38.1461 83.9628 58.6222
53.192 75.8365 70.3128
38.0717 70.903 116.344
67.6028 88.5794 86.951
28.5262 72.3496 68.5311
45.2358 28.9374 27.969
68.9786 84.2911 112.274
30.7679 25.407 47.3473
35.3765 58.0626 43.5642
42.2402 44.3927 24.3996
71.9609 60.248 70.9387
52.8454 83.972 105.61
59.9479 48.1117 81.1844
53.2008 65.6267 74.0667
37.2391 19.7351 44.3969
35.4398 28.3386 32.762
40.4007 67.5497 112.458
31.3589 95.5395 83.5947
35.2956 49.1764 91.3695
43.7729 46.2698 71.952
62.4541 76.5354 103.867
33.0135 68.7641 108.261
45.4634 50.5968 95.8312
39.1338 25.4227 53.3192
41.5296 66.7527 105.558
59.5993 83.8771 99.9902
67.0837 87.7247 96.8461
67.8444 68.9429 113.91
66.9696 93.0997 105.654
66.5196 69.882 100.408
52.6441 64.7542 110.43
66.8954 91.6286 76.9741
39.966 79.2937 46.7474
41.5559 85.0072 48.9338
55.8073 73.1215 63.6014
62.6145 63.5159 99.0932
47.0697 64.3556 111.426
35.5879 89.398 104.388
73.4585 64.401 91.3263
31.7834 26.4313 52.5736
65.6068 68.8358 68.2163
28.5927 83.7349 97.5276
40.2024 91.7032 82.5724
68.8242 63.5833 96.7154
37.2591 49.4973 47.0985
57.575 100.112 80.9407
47.5952 60.6874 79.7017
64.1221 72.1785 107.239
50.5132 41.2954 50.6819
35.7524 68.5179 83.6257
38.0321 90.8588 68.6657
46.0456 47.3923 83.8691
69.421 83.577 70.9124
45.9065 60.5459 106.516
69.0817 73.354 91.9438
60.7496 70.1692 67.5811
48.958 54.7048 105.637
40.0901 86.6116 63.3767
41.7666 92.4774 70.9667
66.0169 53.3223 100.959
47.5172 94.3297 82.6964
55.2291 54.7627 78.5134
64.6567 55.3879 76.8194
37.9451 79.2459 117.898
55.401 37.8872 46.0036
63.2151 95.3808 86.7327
52.6494 84.2424 112.899
39.0788 53.3835 25.6047
38.1796 51.4358 86.495
49.9627 33.9839 36.4138
34.9543 66.3826 90.6118
34.6853 62.5174 59.3841
43.9924 92.0696 75.8009
53.5004 99.9947 77.9732
48.5405 78.4123 63.8354
30.1503 66.6805 104.095
33.0661 21.8833 50.682
64.8979 81.3528 115.973
37.5161 48.4198 30.2206
60.587 82.5743 66.5757
37.8149 48.9933 96.1908
44.5226 85.4699 65.8782
47.8919 21.5844 57.3105
25.867 19.5575 71.7083
30.4008 92.2423 103.009
72.9202 80.1963 99.1195
22.4791 47.2275 61.5013
54.4238 85.6029 117.016
49.9371 92.577 97.2306
52.4347 50.9997 72.2971
42.6265 48.2381 30.3784
67.1084 52.0161 81.6596
50.4496 25.8191 57.7784
36.735 51.3812 38.3782
43.7969 80.3959 63.1886
66.1684 73.6183 66.6549
68.9114 65.9033 108.982
49.6009 99.3715 81.978
65.5111 92.8442 81.8583
59.916 80.8103 106.486
57.5567 55.7694 93.1631
47.2531 27.3751 62.273
66.837 84.9291 81.2576
68.193 55.5607 68.5152
48.1595 23.035 52.9023
55.6356 92.2108 95.3745
61.1609 48.7464 94.7766
51.7206 75.2213 60.5813
43.9894 93.0221 90.4341
38.2275 23.0499 48.6621
49.4304 80.835 67.546
52.8378 53.2493 100.129
72.0553 71.8049 86.211
40.7551 44.6322 48.5807
43.0442 99.2118 89.6253
