ply
format ascii 1.0
comment Created by Open3D
element vertex 558
property double x
property double y
property double z
end_header
35.7269 46.314 30.2198
39.6002 98.4557 73.7868
26.2635 43.0722 65.7791
17.7117 47.0579 56.373
35.2659 39.6673 100.665
65.9718 75.7642 63.828
27.3265 26.979 60.8293
41.1731 90.0768 86.421
16.3438 72.4637 71.7933
24.2314 64.9042 97.359
33.8117 36.879 89.379
17.0044 81.9567 79.9854
63.0034 87.3858 59.1055
32.2053 71.9949 103.246
36.0736 38.9581 47.1356
33.7401 65.2683 25.508
33.0059 61.5189 68.9288
18.1015 82.8246 71.8327
32.9241 97.0524 90.6609
37.4873 44.7209 76.2525
18.1326 71.813 79.4516
24.9714 90.1817 86.1513
35.8646 89.7282 82.1972
32.0064 76.1008 72.225
50.263 38.3624 88.2177
40.1777 65.0883 92.6239
39.284 107.57 75.774
48.0943 28.3705 94.647
41.9244 87.8819 61.0857
56.2489 65.1498 103.84
28.3224 84.946 92.5552
57.1976 33.176 82.9408
46.9564 37.0632 82.2066
59.8019 60.2041 61.2026
18.2791 51.7413 49.6325
27.1606 97.5656 84.5882
35.6535 58.8237 54.0537
40.0326 76.3434 52.6988
50.8601 53.3534 94.5057
50.1209 35.3126 99.0138
36.7394 97.3172 64.1732
36.5266 92.363 52.29
33.4802 31.585 82.6955
18.2719 85.6806 66.0585
33.9996 44.0858 52.3104
68.1203 51.3225 43.4802
22.2261 38.5973 50.8289
46.5454 75.2486 106.683
28.0104 64.4196 55.269
17.1371 46.9389 62.8373
55.4535 28.9349 48.3463
53.8823 55.2272 28.4721
33.2491 26.0806 76.7986
38.3826 101.059 87.5271
21.2645 37.3228 57.5527
21.7119 78.5382 86.5227
34.896 58.5419 25.1523
15.6518 49.2927 72.5646
40.6194 59.7248 104.622
30.6259 45.7597 84.4587
42.4892 100.335 91.292
53.4551 60.601 65.3331
16.755 62.844 62.346
34.6749 28.6995 90.6641
33.401 83.8875 91.3623
19.6619 62.7977 68.3391
60.3904 53.5491 34.2459
68.8415 94.4546 68.6127
35.8367 18.7306 63.5686
35.8672 52.8745 27.4691
28.9725 67.399 26.5733
26.1578 40.1294 44.9162
42.424 78.9793 76.3253
17.5979 65.7916 54.6591
39.1947 102.759 56.4814
58.3418 98.216 84.3763
40.3188 92.1735 99.3936
45.7221 99.3595 84.2093
60.1531 44.8593 73.5041
35.5641 76.0838 30.3085
63.0367 81.8165 92.8024
49.6272 30.4614 60.0296
16.2051 61.5985 42.0135
19.1886 57.4809 83.0091
40.8779 54.2267 109.948
32.1694 54.2222 103.962
45.8361 58.954 95.1954
59.8921 62.1068 77.876
25.9309 82.8376 57.8922
21.2366 77.8609 47.942
43.2793 43.7799 91.9779
26.9753 68.0824 102.872
77.5684 62.1024 83.7938
35.9614 80.466 49.3373
38.4534 72.051 71.904
19.3754 72.8198 41.4917
26.1437 52.5249 99.8506
61.5473 45.9883 100.15
20.0059 40.3702 80.8583
29.3696 39.7405 98.5084
29.7716 22.2016 69.0032
22.4215 72.0857 90.7597
20.8345 47.6106 98.3181
22.2878 82.8741 91.6055
46.7688 55.4977 26.7489
29.6264 64.7797 38.3225
34.1173 74.6254 83.6555
42.687 42.5138 45.5789
38.0486 39.3248 83.3276
17.2694 42.1952 69.5197
32.9291 77.4515 54.5186
21.5477 50.0401 68.1113
19.4543 61.4194 75.6218
24.6557 70.7406 49.8458
30.0278 58.9888 107.075
45.8456 65.74 69.6385
49.0351 73.7722 85.8286
47.8875 85.5891 60.3614
17.5826 80.1861 59.7821
68.5128 94.347 61.4296
72.6455 51.2497 61.2778
46.0986 44.3185 83.6029
50.6078 45.9624 71.7876
46.5586 55.2375 83.9648
41.3461 37.2974 92.2273
33.2467 29.9741 47.0533
41.5507 58.9068 26.4952
50.3845 79.7499 59.9805
25.8459 3.87352 2.64339
26.1397 79.6604 38.6204
46.2461 101.73 58.6237
35.7461 80.4141 77.5755
35.386 63.3173 101.367
51.6196 85.8939 33.6885
48.7165 27.878 53.495
60.6593 76.2368 81.9345
41.8134 24.5801 88.1471
23.192 47.3855 73.8206
29.5849 99.0548 69.4599
75.936 66.409 77.9399
52.3725 37.1699 55.8856
44.9447 83.7818 49.1225
36.8588 19.6749 74.4924
40.1656 53.1898 69.0019
47.7392 49.4561 109.634
24.6839 41.2666 93.8307
52.5443 33.7022 71.1459
59.9774 52.1567 101.486
34.9953 42.308 37.2641
19.3252 91.4278 75.9714
62.814 91.5462 44.4155
49.0572 93.9487 47.5761
59.5222 95.5205 52.2576
44.881 77.2769 68.1055
23.2537 90.5535 63.0195
22.2527 35.1576 86.6745
50.9858 104.239 78.7485
53.3432 95.6874 50.9778
45.7156 71.6416 65.9618
22.8768 80.8444 99.1189
56.1248 82.1784 43.0072
57.0293 86.8894 97.3664
33.5196 47.0165 101.636
51.6131 21.3784 58.9789
65.5127 58.5473 72.1367
52.1733 72.3603 106.869
41.6631 42.2584 58.3325
55.7565 53.2987 67.9215
24.4424 59.9412 29.1906
54.5928 46.9871 47.4739
30.2143 90.0249 49.1809
30.7053 71.1727 47.0375
63.457 51.562 56.0153
16.2434 56.4578 65.3379
73.9431 66.4546 86.2662
43.7312 23.0984 51.8278
70.1139 56.5739 96.6841
58.9711 22.8194 59.2875
33.0577 105.315 76.3966
65.6364 38.0342 95.2815
64.1372 30.2086 92.9061
24.2008 83.982 65.0762
29.7265 78.8316 103.601
37.3153 72.7263 48.0564
57.6164 68.2401 36.8731
57.6095 83.5309 91.7327
21.8671 40.5893 88.2147
16.5754 73.7454 64.1102
27.5605 60.0523 82.011
43.7341 67.6812 101.758
27.8249 68.9331 89.812
42.8184 21.7955 81.9747
71.9655 72.0358 70.1903
56.0886 88.6235 52.6664
43.192 96.1806 51.9663
47.6833 17.0085 74.6833
21.7485 52.8019 89.0426
42.3357 62.4088 72.1531
36.11 94.8238 46.9148
23.8396 57.9452 40.6432
33.1702 51.2186 68.8552
40.5263 37.6117 67.3802
43.4722 49.7126 43.4119
34.2882 74.3062 90.8014
41.6256 57.0084 61.8344
21.8343 72.4133 33.4207
69.9035 88.0401 74.5444
56.1582 77.1215 86.2403
35.0751 45.4781 66.2765
55.2983 74.3284 43.6167
37.5503 75.6216 105.958
57.7338 82.6705 78.8169
41.8801 77.5529 105.815
21.7461 65.8916 80.2477
35.0027 93.2097 71.8136
36.4521 86.4594 40.69
35.8937 59.2568 46.0152
54.2366 99.8403 68.2702
53.7318 63.3155 88.7505
51.6786 39.7403 49.2314
24.8994 44.9168 103.06
33.2154 51.6201 61.6646
32.219 37.4392 39.2702
34.0754 32.3185 39.2236
49.5074 40.3449 66.6027
34.8791 60.8122 38.2053
51.8117 68.1364 72.4976
51.0607 62.0236 76.3603
50.2091 88.315 85.2185
50.3004 67.2032 27.145
42.6054 54.8346 78.9782
32.9572 98.371 56.3819
47.0389 82.5644 81.0729
64.0634 98.2341 70.5012
66.3364 48.2355 80.2667
43.4466 70.7741 108.758
48.7995 81.2201 91.6561
59.2601 50.8261 42.311
72.4813 45.4596 65.6698
53.7653 23.9655 53.6819
64.4743 52.5768 67.999
56.7117 90.8443 46.7688
27.6179 46.3226 56.8486
33.0581 92.3814 97.9531
57.8987 49.9151 61.51
40.3263 17.0854 70.4569
66.3794 94.4516 78.3694
47.4527 67.2464 82.5311
19.3067 58.7773 47.7427
43.3585 18.7236 59.5043
45.2312 32.357 57.4928
73.6404 46.9531 90.9446
72.9472 88.1472 54.3599
59.2935 68.8592 30.4449
47.5256 21.7801 71.2303
59.1762 74.1602 56.0884
70.9579 33.2546 60.6015
71.3975 32.8841 69.9884
42.1386 46.7083 107.648
46.9122 27.2263 41.9702
59.841 75.6416 62.9112
45.2142 87.5292 39.8774
28.7965 24.9371 53.0186
58.9953 73.4029 93.7646
61.6874 72.0579 38.6362
35.5421 46.638 58.5017
32.2253 98.6476 77.8665
37.1947 86.5943 99.2965
45.8692 78.7398 44.0431
59.6915 57.5237 40.2522
63.7731 73.2113 75.8105
22.8739 74.5336 98.2118
45.4432 65.8763 40.7832
27.3501 55.4866 43.6136
48.8113 43.1455 29.3653
30.6062 55.572 96.4199
25.1447 51.8859 36.9593
50.4828 82.2302 75.4951
27.7187 59.4724 91.1865
67.9437 57.331 56.917
16.2339 78.0602 69.4933
28.5502 65.3412 83.0311
74.5492 39.1106 66.4542
65.1426 33.2149 70.4937
27.3828 55.4292 65.0816
34.959 82.8056 103.779
54.2114 63.4592 40.4519
21.8495 29.1666 63.8863
41.1673 49.6984 26.7286
51.4245 22.4396 88.3169
55.1463 39.8909 34.7165
56.6686 87.6697 34.8548
18.4639 64.8251 35.683
63.9883 20.937 72.4936
51.9597 73.0826 80.9965
58.2758 36.7781 48.6653
38.6464 27.1014 42.2526
57.199 39.6007 97.2704
33.0362 34.507 95.7518
55.2505 95.8182 59.1632
54.4938 73.5599 96.6536
17.1336 1.70755 8.88741
30.021 93.7388 55.8273
55.1343 56.4732 80.5949
32.1976 63.9052 89.1758
57.1983 82.6542 52.8665
35.5962 22.7569 83.4685
69.0383 89.3648 49.4131
66.3802 37.5229 50.4039
55.7491 78.1359 60.1804
43.7902 84.7628 94.6291
51.7846 44.9955 105.491
66.9229 45.9941 88.3305
42.3234 32.4421 63.9066
59.5184 26.6696 53.6495
77.3721 63.3271 74.2043
64.7445 62.1993 65.7327
77.0223 55.479 67.2135
66.8149 28.2707 58.6104
40.4777 33.2431 37.5758
77.908 50.6898 77.8618
72.3225 64.6266 41.3322
70.4406 41.0137 92.8559
42.2381 36.348 99.7644
59.1948 98.8005 74.8456
49.131 25.6144 80.5218
27.6251 45.224 49.768
37.4906 76.7752 67.7143
64.1323 45.2051 38.9289
16.9592 54.4964 59.0769
61.9458 66.3455 59.5584
15.5935 54.6952 53.9049
36.8359 25.5515 50.5744
28.5211 64.4168 65.8467
70.7238 63.514 92.691
26.4993 34.7754 44.6934
51.6231 77.9881 99.2791
30.3068 86.6402 86.078
69.7925 46.1989 51.9053
37.9323 80.241 100.099
55.9485 104.178 80.3619
34.4176 102.796 61.0702
31.0749 69.552 77.5609
50.1216 98.9884 57.585
45.4059 32.8159 75.528
52.5895 27.7378 76.1875
31.2513 68.8307 58.321
44.3623 42.8083 105.497
55.7656 88.4638 71.2825
66.8576 78.2542 91.5021
52.2605 94.1286 87.6192
16.5975 54.3093 75.3085
16.494 67.1313 47.5007
46.532 21.6254 87.6857
59.7289 92.1882 59.6161
29.1851 56.5734 86.5267
52.6443 44.4082 90.4711
45.3457 17.2316 65.6025
69.7768 67.6352 64.5614
42.0247 75.3459 33.6791
59.5795 61.2282 31.6518
45.852 40.6394 101.391
24.8782 94.9606 72.7083
61.6518 22.0485 66.5106
49.2664 82.9541 67.66
27.3901 32.4551 82.7465
66.1025 69.672 69.2356
31.8233 83.2096 97.7989
49.075 56.5146 40.6033
48.9725 90.131 71.0979
63.8518 27.8351 78.034
58.9527 64.0275 96.4388
25.1674 71.1218 85.0231
28.8627 47.1985 32.0342
34.8916 50.6663 86.7544
40.0403 79.0226 62.6404
27.7775 31.025 49.1536
36.5476 48.0068 105.723
54.9185 53.0342 106.142
79.1316 68.7411 56.5276
52.4431 92.6772 40.5575
48.7429 64.0681 105.921
64.3336 69.9548 48.9329
50.7132 25.8778 68.3306
55.7452 58.0671 105.164
22.7817 73.3964 73.2266
68.4661 25.2196 71.2871
43.3454 82.9825 36.3909
50.6405 73.5905 68.2079
56.3924 63.9067 49.0053
57.4634 54.2683 74.3119
29.965 65.7637 106.461
65.658 87.572 79.1427
67.6407 67.7584 81.6953
33.8131 69.5456 68.6222
56.2324 68.886 75.44
54.3944 68.4872 65.2549
51.4112 59.0598 71.4184
69.1959 37.7369 65.7513
47.5056 35.9976 36.8535
32.9473 74.1914 62.9086
36.9367 53.5171 56.5679
62.242 58.1161 99.8124
63.8212 77.5997 32.4562
61.9672 80.6471 50.8008
52.2238 86.6729 56.5489
41.1875 32.7212 43.5441
44.5632 62.7926 110.079
59.6304 85.4124 68.7338
67.2327 81.3153 38.5971
39.3886 89.8532 46.1487
64.966 43.7126 67.2429
71.0186 37.5272 80.2865
63.689 62.1351 45.6612
40.5826 52.9518 46.6453
46.9709 103.41 92.7644
75.728 58.8273 61.799
57.582 42.7479 56.2476
52.9504 90.6826 99.2783
27.4514 70.1338 70.9716
41.0481 67.169 27.5047
48.4078 43.4938 37.8407
78.2392 66.5494 65.9334
62.1331 83.7242 35.6306
26.8061 27.6445 77.4211
48.697 56.9276 104.343
42.5127 53.8512 52.1796
33.7734 25.3546 60.7517
57.003 49.402 81.9364
51.151 18.813 64.7244
69.8359 84.8975 43.0034
49.8583 57.5218 111.021
43.9567 62.649 84.4729
37.9295 42.6629 61.538
27.4873 72.058 41.6404
46.4078 108.336 79.5076
69.6442 26.1508 78.7444
58.2861 101.511 78.4431
72.7936 62.0174 50.6942
75.0505 57.7829 55.6405
70.2834 63.7223 68.9186
62.6865 90.4534 88.9162
32.086 31.4229 60.9466
39.2787 82.9735 45.152
55.2194 30.3508 96.5345
37.5698 81.8531 55.4904
55.3389 88.2656 79.7396
69.2351 31.7332 80.9826
44.1864 71.0292 93.1334
48.0428 91.2311 55.0087
60.5445 62.4085 102.252
20.8967 56.0826 52.657
21.7251 54.8002 65.3052
77.0151 42.4539 73.0616
27.2559 84.8071 50.994
57.0066 93.5224 68.3184
71.1916 72.6187 38.4096
41.5937 106.558 86.3385
39.8257 42.2401 33.0774
63.795 72.1082 92.7685
64.7616 31.3333 52.9284
28.4447 25.3675 82.1161
67.5968 37.4545 84.3533
34.9859 50.6304 39.4685
63.5167 68.1057 76.5151
27.002 77.3852 33.0685
37.2027 59.9183 84.1821
53.6017 17.2553 74.4165
55.196 76.6379 104.708
70.5658 74.5184 92.6847
57.1324 20.4018 62.5541
44.931 64.1597 31.347
43.6032 41.1881 71.3052
67.2119 74.8247 82.5772
35.7209 64.7176 75.5803
48.6469 48.4505 52.2655
40.4465 35.6391 60.4464
60.2629 88.5123 38.5063
20.3435 87.239 73.5942
45.3615 46.0941 31.2445
18.1207 48.2534 81.3524
27.0298 34.4326 65.5732
55.1446 74.9842 48.8797
59.1591 18.9737 70.5501
51.5088 68.9471 36.9008
50.4442 69.1862 44.6938
55.8586 42.2182 40.9082
43.052 48.2234 73.3646
59.1103 35.7828 43.2391
75.5533 53.2134 83.9339
72.905 56.8359 89.3914
76.5616 44.1952 79.0562
61.8953 60.5061 52.067
58.6684 19.8339 77.7075
53.9391 98.797 62.5285
49.3063 84.5845 44.6902
53.3662 106.342 69.0763
42.0715 14.3895 56.3102
43.0087 90.3263 49.0915
70.5406 80.3881 69.8365
49.8995 90.047 63.999
65.6636 93.76 55.0583
58.9029 93.2102 83.7189
48.3598 88.3408 101.067
77.1257 81.1592 55.4806
23.277 70.1423 98.2794
38.2429 28.0911 83.9379
59.6471 70.5604 100.318
57.9975 27.4105 75.2509
51.9872 68.7561 78.708
35.3351 55.2589 79.581
64.088 88.9957 48.0633
53.3662 88.4164 43.614
47.6045 93.7507 98.7407
71.6939 43.404 58.6429
58.8913 71.3646 67.1236
55.0034 78.4239 54.2965
51.1685 42.2148 43.5899
52.655 59.7015 32.0287
28.6572 78.4926 81.9653
59.0073 58.0195 83.958
73.6504 76.407 76.763
57.7057 73.8118 71.5043
37.0298 67.9517 86.2777
30.5708 82.4014 41.8638
62.9366 81.9618 80.2972
45.5527 25.4813 46.4719
55.2764 71.2352 102.339
60.0582 51.9453 67.7271
52.0953 57.5978 107.04
71.9443 70.3724 48.4898
66.7153 58.5939 76.9561
73.2025 86.7796 65.1365
37.3713 67.1552 98.9762
68.2115 83.2171 64.9438
67.1261 59.6788 37.9408
71.5842 70.2993 87.9316
78.2855 78.6332 66.945
73.5361 81.4473 63.3461
61.2009 49.2039 80.581
54.9989 19.2249 80.8577
55.6366 104.523 74.2269
64.6073 54.4699 81.2928
40.3733 81.2237 90.868
54.4985 49.2868 87.3507
41.0461 37.6533 34.6181
39.4239 24.3146 82.1495
79.1267 57.2142 78.066
25.3898 52.308 31.3179
48.385 73.7507 91.4905
71.4928 58.9046 47.6118
67.8676 79.7152 84.2775
62.604 22.9642 88.2906
43.1297 38.9123 51.5469
38.2509 80.9088 95.668
77.9382 63.6801 56.8592
38.0541 72.7165 34.8683
66.6571 45.9039 96.4217
