ply
format ascii 1.0
comment Created by Open3D
element vertex 393
property double x
property double y
property double z
end_header
40.006 131.161 150.422
37.3727 49.993 96.8611
63.1435 55.722 66.6032
40.6004 56.335 101.36
52.5467 66.8212 80.6545
44.4186 71.071 103.631
63.003 71.5555 107.858
72.7675 121.203 152.119
49.1778 50.8772 106.571
76.5134 77.4367 95.2092
43.4215 27.0442 73.5579
61.8609 78.7555 79.2195
72.175 65.7104 82.5908
40.6115 68.9762 80.0913
37.0668 115.557 182.38
53.2787 60.813 63.4184
53.4975 142.337 174.228
53.2432 120.515 167.398
47.447 114.077 181.693
77.5508 60.6031 43.3634
55.4565 107.56 161.109
67.9363 45.4995 38.4572
55.0815 94.1976 74.1158
34.9041 125.347 155.795
60.7818 73.4206 66.9421
28.5878 44.2468 86.0505
62.7916 122.811 183.691
54.0974 107.254 170.586
46.2878 69.6524 60.6094
62.9261 48.9869 70.1698
80.4871 131.154 169.81
34.7159 77.2399 71.2327
30.0626 111.472 165.608
28.9578 137.932 147.358
69.0766 38.5828 73.3899
32.3923 58.6609 78.2294
59.3978 59.3598 84.0692
42.0128 53.5201 62.9352
76.456 95.8068 71.2138
40.4264 104.471 183.21
45.5147 32.6105 67.2593
43.8253 146.697 155.582
60.8038 69.086 57.4036
56.8706 147.503 180.74
42.6488 122.788 162.044
40.6907 47.9203 56.1335
74.5437 127.957 157.961
63.8926 123.853 170.91
57.4884 50.0751 96.1548
70.5119 71.1121 111.081
84.7872 83.3872 48.9556
69.653 28.8399 74.6944
69.3735 81.7112 51.634
77.6475 155.13 168.796
75.2927 28.8667 67.8955
40.4002 111.907 154.859
28.636 120.929 162.141
47.0059 59.6058 94.1448
51.3267 77.9524 79.8039
40.9822 130.245 158.415
60.182 32.1865 45.7307
58.6238 40.3898 95.2031
28.991 73.0567 77.5741
68.8933 37.9251 107.457
41.865 43.3387 87.0157
51.4209 73.7874 69.4836
64.1997 47.5948 60.1486
47.4343 32.0863 91.398
64.5065 130.873 179.793
66.0655 40.448 66.1985
44.4444 61.082 65.0856
61.1545 58.2872 115.017
52.4319 134.19 176.707
45.4548 116.159 165.635
50.013 98.3342 167.186
43.7632 36.1309 47.6434
53.5436 28.5249 77.8294
82.2762 67.7922 83.1937
56.2391 134.205 167.875
30.6249 112.529 175.31
37.3806 107.225 167.387
79.6063 140.496 178.936
43.3839 75.7558 96.9487
59.9342 44.7813 105.601
90.7502 80.4488 93.6782
65.3505 34.661 38.2839
48.7229 37.981 53.4928
58.5034 33.754 70.6013
52.3476 76.1894 99.0603
35.0745 45.1265 61.9367
42.9518 54.4518 80.3451
28.6809 40.8549 59.8175
56.5436 66.9814 91.7715
38.2408 35.8787 92.5304
73.5938 72.718 77.5006
70.1821 153.823 156.808
64.2374 49.3202 88.6296
56.2543 38.5067 82.929
64.4522 132.922 171.045
69.7499 47.0175 108.078
31.2488 129.607 149.5
56.6483 56.5806 56.4215
80.2346 66.1184 106.851
66.7017 57.1643 100.938
51.6797 81.0976 88.7243
62.4322 27.5457 75.1906
73.3509 37.5426 40.3223
30.0286 67.4397 62.5664
33.4464 63.8247 88.4136
27.8668 55.1294 86.6939
79.5638 64.06 72.3919
27.8995 52.3684 79.3184
39.0557 42.7165 50.9407
50.0642 133.071 167.306
68.1026 142.741 176.364
63.1145 33.0136 87.4354
54.3912 70.1157 62.0287
48.6614 138.948 161.34
44.116 77.1357 82.0543
51.0733 140 183.363
66.64 91.4581 95.8206
81.7681 27.3237 67.7981
64.1445 34.1927 59.0898
92.5775 68.7966 76.81
54.8003 33.5181 53.8407
67.544 109.118 181.515
57.1068 52.5855 77.7963
65.2443 86.9081 87.9454
69.5945 28.0482 87.2577
44.1104 103.733 163.523
85.5827 31.7145 75.3224
35.7753 121.801 165.679
66.0407 79.4299 93.8846
27.5163 44.2782 71.3276
83.0294 69.3065 48.9643
76.5416 135.985 158.398
57.518 126.614 174.138
53.3031 122.613 181.479
43.4653 84.8671 76.7456
49.0045 70.5164 92.8559
57.0305 101.675 165.775
65.277 45.7234 79.5303
56.986 68.2064 32.9052
56.1282 80.8041 63.2201
64.3707 116.639 149.794
30.608 35.7268 53.4643
52.0542 60.209 104.161
54.9573 43.3867 61.3221
57.9524 59.5971 96.5483
78.9716 39.1633 100.456
41.5432 53.7761 70.7415
36.065 74.4455 87.4524
60.9652 75.255 87.7151
67.4379 78.3 113.587
69.1357 68.6433 50.0699
42.6274 45.1456 67.3186
44.1346 123.657 185.557
34.3156 112.235 158.831
41.0602 85.2161 91.4603
49.7456 90.8462 67.8306
62.5263 135.753 162.551
66.181 56.1467 92.9161
83.6728 77.4155 85.2397
70.8637 124.198 172.523
51.1709 37.4008 74.845
41.9337 114.497 173.56
75.6137 80.5464 75.6954
66.6531 73.2318 97.9731
50.3997 22.973 64.3061
71.2884 35.9042 58.8057
70.0248 74.5195 86.3569
49.8301 53.1004 65.8793
69.8442 95.5478 81.8489
77.1433 37.9787 65.8109
52.7683 80.1202 106.842
72.2655 45.638 58.7629
82.5171 40.5606 107.568
46.2014 42.9357 61.2519
42.4905 129.154 168.182
85.4114 122.21 195.029
60.4335 116.578 164.352
85.1218 73.9493 76.2641
48.3788 109.817 149.604
59.5902 42.3328 45.6733
88.8485 59.7056 81.4945
52.0277 85.7029 75.8972
77.1316 123.318 164.863
45.2932 139.579 153.205
55.4686 104.356 152.155
39.9736 65.8192 93.6841
74.0747 76.9872 62.3478
45.5471 36.9729 80.7189
64.3707 84.8845 78.9978
88.6358 91.4238 93.0756
57.9323 129.953 160.466
67.9897 107.678 50.7725
60.9688 84.0751 101.553
47.6647 97.044 174.275
91.563 74.8785 69.6067
67.0156 83.827 60.7108
64.5577 53.3448 45.7206
50.3689 43.7315 100.08
56.2768 66.7298 107.958
45.4641 24.0333 79.8016
81.3704 86.6634 106.101
58.5661 155.024 169.692
77.4438 99.8971 106.586
84.6142 113.91 197.202
73.2641 143.267 165.302
49.7956 45.4756 73.8921
81.2913 55.851 114.011
88.1879 61.4105 72.939
67.4371 25.9389 66.6024
90.3817 52.9047 90.3466
65.773 18.0202 77.227
85.978 53.0606 103.924
36.6321 55.3445 58.1643
71.8505 89.0057 111.212
84.379 59.8499 66.6786
55.7196 98.0447 159.733
48.6804 108.156 182.279
78.2177 33.5658 87.3968
55.1396 30.948 63.1282
77.9543 44.8723 74.9105
64.8501 31.6005 96.2823
84.5271 73.0472 99.6729
44.118 141.755 165.008
71.4209 69.0834 61.306
68.6238 101.935 74.4821
29.8561 119.648 182.61
35.4586 116.101 172.658
80.215 79.1673 55.3265
83.701 43.6846 80.9811
84.4189 79.9 68.6014
62.2247 62.0884 51.3776
72.802 97.6951 90.2711
70.4905 40.0034 88.503
85.2499 31.8034 86.3446
67.577 53.6764 35.1545
29.9129 68.6384 71.0593
83.6907 37.1658 64.7532
54.6773 57.7993 73.3612
81.5883 58.2271 80.1937
68.3127 144.043 157.191
58.8425 87.1215 73.1974
66.7078 53.3528 115.674
77.6854 45.7276 38.2383
70.9432 123.156 162.604
46.7796 93.6404 76.0221
70.5294 102.147 46.3342
63.8584 68.9367 79.3669
89.2898 133.304 174.943
72.6588 136.426 172.367
55.9893 102.864 178.595
90.0353 125.963 156.978
67.8176 29.5637 52.8753
74.2952 55.2771 62.1219
71.5999 57.585 72.2077
81.5046 68.9492 94.057
63.9434 65.6047 101.697
42.8725 105.968 172.499
78.8233 45.5909 104.701
48.2494 62.3748 112.275
64.3661 81.6188 69.7061
77.7973 51.5899 89.0915
82.7331 82.5107 77.8949
80.8253 40.0511 47.6551
66.4676 63.6989 66.2793
81.9234 34.1821 94.7708
71.9492 60.066 48.7756
68.6366 56.9801 41.8764
41.3067 66.0186 50.6126
51.2643 84.0448 96.2657
78.5329 83.5784 63.583
62.8583 51.1697 51.643
76.3051 88.3841 77.7505
76.2535 77.1014 84.6942
49.0902 53.0645 97.1248
35.1502 66.3297 76.2707
63.2021 36.1388 101.306
36.2349 140.036 151.411
78.0946 28.4736 82.0972
56.1539 60.6956 32.4449
68.1326 55.9237 78.2734
84.9719 36.2768 56.055
79.0397 52.735 96.0083
52.5479 42.2428 67.9373
80.5386 119.045 171.179
56.9719 115.549 187.358
69.4292 89.12 79.7028
81.242 51.3752 48.975
91.3263 56.3357 111.994
47.9152 89.82 84.5797
71.5518 22.4686 76.5793
46.3917 126.222 176.166
44.2456 62.4778 103.311
76.3247 49.0034 67.479
63.8548 62.7966 75.5899
77.2342 82.3273 48.3773
68.6381 43.0681 51.1321
87.4863 133.403 166.639
46.3375 102.157 178.552
83.5696 23.7468 83.4612
74.9978 45.2912 99.4429
81.2307 139.553 154.067
73.1093 36.7637 97.35
90.282 147.778 184.826
71.3962 35.3861 80.6843
75.9086 48.38 80.1008
84.4965 97.1147 111.144
77.2042 47.822 43.9906
75.1477 89.0774 66.6967
82.3278 60.8236 57.4799
70.8285 107.612 169.94
86.313 81.3225 100.353
80.3818 115.987 192.17
78.7141 150.15 174.746
55.9622 119.073 174.431
73.2501 87.1789 99.9759
64.3566 106.037 56.5666
33.3795 49.8693 71.8029
75.1391 47.834 52.3938
73.1567 56.9997 104.71
55.9926 52.3052 50.0665
44.5364 40.4132 96.4838
85.2593 66.6755 111.825
77.4989 42.2795 89.2612
85.3971 126.577 172.858
90.2951 65.7401 87.7117
80.3322 71.808 66.6455
81.243 126.789 190.091
70.3339 113.926 147.245
93.603 59.0168 98.9864
89.1613 144.415 177.948
68.7584 135.662 158.178
60.6819 108.973 180.168
85.8326 152.87 181.262
90.8706 67.0602 97.1668
95.3034 120.713 190.986
74.6608 81.3677 41.5329
83.1708 131.525 149.515
90.4354 40.7845 68.1032
79.6806 140.903 169.17
67.7066 45.2378 97.9999
74.7163 62.9168 98.111
75.9504 62.1995 87.8673
30.6728 117.702 172.588
90.6381 53.6131 47.9807
84.0154 119.482 182.358
78.9473 80.044 114.646
89.9872 131.396 189.663
67.0967 143.249 165.052
85.483 60.4002 51.527
85.7348 67.7212 66.8744
79.1576 77.1567 108.468
62.3591 112.294 172.861
78.3271 90.4404 90.9626
76.8367 94.618 42.717
90.5095 49.8202 65.8487
84.0683 45.9112 96.9503
85.2608 134.18 158.995
87.5531 82.7407 59.4368
92.3694 33.6804 79.2211
78.0393 64.2601 61.2697
90.3289 156.41 181.887
27.974 57.6448 62.1136
68.8514 123.972 185.221
90.0209 70.1005 57.626
72.8537 113.638 170.194
66.3225 115.09 59.0363
87.9897 74.43 108.288
71.2073 112.92 160.457
48.687 57.8124 71.8579
71.5071 118.361 188.477
77.1947 56.7028 108.867
72.1065 55.4172 55.0458
76.3941 67.0287 89.7247
75.6849 123.367 181.297
51.0593 49.1286 88.5799
71.4098 94.0211 45.5977
70.0473 118.101 178.109
90.5367 59.8711 65.245
94.3337 134.563 165.94
79.2099 90.8855 101.475
61.4156 137.747 186.843
89.025 39.6395 91.2216
82.1899 108.614 184.472
54.0282 48.1827 84.0353
94.1067 35.379 67.7645
92.8959 79.3504 63.4615
69.2851 78.268 41.6913
76.3725 140.659 152.99
70.0055 61.3596 95.8645
