ply
format ascii 1.0
comment Created by Open3D
element vertex 1003
property double x
property double y
property double z
end_header
57.3042 73.6953 177.389
49.4783 205.234 88.3903
38.946 204.933 76.8306
44.6416 166.997 87.6985
39.9079 194.907 64.414
66.0028 72.8298 180.617
44.5563 215.898 71.5576
51.2439 68.9407 86.9856
73.1495 81.1397 151.452
42.3492 72.9802 86.8373
77.9241 92.8753 176.024
59.2829 158.614 78.7029
55.1351 80.1221 166.685
65.9114 96.9745 111.223
46.324 191.73 70.5758
43.1874 193.889 112.604
63.9792 100.284 186.946
49.4065 95.6933 191.893
61.3683 90.2363 190.347
31.9815 67.7359 88.8441
81.195 163.53 122.666
71.2794 88.9759 99.8031
49.2394 80.3727 180.092
29.8649 126.291 57.3114
30.4245 173.867 94.6768
47.5374 79.8947 113.537
71.9542 59.4583 77.8229
97.5123 30.4251 68.304
58.6785 80.5896 154.217
30.4458 192.821 105.188
65.8913 172.978 112.532
87.7306 155.184 96.0114
41.0956 129.901 95.6694
38.6935 206.023 67.9442
44.2394 188.15 62.166
77.5214 64.1433 100.063
61.8952 44.0151 109.65
60.1272 195.958 132.887
33.9116 57.6005 106.23
52.3003 198.15 93.8303
51.1558 145.096 62.1223
95.5405 197.162 99.7426
43.3199 211.017 66.7721
37.1763 183.299 61.836
48.3951 94.2499 101.681
57.8635 100.027 81.2876
46.5017 47.5466 109.547
36.2579 175.143 92.3569
64.3577 111.485 172.157
60.0725 205.522 47.73
81.3926 21.6275 106.374
59.5755 192.54 96.9242
57.2894 108.134 152.558
83.323 92.8528 120.694
41.6447 179.07 108.831
45.4254 42.7567 92.139
92.2836 228.406 94.3046
38.8664 58.7461 90.9798
64.1407 108.953 152.939
42.4481 88.4293 177.321
54.6226 42.5104 83.8899
60.3008 221.78 49.8862
100.121 50.7132 103.998
82.8427 37.1856 75.826
49.4308 200.567 46.2778
35.3881 71.1525 78.5584
47.4212 39.7399 113.895
78.995 80.9253 76.1685
68.2181 49.7905 106.613
54.1165 92.9851 100.346
65.7162 204.073 54.8998
93.3766 86.6389 124.052
66.1617 194.54 78.4571
70.3126 102.626 184.573
36.7633 172.133 38.1838
70.0371 201.419 101.706
63.4831 168.978 54.9392
38.7686 178.452 118.957
59.1554 76.6422 116.183
47.2456 165.462 50.2813
72.5242 45.3168 49.076
60.4693 177.295 59.1642
52.3793 222.338 52.5553
77.3116 91.349 100.741
48.3137 90.1526 76.0236
36.0563 187.362 116.005
56.8812 175.852 39.7346
78.1366 228.43 71.4825
71.9804 178.911 28.6352
71.961 170.316 32.6113
61.5132 65.5483 77.8805
31.8586 183.232 89.1397
36.5639 82.805 87.5772
58.9389 87.0561 104.032
74.6458 93.7341 148.784
67.728 133.796 88.121
44.6804 200.176 78.6802
99.5622 164.245 41.44
60.1799 163.099 48.3765
71.1596 84.1321 116.947
47.3486 30.6461 104.923
56.2993 164.993 121.883
52.4779 139.66 90.8368
38.1882 183.203 83.9454
54.4005 25.1472 98.4342
82.1181 141.389 64.9184
55.7531 202.116 54.3254
68.5241 170.406 61.9752
72.9154 66.6669 123.325
58.9515 32.2734 118.084
72.5485 207.274 66.2551
77.5834 157.78 85.4758
43.9007 167.107 66.5276
30.0462 64.7933 96.9249
57.4637 82.034 66.3287
63.7419 208.939 62.2468
59.2749 74.5367 107.835
61.1733 78.0456 125.45
41.8703 71.5545 76.9298
69.7033 63.361 88.4733
118.745 18.3255 118.067
72.3275 190.915 114.897
83.7914 214.09 90.1006
55.7239 59.9128 132.35
34.3743 80.5241 93.3495
73.4274 94.5556 123.588
47.7545 150.623 68.2131
52.2289 45.7678 75.6896
60.728 51.853 105.389
39.8933 190.14 84.6887
88.3176 51.1824 94.6813
79.0897 52.3169 110.287
70.2252 213.176 53.2905
98.8861 35.5244 80.0304
61.4067 90.4881 70.9101
80.3928 213.618 43.9092
91.1382 161.852 103.039
37.6936 166.145 101.481
36.086 202.601 97.627
35.4784 87.4393 99.7764
73.0052 88.4785 69.9637
53.6298 158.916 66.7881
76.4623 143.045 65.2241
71.2595 32.3689 100.451
48.5051 89.3303 186.892
47.507 81.4602 69.7047
62.6385 203.707 119.734
91.934 96.395 96.6403
61.1517 187.272 56.8399
55.2428 63.9183 57.0574
82.3926 23.0165 84.8969
49.6308 187.281 28.5549
59.9021 168.467 114.167
61.0558 177.316 86.7622
35.9229 73.2124 95.5492
61.0085 200.012 92.325
48.9921 171.39 116.344
42.4417 175.467 78.068
32.6034 45.4652 91.6828
80.4167 169.665 97.5462
60.6509 23.4868 84.4179
59.4785 105.009 167.72
71.5615 204.379 73.0534
80.1158 78.7372 113.315
88.6641 242.333 114.257
72.768 169.243 98.0519
40.9072 178.803 43.3452
64.1341 91.4236 120.375
52.1238 103.749 169.358
72.2798 19.8075 109.217
39.6006 172.562 83.8948
57.7363 174.447 131.349
85.894 85.9495 123.523
78.1826 78.1861 180.267
55.39 163.945 54.4812
46.912 161.082 71.4145
69.4257 36.9501 64.2974
50.4484 61.4628 107.071
64.599 179.386 132.876
92.6512 171.326 118.532
46.2111 87.778 107.106
50.8571 65.3052 101.381
72.2585 115.537 170.175
65.5301 205.823 35.9506
77.0608 204.921 90.5017
72.3638 193.946 103.499
67.0299 187.132 79.642
59.8094 179.951 28.3061
51.8427 33.578 116.768
72.4032 96.1837 63.7372
59.7664 214.33 103.823
53.2429 54.3498 126.451
55.1981 94.5133 186.336
67.2394 58.3431 106.365
78.4824 90.6997 88.1093
79.7394 151.158 93.2897
40.112 193.292 48.3984
62.0792 154.5 67.3723
62.2026 162.912 34.0184
67.7919 97.4727 162.647
58.4388 57.1703 115.984
66.2466 219.763 87.877
81.9782 157.048 105.997
58.4688 62.7083 90.1611
39.0731 173.046 50.315
36.0645 190.229 91.1798
74.454 100.039 96.8698
46.6959 57.0997 111.311
59.0199 153.15 45.7336
70.687 187.03 99.1085
76.0409 225.393 95.416
53.2691 208.944 36.3154
86.9293 90.6458 96.0228
65.6673 196.302 59.7786
64.7758 163.103 69.8229
49.8707 161.707 60.5711
85.018 96.66 69.055
53.034 73.2375 105.994
61.9018 155.81 54.9833
70.0341 225.94 64.0933
29.6233 45.3572 103.328
49.6526 65.0055 120.145
66.1233 55.8861 73.7707
62.6535 87.4313 146.825
78.0678 70.5136 47.8229
96.4522 213.275 76.4714
66.5046 81.2157 177.534
47.6406 70.6426 78.1205
73.0068 105.477 155.726
49.0996 97.5853 182.066
67.6245 191.569 129.409
95.1784 146.092 106.92
73.1308 222.438 89.0625
57.758 199.74 60.1604
47.2298 198.631 100.448
59.6372 180.118 74.1079
80.8016 184.394 43.0777
45.5307 150.373 108.191
66.2582 90.1252 81.3919
58.6394 209.362 39.1381
58.0911 83.4058 176.178
51.5469 174.231 129.592
56.3193 84.1791 115.256
57.4437 64.0486 112.825
63.6775 203.769 72.2679
71.7758 133.111 94.6995
49.7296 202.654 35.0124
62.4809 96.579 82.3931
91.8053 161.194 37.674
41.8011 183.184 51.9941
69.7038 68.9579 66.1637
59.5728 49.4751 117.432
55.9404 149.528 72.3012
48.447 154.866 54.2917
71.8378 201.874 120.38
70.2411 67.2888 72.5783
91.1182 94.0905 119.274
54.671 61.9628 65.3817
75.8264 206.557 52.6369
46.3435 68.974 116.186
76.1058 87.5337 154.767
76.7482 101.609 170.668
89.3754 28.5977 83.4135
76.2258 33.4182 74.2979
72.4609 151.546 42.9399
36.2339 60.2058 99.3138
87.3858 142.42 64.2475
65.9245 69.9146 121.179
45.871 173.015 37.9835
88.5995 98.6218 127.807
49.4595 58.4155 120.733
37.6816 196.973 109.954
91.4088 147.488 72.9274
83.1788 107.2 110.621
74.4612 218.832 99.4114
69.5644 214.881 99.4037
75.4644 206.641 110.682
61.5265 165.89 39.2443
33.4298 72.6714 119.227
53.7469 106.123 188.009
45.081 189.22 79.2221
97.4978 98.9391 105.271
43.8094 198.467 129.38
37.3585 207.659 112.28
36.7292 184.16 39.1989
49.9887 83.3202 152.583
84.1772 194.82 124.245
75.0178 86.1748 166.001
71.3645 91.0812 169.157
53.5316 57.2423 140.768
60.9851 82.4351 77.3861
85.2552 228.636 97.8606
40.9604 76.6971 109.265
63.3176 159.983 122.375
79.1855 164.624 84.2256
66.9765 88.9243 72.4269
47.1152 55.2068 93.4034
63.8227 81.912 170.209
67.3712 214.26 69.9854
87.0134 155.472 71.7534
65.9725 26.4588 104.954
60.3406 177.899 66.6316
78.0551 211.729 88.0021
47.0965 159.699 79.1944
64.653 28.5928 81.7916
96.8864 155.39 90.2638
63.4551 38.5295 64.1672
78.9648 89.7701 162.35
61.3992 189.496 114.969
50.1114 75.871 73.9473
48.8162 202.639 108.288
65.065 180.621 126.844
48.5193 103.856 159.079
47.6264 169.388 42.6254
46.2478 209.127 81.3674
45.0225 82.4814 78.0093
49.1098 107.425 164.48
76.2248 112.815 111.081
87.9127 226.422 68.4326
90.9206 68.202 83.8456
59.2075 53.3248 80.7419
63.4478 63.2889 70.2118
81.7299 184.946 101.99
71.9686 86.7955 84.9906
36.089 48.0551 105.279
54.442 149.668 51.7327
68.9322 162.333 62.5388
39.9678 87.1314 114.592
65.8896 189.575 122.557
83.6437 94.0608 158.73
54.5426 42.0765 115.23
50.2247 142.536 79.921
60.696 18.6393 102.008
82.953 158.707 38.8651
67.8121 127.841 99.8801
65.8281 200.594 27.3338
73.4231 158.79 67.7296
68.5933 104.028 84.1638
47.1251 73.8465 165.941
50.6614 35.0202 78.7863
53.8943 57.1119 89.3822
63.1031 73.781 62.301
62.5873 211.015 97.5665
39.6833 170.009 72.4728
52.035 165.516 115.034
58.7632 173.603 124.918
87.4115 137.476 57.0496
79.5599 101.289 78.9623
59.989 199.499 36.2798
82.2407 33.0696 66.3909
89.0419 80.9706 84.9021
77.9444 78.0008 89.9393
51.2047 201.997 127.152
61.0476 172.993 98.3128
35.3453 202.559 107.147
98.267 93.0052 72.1547
51.8728 71.7291 63.6039
63.0802 113.078 160.726
78.7273 149.116 106.19
64.1693 180.556 47.9524
53.3416 158.451 51.5984
92.8313 139.102 51.871
72.6 185.14 119.333
100.551 89.1135 112.273
106.059 196.247 117.385
65.4872 175.874 32.6365
69.4974 87.0374 148.599
69.4329 180.115 90.5869
81.5118 174.066 105.864
60.5698 46.4133 77.9472
61.0221 225.362 79.1483
75.5593 217.218 47.7716
85.794 75.0012 97.3989
40.4687 166.422 79.8323
97.9413 84.1917 72.1553
81.9982 141.826 56.7819
117.588 228.778 76.0201
76.1832 182.798 34.9727
81.9668 98.7465 171.534
74.7284 173.481 46.1903
71.025 102.108 173.558
60.2109 40.1097 70.377
80.7746 174.115 87.8821
47.532 82.343 163.558
57.3602 218.135 91.9994
69.1743 33.5119 88.5439
68.468 218.777 40.5825
70.3072 148.675 108.915
84.4691 34.3264 118.547
78.5925 42.3911 48.8871
87.5285 42.4928 101.887
69.1403 97.5896 153.43
74.0819 218.341 59.6408
80.0024 187.106 35.8379
78.7167 140.037 95.7254
77.404 84.0129 177.73
40.3554 176.022 65.3434
65.9418 162.383 117.712
38.1558 37.9807 79.1058
89.9773 93.6193 60.4995
28.7097 53.1329 91.1275
42.1297 204.75 118.306
52.3184 197.856 30.7004
64.3072 72.6701 72.1296
45.9175 179.017 119.119
38.8404 190.496 53.2789
63.2681 90.7549 169.196
73.7894 173.614 55.1331
44.9407 67.7854 63.2321
59.031 158.488 65.3134
63.0253 61.0955 108.882
48.1301 23.4903 106.453
43.3597 206.562 60.5976
51.0202 94.4378 173.821
59.491 213.974 88.731
66.7749 206.559 43.9848
70.6697 225.474 75.8558
79.1231 149.155 48.767
43.293 33.8954 89.9574
51.8814 82.1678 71.766
93.6782 58.2264 96.9374
61.1323 100.957 158.797
61.8081 216.995 61.257
88.1867 146.859 96.0658
48.5816 141.33 117.871
80.0358 31.5603 112.674
43.7617 178.271 93.3095
31.2518 188.068 112.055
75.1838 187.993 129.116
50.5691 195.949 135.293
91.3523 166.798 65.849
41.0452 202.328 93.0534
46.4082 92.4331 171.276
58.9744 186.262 66.8223
48.841 90.6208 159.707
95.2053 55.7624 119.883
48.5697 185.614 67.0965
67.228 151.859 126.948
80.1935 212.591 55.8634
78.395 197.368 80.892
81.5404 78.1697 164.406
65.3325 189.374 91.3413
60.4785 149.958 40.0769
86.1889 53.7308 56.0981
69.7995 162.83 37.0966
64.3473 199.608 99.9006
86.3062 212.903 45.3051
57.056 129.754 78.6086
49.0716 188.513 51.6644
42.1833 192.156 123.82
58.9255 133.256 96.8103
57.8619 215.584 74.7509
53.2429 87.6668 107.051
56.9876 35.2541 73.494
61.7854 192.831 84.8618
40.6204 60.7146 74.3977
90.334 27.6404 74.9793
41.4397 140.735 83.0216
39.0649 142.363 99.7983
73.8333 106.941 114.008
40.0083 76.2507 71.2609
59.7406 69.9464 113.332
73.953 183.436 105.618
62.5996 58.9134 125.12
46.8985 213.896 77.74
83.6558 137.804 80.0639
87.6347 174.963 57.8825
68.5481 206.543 115.95
63.0836 85.2586 93.4084
45.2482 66.5073 103.701
52.8136 105.473 180.969
60.8612 96.6094 148.955
88.8548 230.337 78.6558
75.8539 162.694 122.06
52.5662 182.536 87.0677
89.8595 67.8196 57.8232
82.7049 214.686 78.9968
79.0268 140.36 88.0461
31.714 178.467 105.488
92.0321 222.729 85.5958
76.8179 145.629 113.353
61.4142 184.687 82.1966
53.4556 92.7089 111.802
55.376 22.1208 111.75
89.093 198.722 117.451
77.3306 161.941 74.0907
84.1364 225.356 72.1785
91.3057 160.135 122.502
40.2556 162.211 107.728
40.5477 184.245 127.729
54.2732 26.5264 118.382
62.3439 130.299 74.8397
42.333 53.673 105.334
74.2293 21.9293 83.237
91.9792 63.6581 123.151
70.2384 101.894 92.1575
50.7358 167.2 126.323
52.3572 184.226 34.1211
99.9476 94.4377 90.0926
91.6859 208.278 120.792
84.8221 157.55 83.7947
62.669 137.32 78.0738
70.8472 202.225 90.0164
31.5986 82.8511 107.738
49.0823 219.58 46.992
67.2618 226.733 87.4819
93.5764 142.147 64.5181
82.4468 196.052 30.5473
43.775 67.0874 93.0055
94.5906 154.952 83.0771
55.6563 200.579 76.5799
53.1358 175.212 54.4517
54.4319 141.017 104.128
83.4267 175.711 65.3735
99.0299 37.917 56.9319
71.7021 57.7252 58.3208
46.0478 85.2167 156.881
59.587 68.1455 96.5784
95.8689 234.259 90.8128
89.8669 218.307 113.122
56.8674 111.765 158.338
67.4849 92.0579 149.329
49.2166 179.736 96.0094
68.9093 82.5879 109.577
84.5329 169.61 52.4221
79.6676 94.3894 57.4987
57.7313 128.434 101.25
53.6842 171.453 37.7984
71.4181 99.6882 80.4854
84.5768 164.954 105.834
81.0183 205.922 106.829
51.8511 54.4299 112.735
36.3187 83.0618 109.484
78.4666 205.565 68.2832
46.284 174.07 128.572
78.6101 54.9701 51.5723
33.0795 54.5367 77.1832
80.901 206.605 30.699
76.43 198.829 111.221
41.9977 185.13 74.6557
81.2756 173.351 121.684
87.4891 138.76 86.9797
74.4705 140.869 46.2886
33.0933 78.9442 115.398
53.792 160.819 103.735
62.195 221.162 73.8298
55.3431 34.1854 107.348
47.8426 182.8 78.3164
47.7335 64.0328 69.5685
70.4949 15.3756 97.6772
63.6652 176.434 80.8458
86.819 221.221 95.8256
38.5845 147.269 105.191
66.6128 171.059 120.93
64.8239 195.259 110.82
53.3544 210.549 57.6336
44.0667 203.995 102.971
74.8726 84.3487 49.2299
72.8439 205.629 28.7159
27.4962 47.3688 45.1499
64.0898 19.8862 111.066
88.9981 75.0571 70.9545
27.956 74.2322 92.6569
53.9033 90.869 168.064
53.6738 206.453 75.473
46.8519 153.908 81.8988
30.078 61.5856 80.3356
46.5172 206.927 128.395
55.9301 212.671 51.2181
98.1906 78.5553 82.0038
63.3588 101.47 72.4231
66.6422 23.4007 76.5198
77.0687 223.689 53.6216
61.9778 205.142 127.638
91.4951 201.634 46.2203
82.1426 53.9377 117.581
70.7774 47.0645 71.4985
88.5135 107.555 108.712
71.9498 134.482 107.308
54.956 212.59 117.394
69.9305 198.194 82.8264
65.0697 42.52 54.9009
82.4333 216.611 107.725
73.2067 101.481 63.9412
59.7299 101.825 90.8763
73.5531 81.4282 94.8772
66.2483 57.0536 64.8744
73.6035 196.727 125.583
87.1607 106.306 101.903
64.4704 205.62 90.8873
48.692 186.778 94.7843
70.4836 193.695 74.3983
44.0532 91.4376 157.536
98.2149 93.0364 99.4932
30.7922 78.8376 100.498
81.9733 77.6945 50.9057
27.9239 154.076 90.5915
59.0826 48.7991 124.449
35.6952 186.013 47.6705
56.9806 178.725 91.3427
89.1478 163.848 127.917
48.8153 25.4206 91.3387
69.8983 199.183 132.534
81.383 229.49 90.8037
64.6319 79.1115 65.7871
80.3937 82.9254 101.083
37.6203 67.457 66.6786
76.6623 32.7869 119.421
91.9057 199.962 68.4555
87.175 32.6237 58.6939
43.9064 172.033 59.4579
64.3088 216.238 100.035
50.3272 153.169 73.9617
57.9914 90.4064 177.939
58.77 225.472 59.4501
60.4657 139.71 54.2575
39.0533 84.9996 168.702
83.7192 105.035 136.454
63.404 181.356 98.0664
60.5531 224.416 66.3035
78.2804 34.0737 51.0375
73.3797 166.236 88.8184
36.3432 181.694 52.4795
75.7205 168.83 106.83
76.1251 158.354 115.159
31.6409 172.068 111.549
40.9326 196.146 118.012
81.6391 166.867 58.3864
80.9025 41.8747 125.909
61.3557 140.197 85.7838
90.1583 41.0935 113.549
47.2072 177.561 31.1958
86.5319 84.09 50.2648
73.7655 146.906 77.3255
54.9147 220.353 82.0061
37.6916 202.861 34.054
64.4665 78.6744 113.421
55.6181 89.4388 70.839
55.237 183.409 60.8277
99.9262 214.858 111.847
65.1881 70.6286 106.325
55.4476 25.4479 81.7362
84.4287 80.5397 99.695
75.5742 77.2382 119.097
55.5926 72.3521 76.5359
53.3741 214.049 81.5648
72.917 86.4136 59.3953
76.4115 188.388 52.614
87.5063 26.3602 110.12
57.937 199.746 69.0139
65.6777 171.884 37.3515
51.0058 167.753 33.8393
58.2232 90.2679 148.663
65.1315 128.994 107.431
82.4168 29.8755 73.6777
47.2547 131.698 90.0715
65.8118 31.4012 71.724
66.7475 200.47 123.115
54.2598 100.998 161.27
54.2462 97.7428 95.4882
48.7389 76.9498 172.972
65.7494 67.4064 83.201
75.4617 179.138 133.154
66.0886 85.4681 59.3614
65.9658 179.275 93.7989
60.9987 213.393 80.8787
56.9277 189.816 72.8913
75.1253 159.612 35.5857
73.4373 100.209 121.068
78.3251 91.4178 63.7484
68.9514 21.4816 118.533
64.2517 144.703 46.4125
43.1803 205.158 39.3898
63.2157 96.4385 180.012
63.0693 127.603 82.5151
85.3719 237.024 85.8022
87.3092 176.883 35.3276
78.5254 30.6671 97.7628
88.2102 210.855 63.3539
45.4732 174.399 123.691
66.0944 57.4334 132.848
97.6008 177.735 136.106
38.1929 197.254 59.1306
91.7742 154.294 56.3172
81.939 83.1876 153.58
79.2403 166.478 43.2565
50.6189 135.874 94.7135
63.848 101.326 174.328
34.9156 171.74 99.8759
86.1681 161.791 115.643
74.2276 69.1626 85.6222
50.4041 130.983 98.4907
51.4326 129.911 80.4638
99.0691 139.557 53.7814
61.7154 200.889 84.8824
59.4492 168.11 75.6081
68.9439 145.782 79.2945
75.2193 98.1392 87.3566
54.2853 182.121 38.1349
51.2426 179.179 49.1717
77.1437 139.123 107.955
47.4403 206.293 76.0665
90.0186 48.2061 63.948
74.3497 187.513 87.0856
61.5073 125.639 90.2171
74.0914 189.139 8.3351
76.5148 70.0616 114.755
62.0154 51.6143 55.4996
31.9655 202.916 81.8005
87.2507 73.7851 88.9527
67.3032 147.554 38.5741
85.2233 141.985 47.2434
53.2821 151.025 109.33
95.9947 97.6286 80.7292
50.8046 102.553 175.882
78.3759 210.461 99.1166
71.777 34.5292 108.605
81.8623 97.2678 92.2667
66.4427 16.6841 92.3788
43.0211 65.139 85.1749
59.7391 152.485 126.883
84.3457 64.1202 120.01
53.6717 46.1757 127.655
72.8509 208.882 86.6456
61.4883 78.3425 82.4673
72.3684 158.754 75.937
91.5099 39.2011 63.9896
70.0726 167.508 112.121
97.5385 215.816 89.6503
81.9646 84.9944 69.0097
88.4544 171.949 112.223
58.1862 191.794 44.4738
83.8525 107.246 141.327
33.9312 73.0978 103.476
86.4788 49.5854 50.1111
85.8044 33.2748 98.4233
74.8228 189.246 20.3305
84.6279 100.472 55.6241
99.3877 87.2982 79.1132
94.2483 49.1057 60.098
42.3949 210.758 49.0635
45.7992 145.779 92.4582
56.2947 191.671 30.9846
27.8942 204.964 85.8529
66.7145 140.797 112.437
72.8544 138.236 84.0618
32.6466 150.624 94.9497
70.9079 39.1271 69.5981
56.1451 75.0083 68.7149
74.8587 40.9198 124.118
51.4894 215.121 102.265
60.0883 72.159 86.1884
73.3198 211.237 35.4526
95.9868 62.3115 77.8562
73.7654 57.4721 105.59
77.9466 213.994 33.5563
96.5521 95.9057 62.8864
88.9825 147.617 85.9291
62.1728 87.3716 87.7069
85.1445 28.5977 67.4912
59.0421 99.5005 101.732
90.8797 63.3879 66.8661
86.4029 104.282 118.398
84.8316 104.279 94.3636
103.396 234.552 107.806
48.7372 196.164 112.241
84.7406 104.449 83.7038
88.2006 50.0643 70.13
84.6496 81.7651 171.349
81.8351 103.011 100.276
76.3341 175.779 128.476
58.5524 95.1278 91.6425
65.5997 171.993 46.2597
96.9801 144.86 85.7966
67.0358 97.2778 102.536
83.6466 45.7223 111.237
86.6711 222.246 105.657
50.5162 84.409 109.081
50.046 187.385 109.203
42.8819 27.473 99.2498
77.7734 17.9492 94.6364
58.3023 184.634 98.332
68.9048 188.445 51.4151
84.8142 60.5112 108.618
96.2502 147.002 38.8485
69.8559 198.442 52.0794
75.5119 175.95 64.1572
57.9515 113.459 165.895
75.2223 30.5514 63.1344
57.659 99.7995 175.174
106.178 211.453 119.073
106.963 77.0537 96.4343
88.6178 107.313 134.691
46.5467 181.924 133.506
65.2521 50.5685 63.3934
71.0981 205.236 96.4838
65.0347 158.398 31.1029
49.2858 196.571 52.9521
87.3431 139.355 100.631
41.5892 46.9111 67.4267
82.4112 170.869 112.479
44.4754 144.013 66.7816
78.4241 199.695 74.1036
82.2413 72.7074 79.2043
85.7895 198.442 67.9288
69.6501 194.162 58.1275
57.9229 95.2689 70.7216
83.3446 107.548 60.9016
71.8939 66.4509 109.411
91.2055 73.7558 104.321
93.6694 224.715 102.383
42.7 194.772 82.1637
68.9494 81.0692 88.8846
48.1449 211.653 121.451
82.8209 218.971 99.6389
60.8721 192.159 52.4369
43.7855 200.759 111.298
68.3955 102.868 71.18
84.2732 23.0207 70.7468
90.3608 235.603 87.1344
68.2585 153.698 36.201
54.9296 198.936 99.6796
54.6447 223.667 64.9152
86.4618 193.57 34.7986
57.3412 135.444 103.441
72.3155 43.8226 104.476
92.9445 101.548 104.138
74.0703 37.1385 102.804
88.0312 34.9633 52.8442
42.7953 79.5992 166.373
104.157 40.6929 143.737
74.5281 179.037 58.316
80.9645 70.8148 107.501
77.5357 92.6855 51.8391
80.2952 157.238 32.5981
67.5728 180.193 109.073
86.1511 161.183 66.0072
78.3256 164.308 28.8794
47.7018 206.844 120.101
87.4996 176.533 98.8457
88.7757 102.928 88.8838
97.4989 193.693 108.656
83.2582 230.864 80.6995
61.243 85.2431 183.647
80.911 195.768 20.0304
70.035 30.2346 78.9745
83.1566 175.368 42.2643
48.9202 21.9271 99.7582
84.4547 211.596 119.764
50.6764 183.467 47.7482
59.865 47.1894 72.2529
86.1017 164.425 32.8484
54.2018 91.4169 148.877
93.2984 71.3058 53.4187
101.157 142.429 64.0235
92.4339 219.197 61.328
74.1244 30.2797 92.9446
104.297 49.5119 97.0501
63.3234 50.7896 127.831
83.6388 86.7049 55.7651
74.4318 136.053 101.686
116.665 224.972 104.865
63.7902 60.7298 94.2304
45.1361 71.9418 133.292
106.224 60.7741 107.255
93.3277 35.6189 101.886
92.5313 43.3494 92.3884
56.7982 220.946 117.103
80.8541 221.86 66.5483
68.0256 210.146 109.328
87.1508 211.476 70.6049
69.1919 97.9488 73.2272
59.9038 63.2285 63.4096
98.7742 226.082 104.768
107.112 196.184 98.7792
96.8007 165.348 105.545
45.7654 182.352 103.195
90.1312 189.322 49.0027
53.439 180.348 112.421
70.34 129.043 107.505
67.2428 118.862 66.1738
110.656 230.534 75.8524
25.517 153.829 56.631
47.618 204.469 49.7317
58.277 96.4274 158.994
76.1704 164.206 62.1824
97.6112 174.943 62.9629
95.3786 68.3948 92.3051
78.2359 165.279 68.8401
53.8727 201.632 131.881
60.0757 23.6012 107.655
85.3881 209.809 97.1845
71.2576 138.664 121.711
44.744 37.3436 84.9109
86.5391 160.144 76.8829
84.026 75.9433 108.128
90.7024 190.954 80.4282
107.692 155.97 93.3074
78.1269 36.9517 107.138
60.6956 96.4926 104.977
71.984 87.2664 52.6024
89.7984 83.7633 93.6236
35.8826 202.103 39.8806
44.6076 53.8288 82.0504
68.862 76.1858 115.913
73.0188 151.825 119.949
56.6358 200.941 81.9912
83.0123 205.685 81.6941
49.3801 148.373 50.6588
55.9861 130.742 92.3498
90.5352 135.33 63.0987
72.9918 119.395 69.3342
37.618 61.8524 71.0779
73.3108 178.103 84.9547
101.086 45.5955 148.18
80.3634 212.437 113.661
61.4837 206.464 83.8471
64.6461 37.6741 108.947
78.8815 184.281 122.822
54.4738 192.898 56.3624
39.9677 218.04 95.1988
106.631 234.321 112.376
84.0489 138.012 71.9623
63.5198 84.8626 119.954
93.4422 32.8569 96.0687
47.685 141.73 104.83
84.4546 180.792 97.4561
81.8492 70.1781 124.568
92.4036 90.2055 66.4005
105.315 221.566 108.836
54.2808 187.47 53.4399
55.8744 101.899 93.6001
63.0415 187.436 51.149
79.2564 62.6821 57.4752
101.819 62.2883 92.0789
47.0529 192.731 130.123
91.4859 182.999 43.8301
51.7786 195.222 130.042
74.5004 51.6231 69.2035
99.5218 42.8718 94.9411
84.5541 194.135 72.4798
83.4604 26.9298 60.4527
78.5533 143.476 80.4292
70.4815 136.064 115.847
27.2852 76.1598 74.6844
77.6826 214.872 66.1727
73.3422 154.306 126.572
75.8769 45.0834 108.627
73.7703 49.0359 124.827
54.1551 153.359 39.5895
41.7544 182.496 78.1224
81.3978 69.2433 60.2029
77.4984 203.076 38.6629
74.9071 187.875 67.1807
54.403 210.052 112.296
81.3189 80.5608 84.5763
47.9774 179.87 112.926
51.434 27.5317 66.8582
80.2915 112.479 116.083
81.7083 180.218 83.0812
93.5616 76.9287 111.545
78.041 192.006 120.699
89.296 71.3863 93.7879
44.5096 63.0465 57.6084
78.7494 161.399 49.0635
79.873 77.2408 66.5955
73.9883 96.9698 114.68
43.8978 181.268 96.8979
71.0039 70.8223 104.638
51.4742 134.947 109.312
99.3091 182.452 119.554
68.7684 102.161 100.122
76.8433 223.711 64.5815
85.2082 87.1107 61.3502
100.295 141.297 81.8099
53.2473 194.223 63.8435
51.7315 219.813 117.718
71.6758 90.4415 79.0091
87.384 160.384 45.2064
103.344 153.317 77.1269
73.3159 190.213 134.554
71.3403 62.9782 52.6213
90.059 53.1319 121.534
89.5937 167.871 90.7121
61.9265 134.022 112.779
84.7766 54.2543 123.023
59.5071 175.804 32.2854
59.7209 179.814 107.753
73.5396 140.557 51.1001
84.6052 204.195 52.5646
76.3903 188.674 27.7296
78.9188 46.5612 119.628
68.5772 192.621 136.119
57.8964 55.7713 121.558
51.2398 28.5897 94.5098
88.0284 37.8677 85.2338
95.4142 48.8963 97.6754
88.4207 84.1935 57.7369
73.7225 142.882 118.998
77.3124 195.795 57.1361
79.8208 184.392 27.2513
93.6381 143.521 96.0522
76.9082 159.12 92.1528
