ply
format ascii 1.0
comment Created by Open3D
element vertex 707
property double x
property double y
property double z
end_header
51.6844 319.964 132.392
56.3924 202.428 105.216
64.7237 173.044 278.228
36.3664 102.488 125.439
38.8303 288.108 105.278
45.4572 49.6263 150.328
58.4236 212.341 94.253
55.2231 215.576 25.2934
67.0597 110.735 146.365
73.7315 241.586 94.821
45.4365 245.117 125.947
74.5489 308.331 150.341
38.4256 26.7332 238.483
47.0105 171.888 263.414
48.7285 176.489 68.6807
36.4612 314.228 145.616
29.2823 186.512 290.64
95.6083 70.4375 113.692
49.8766 100.175 98.9046
51.4961 208.384 18.8291
25.4392 283.759 123.571
34.9702 261.396 150.515
71.4015 101.651 98.0774
26.8469 272.082 121.711
41.5039 289.657 165.281
53.4494 249.071 122.008
64.4027 217.028 58.7324
71.2683 307.89 135.653
34.4 79.4301 100.341
28.8328 198.237 38.6604
33.4306 211.51 275.789
54.6362 308.068 167.31
80.2776 194.464 133.227
114.077 209.767 188.01
65.3849 219.086 135.861
30.4484 54.6143 140.615
27.2703 47.9289 220.093
36.4411 180.757 289.371
66.9452 215.793 30.3366
30.5757 248.05 132.854
31.1273 59.1576 245.834
53.9019 221.437 34.8799
54.6785 213.278 108.412
59.0837 90.7543 169.333
74.8683 59.3387 93.4358
72.3674 300.08 130.513
56.3047 208.901 124.175
83.5066 198.787 47.4069
96.8355 78.4044 123.484
42.0548 214.854 271.913
126.077 198.754 176.665
63.4049 26.2949 209.201
62.5278 36.9768 202.645
33.8406 308.942 154.55
120.833 172.497 154.937
93.44 58.9182 131.896
58.7075 37.6962 118.974
52.8729 97.5206 159.077
53.1055 88.1707 164.056
29.8089 88.2479 119.78
52.7559 318.454 118.769
113.032 198.691 100.321
56.9744 236.6 107.997
30.3937 204.929 45.8458
44.993 303.925 110.083
49.0243 83.986 222.591
33.3519 171.875 51.8783
86.4781 52.4685 138.756
26.7286 60.2239 132.006
41.8863 204.348 67.7446
65.8445 174.434 24.0882
28.6697 56.7759 209.955
58.7085 224.009 95.1132
32.134 80.6985 147.745
41.1444 42.2148 138.011
47.7871 311.252 116.114
45.1867 93.4438 154.926
44.1838 211.905 24.7246
73.9142 42.5949 132.411
97.6667 69.6066 138.399
26.3741 196.637 283.242
29.4217 279.471 153.123
46.1065 105.398 143.25
34.1881 312.825 129.323
46.017 245.88 206.147
93.2689 199.327 169.658
71.7415 261.537 117.24
65.0374 211.509 66.1702
82.7151 61.5458 161.503
37.8708 102.021 113.325
30.2521 77.7397 109.325
28.2659 183.39 281.414
35.2762 96.4918 117.839
47.999 81.0366 213.387
28.8292 63.9016 205.74
36.6895 297.881 111.573
51.8329 169.447 61.5183
30.4423 68.3894 241.683
35.5788 94.1541 106.658
56.7396 223.175 42.149
52.4575 200.846 13.1939
82.1527 109.479 135.06
75.1506 194.029 62.4232
26.2922 69.391 119.468
73.9704 179.971 59.5619
73.5945 293.512 120.472
64.4628 217.02 86.8235
38.8056 170.226 59.7647
44.1769 320.909 146.018
60.926 165.674 53.361
30.5036 303.312 124.444
54.8299 264.145 111.007
33.2367 86.3452 108.901
82.0334 87.4817 165.012
63.6424 184.312 258.687
42.9034 67.8223 162.922
56.3353 112.398 129.514
53.4288 282.336 165.497
57.3023 321.424 141.731
25.5599 279.455 142.455
75.4837 282.698 126.304
62.19 23.3514 249.1
93.8232 60.8899 117.37
48.2532 251.821 144.56
25.3639 286.586 134.13
49.276 71.5001 165.937
39.3519 273.152 158.243
51.7953 190.735 12.741
29.86 310.865 142.848
59.8986 106.968 149.424
27.7302 77.2614 116.524
33.2312 272.312 153.233
78.1967 43.2946 145.469
54.4413 177.621 294.855
71.6332 41.0701 148.392
67.2595 81.7087 242.886
107.303 219.935 168.932
31.1873 207.108 285.59
42.59 188.882 16.8927
59.1054 83.0074 221.283
98.5762 81.442 133.927
63.8366 210.381 20.0405
87.9399 212.231 143.931
44.7679 182.247 298.971
28.2912 181.349 45.3733
89.4312 60.172 107.465
25.842 290.787 143.271
78.8921 206.693 50.2104
65.7633 301.141 110.886
50.8617 103.439 151.508
50.3383 82.8262 89.8429
77.9867 203.198 31.9257
51.3762 108.402 106.325
45.2361 41.7541 111.749
79.6106 209.038 80.8244
37.3453 212.237 261.903
91.9841 187.525 123.58
42.9685 107.251 116.318
77.4545 60.652 166.95
66.7102 20.3994 219.728
97.825 208.942 156.178
74.951 67.8541 90.5768
65.5623 83.5997 88.4737
76.7297 109.268 144.513
90.0122 53.4096 122.604
80.0865 249.495 105.735
50.5772 160.776 41.9622
37.6274 70.4661 96.7524
61.4788 202.998 94.1033
55.1231 80.4508 209.685
25.771 265.403 133.981
53.1117 180.453 258.102
62.6023 189.167 14.3995
84.8714 51.7869 150.818
30.5203 200.483 292.599
78.0503 107.318 118.202
89.9586 93.5756 156.302
35.7657 174.062 30.6814
39.8178 77.8623 94.7469
45.4436 36.3019 131.972
28.3588 56.8093 122.949
45.1716 22.2229 244.065
60.7097 320.873 121.756
33.1172 290.357 160.755
32.4267 275.143 105.969
59.267 277.065 161.772
35.56 46.165 119.958
62.3611 66.5457 170.519
58.1907 84.0372 88.5146
52.982 207.885 68.6437
34.2722 190.478 64.8762
79.9152 64.8885 212.584
109.067 203.446 92.7426
70.0997 283.537 161.551
51.9135 26.3151 209.804
40.9509 40.2742 203.035
72.8887 272.195 118.846
52.7097 200.024 73.461
32.3133 49.3146 203.73
72.7367 292.722 160.68
60.6904 295.982 102.814
66.3245 74.7341 87.0162
53.3549 112.543 121.49
65.6896 47.6993 199.723
56.0222 173.017 287.136
88.5906 100.341 149.481
29.5687 47.1083 237.605
33.4837 41.8119 206.54
113.673 186.582 177.605
74.5299 99.4547 160.747
54.902 225.978 109.594
92.5607 87.6065 116.143
40.1679 90.2265 98.7619
70.9546 108.034 108.578
97.1772 68.9842 127.005
64.9744 173.268 63.8626
56.2908 72.0898 169.786
34.4755 267.581 111.892
83.8177 186.201 102.712
80.9361 46.8576 112.116
70.2192 198.195 134.901
41.7649 306.832 164.915
44.2706 106.056 108.757
48.3439 44.8515 103.404
63.843 57.9593 90.5402
38.2366 310.918 118.776
64.5997 219.727 40.5632
31.8734 55.7227 113.938
125.687 212.829 171.108
82.8183 219.753 143.423
86.4047 252.411 112.251
55.4819 317.264 160.681
52.9856 294.54 99.7889
27.1097 294.477 160.597
92.8942 99.9621 131.804
64.9409 44.9477 154.859
39.0872 282.381 159.589
28.3366 294.974 118.173
62.927 77.2397 251.978
43.3087 24.0875 226.122
72.4189 84.6529 168.046
28.4398 257.125 143.763
78.4607 91.7327 96.5142
63.6538 275.044 104.823
51.5428 300.445 104.996
26.0235 289.333 154.127
44.0986 164.761 37.61
66.33 285.653 108.599
71.8882 17.1991 227.768
35.6068 245.397 125.222
36.3726 56.5092 152.801
69.9496 305.344 119.234
28.42 300.611 152.328
53.3693 19.582 226.766
71.9345 188.568 20.792
39.9464 78.5759 157.654
40.5406 99.0305 103.086
26.2489 297.09 128.791
31.7677 35.718 212.791
39.5148 42.0352 126.364
77.7321 49.9705 158.851
102.558 186.118 116.294
64.1199 290.833 166.997
83.3935 100.419 157.519
46.3665 75.2646 91.2057
54.2045 72.8692 88.2036
25.961 75.4336 135.66
115.755 209.705 149.757
41.5502 80.1652 236.368
47.5528 35.2228 203.117
79.9722 103.718 106.893
48.8148 81.192 164.115
81.2133 54.774 99.5806
30.1664 66.1116 109.054
92.7017 78.1787 104.612
69.3277 110.758 123.542
38.0413 193.714 299.353
32.8123 31.6361 223.196
97.2538 211.836 81.5751
44.394 58.3654 156.898
76.1784 220.084 80.1509
68.0238 93.0826 92.1212
37.0055 217.327 38.5232
41.7249 317.952 128.761
76.5841 22.9789 217.132
68.3342 168.446 46.7482
63.3616 243.535 113.312
73.3649 174.366 38.0164
99.3503 250.581 111.268
62.7582 44.6693 229.29
58.1751 172.136 65.0935
89.8918 61.4322 152.422
70.8862 195.792 70.3817
26.9999 67.3032 143.285
55.0819 61.9775 89.2333
49.8784 52.3937 96.1464
26.4381 255.3 135.56
91.7942 98.7302 140.14
40.2305 82.2612 221.461
46.2182 110.2 125.17
49.906 268.129 157.03
73.9154 79.7546 235.156
63.4522 14.9298 236.052
57.054 216.131 65.132
51.1292 91.6993 91.8837
36.8463 48.2079 141.267
63.4545 236.29 126.756
121.274 208.991 113.425
31.489 287.823 108.714
89.4869 83.4793 160.441
60.3111 16.0356 227.777
71.0683 19.2545 236.704
58.681 218.479 127.679
70.5818 108.422 154.384
60.0093 172.643 267.459
55.7605 46.8601 156.722
46.2597 290.77 103.468
26.745 299.405 142.726
37.3447 212.973 48.479
69.6883 183.182 269.11
63.2884 316.691 132.509
52.8784 248.9 135.811
96.0044 63.307 141.683
32.2759 95.4891 139.121
60.1834 96.7374 95.2454
69.4128 76.3004 169.32
102.944 193.786 128.538
70.2373 62.2888 170.796
56.4142 216.82 273.844
42.0178 298.379 168.1
31.5877 174.618 43.6724
73.4246 95.155 168.312
81.1197 192.906 54.1755
106.063 207.691 150.416
106.453 191.578 106.114
87.3821 252.593 103.229
52.7846 160.739 50.557
37.7816 93.4166 152.213
66.621 93.4114 170.995
48.5838 267.059 106.808
97.1556 85.1078 144.105
34.5375 248.131 115.442
58.425 80.412 246.706
58.2571 199.947 276.533
66.6973 219.23 49.583
75.6158 212.211 39.1411
40.0748 318.071 154.475
42.3212 106.644 133.775
64.315 199.917 262.883
71.981 314.897 145.472
40.9685 48.8425 257.015
45.7236 178.747 20.1424
54.6829 259.133 147.399
92.2685 224.822 81.3015
116.105 209.843 97.2435
55.2091 192.674 256.138
35.6726 71.5627 203.43
95.8566 71.0884 147.612
26.1435 282.816 109.624
59.3026 37.3406 138.737
75.6179 110.898 132.504
93.1164 91.5656 147.853
90.7704 184.691 114.501
38.2323 247.387 137.874
58.5654 229.47 121.104
29.4727 177.233 37.4126
80.1786 75.4587 168.18
84.3228 105.871 143.067
46.4415 189.034 70.661
57.3594 199.256 118.081
64.3621 211.639 138.85
44.3911 171.084 63.6613
36.669 190.815 257.027
67.1339 204.252 139
29.7628 192.612 294.837
54.1641 109.78 138.757
68.286 82.2009 226.336
38.1563 54.7855 101.266
63.5967 301.525 169.045
102.158 201.016 137.893
57.5955 178.741 19.0142
97.853 213.624 142.463
48.7242 195.751 303.955
84.0924 249.379 121.847
59.5761 65.282 195.646
45.3524 280.4 165.216
57.2547 309.98 108.492
82.2848 186.086 122.112
66.0427 314.518 140.939
75.3997 171.59 46.0863
64.3611 313.464 165.591
32.9414 46.1362 245.383
33.3556 40.6628 238.248
42.1902 204.613 298.303
73.6323 204.144 21.0432
25.4111 44.6203 227.467
56.3335 180.169 70.9139
52.191 162.527 59.6864
121.881 214.036 107.962
56.6098 222.671 54.4395
110.61 217.427 179.152
75.7747 296.818 139.867
67.8972 52.3073 194.154
81.585 75.7017 95.434
75.0412 76.2622 244.782
50.0959 50.3136 263.645
67.3932 188.741 292.759
121.742 214.852 161.027
74.8677 26.7361 242.72
62.6053 103.938 98.8538
37.3353 74.5383 215.703
39.9313 49.4552 106.599
81.0862 44.9296 125.24
93.2852 184.834 103.895
62.0548 319.604 151.202
32.304 181.453 59.5447
49.8748 284.063 101.265
51.7855 37.5538 136.955
68.4583 312.526 125.206
42.9243 215.212 63.0404
26.4817 83.1113 129.041
69.7319 209.339 285.647
53.8827 219.376 283.81
51.9593 172.539 277.855
52.5703 206.597 298.325
74.6879 282.83 141.872
38.2087 169.134 37.2761
74.9304 196.383 274.827
27.5652 70.7504 231.222
58.2749 265.768 156.43
65.0795 46.8292 107.306
24.7856 75.1058 126.53
38.0246 210.769 54.1819
108.026 227.488 87.2216
62.5382 67.7202 87.1291
97.6929 89.731 128.091
48.4246 213.987 292.114
48.6449 173.05 22.0288
73.1186 78.8528 90.3822
35.8701 256.202 140.511
43.0918 216.17 283.147
80.4611 185.116 54.7779
47.8148 219.109 50.2739
65.963 80.0737 214.588
44.3721 199.902 17.9669
61.8316 164.742 41.851
67.1342 240.023 96.1608
72.3761 228.957 136.834
59.6842 193.95 300.185
38.8638 312.566 162.471
69.9606 191.674 96.0881
108.641 215.714 87.2702
70.7397 286.115 115.815
69.0147 170.373 31.3595
92.4831 73.7372 155.188
63.6657 111.036 118.534
84.4723 84.2978 100.29
26.2959 65.0424 220.897
68.3019 51.1714 162.881
47.6043 305.603 169.776
46.401 62.3055 92.3113
65.0532 178.97 289.455
62.9906 254.271 120.132
76.3339 104.691 152.614
115.413 197.287 111.57
121.997 206.592 187.366
72.328 247.889 115.668
86.5875 102.958 119.879
60.947 193.857 73.5879
48.1805 165.719 30.6439
83.9767 34.2224 215.718
64.0213 39.8374 143.501
42.408 263.934 156.223
42.1163 193.515 69.3752
78.9507 180.628 43.3494
55.4114 168.74 272.527
71.0699 270.174 127.305
24.8934 56.8514 234.672
42.7038 180.332 263.131
101.881 211.467 177.71
73.5616 214.157 52.3194
40.1555 317.48 137.5
70.3223 111.919 138.739
114.053 190.875 183.098
27.1871 268.203 148.17
54.0777 247.193 197.804
63.6767 216.881 279.789
78.0016 181.572 31.3452
87.5053 70.3216 104.358
64.5514 266.196 151.497
26.9155 276.876 113.136
55.8926 186.251 299.463
37.4847 176.592 276.8
35.9684 62.8481 99.6993
71.3248 49.7468 95.3881
28.2402 270.484 141.619
45.1915 217.979 30.3374
94.1095 80.9582 152.189
62.6579 56.5706 168.935
118.579 228.916 106.693
25.7218 200.926 275.067
51.9575 39.4281 117.931
78.4706 75.4406 227.669
58.5211 47.7516 96.0001
48.7563 319.672 155.823
98.365 202.433 82.6467
66.7904 258.285 135.244
109.484 217.615 153.719
42.914 60.9855 258.767
63.5546 111.051 135.632
53.9889 57.6066 164.451
100.317 223.049 142.287
55.3858 50.9145 192.043
91.3858 204.807 142.356
93.4357 95.454 122.431
109.596 218.111 137.899
34.2994 199.62 28.7132
53.2331 200.646 252.7
39.9113 253.522 145.672
45.8836 33.9409 247.309
51.4722 62.2629 219.046
77.0057 40.8862 255.262
64.3566 177.358 264.934
90.4169 249.593 93.0862
33.706 185.884 25.4164
62.7111 186.191 69.7856
63.9992 255.875 129.48
68.5388 293.882 113.868
72.5413 71.712 172.162
46.5389 68.9476 253.476
67.9483 191.607 126.499
48.6303 208.906 282.884
32.0386 67.5444 150.121
71.0034 241.935 127.858
48.0365 211.82 259.639
122.071 193.031 162.872
101.765 190.075 172.717
95.8576 205.021 174.464
103.053 191.903 96.8819
55.0824 322.783 148.726
65.5993 266.083 107.777
69.34 205.047 64.8625
85.3598 221.64 79.9173
76.2472 85.0899 93.2246
24.2957 274.472 138.26
37.6882 257.097 114.337
55.4094 15.9858 237.428
106.324 235.789 91.5981
39.6123 58.963 196.509
97.0286 232.666 140.569
57.0818 72.6305 202.029
56.6671 290.259 168.128
81.7191 236.179 138.136
65.6765 200.891 293.206
78.861 292.547 150.092
115.278 227.288 99.2612
40.7825 30.4658 216.091
59.4859 83.6677 236.668
102.26 244.962 93.6245
63.3274 79.7212 172.285
70.2991 179.691 17.1152
35.4264 79.6941 226.334
126.197 213.656 186.225
79.7677 192.955 26.767
77.2637 290.228 143.148
87.5775 232.475 81.0862
73.9011 78.2677 217.976
51.1289 170.527 268.494
75.9291 290.083 130.895
69.7656 207.681 274.278
43.6039 175.171 284.072
76.0981 299.467 155.53
57.1774 215.59 291.861
107.237 200.917 186.318
85.4007 93.2396 103.256
58.1488 168.12 26.7095
98.3384 223.671 116.814
129.015 162.955 148.26
57.6204 209.231 264.162
63.0171 200.188 18.2914
73.9417 187.784 102.929
56.1556 219.634 121.771
76.7744 195.148 88.9909
68.7168 112.725 131.192
68.3269 247.93 103.846
62.7796 59.4396 200.053
63.3548 98.0736 161.629
89.7867 235.949 140.425
86.4134 190.732 127.172
65.544 192.394 111.421
102.32 250.344 103.014
44.2436 169.362 277.545
77.0036 252.014 116.013
114.351 221.311 92.3428
85.819 106.476 126.999
70.2981 224.777 84.7536
68.0234 201.453 87.7436
30.561 261.693 116.074
53.9949 61.0286 258.751
56.2226 284.223 100.831
98.9812 184.205 120.595
61.3104 41.0409 249.153
72.0929 53.6766 259.517
78.6192 248.911 96.0003
83.1028 244.005 133.542
83.6782 49.5614 104.798
75.4578 188.424 114.173
76.5923 245.861 127.827
87.2188 97.118 112.826
74.5344 299.502 149.003
29.7619 83.4868 137.83
71.0022 206.979 84.6779
51.7695 61.8444 199.18
50.7826 49.7647 200.691
70.669 72.8684 210.454
107.895 237.462 133.195
100.527 234.651 84.2355
41.3272 86.3861 13.5948
79.6941 98.7427 100.381
101.149 224.702 83.6191
133.134 167.194 145.804
45.71 33.6569 255.609
111.042 230.112 127.569
116.356 219.059 177.636
121.79 216.576 183.499
73.7352 188.666 26.294
52.524 85.0099 231.096
99.8029 215.92 164.488
87.5142 51.353 110.698
56.486 275.385 103.96
76.7205 282.969 151.078
87.9592 192.641 87.6034
87.8028 251.173 131.029
60.9477 259.447 116.352
71.0434 63.1216 195.959
72.9436 180.775 275.473
71.7027 192.293 282.653
47.0006 174.128 290.488
56.9706 40.6622 147.416
99.4219 194.544 159.505
81.0601 36.7608 248.16
56.77 43.0494 101.032
29.0409 186.886 264.209
64.0867 215.304 291.404
73.8963 45.2023 203.55
94.4177 249.377 118.39
99.3618 233.176 107.667
60.0064 60.8701 258.466
75.7161 35.4563 208.713
74.461 45.5017 99.3391
70.6545 38.9741 116.149
59.4072 193.875 274.88
99.3653 199.357 180.166
106.976 191.009 159.588
118.045 219.154 166.365
23.5692 90.1872 142.163
117.135 201.252 189.567
49.7934 25.0614 252.9
92.1016 250.488 125.995
87.2412 61.0875 238.967
32.5602 198.769 59.0569
86.7315 43.7186 242.199
122.643 190.2 152.168
83.0794 60.1924 250.658
74.6265 62.1262 257.87
60.5663 309.109 117.729
55.0286 185.693 16.5639
52.312 34.3876 259.082
84.4812 240.48 85.3211
74.5429 277.725 145.208
29.398 239.213 129.125
31.9055 188.006 54.7658
112.839 198.635 152.653
33.4683 187.775 272.434
117.447 187.076 167.864
110.219 226.602 137.346
79.1559 207.504 166.608
72.0347 213.574 138.379
39.9226 84.8013 156.087
68.4137 183.566 281.675
64.4972 197.273 125.02
73.2839 189.625 268.577
65.0041 206.835 126.482
40.896 263.744 149.144
44.2204 163.806 49.4309
30.0985 19.5663 236.878
23.898 27.0562 217.915
30.2962 30.0369 203.729
57.6659 107.027 109.487
107.078 236.724 112.434
148.956 178.766 168.938
108.089 236.926 101.974
31.4776 321.542 124.894
69.1549 29.5431 249.524
73.0504 64.6765 201.287
51.5506 67.9181 255.465
36.8398 262.613 119.103
108.416 242.396 124.492
82.2051 67.8791 222.563
47.8631 196.009 282.192
59.7919 195.711 40.0319
47.3801 74.1453 202.3
36.2244 86.0435 146.676
100.67 197.64 154.754
67.657 304.596 157.38
52.5206 187.802 274.647
57.5939 68.1164 258.595
