ply
format ascii 1.0
comment Created by Open3D
element vertex 313
property double x
property double y
property double z
end_header
22.8182 50.6939 41.294
30.4717 78.0901 43.5376
35.2393 69.6692 61.6301
18.1622 45.1744 34.1501
47.3704 31.9787 9.80478
30.6619 73.5646 36.588
52.8637 28.633 55.2196
40.6023 76.3695 25.1225
17.2256 40.5593 61.1225
18.0065 86.9003 75.8063
27.2545 46.28 70.4199
18.5072 47.1536 57.7773
29.5998 61.8854 39.3903
45.7844 36.2326 27.3447
40.2718 83.827 97.9215
30.9396 32.5297 39.1755
44.1725 20.0776 64.4943
54.3912 67.1117 59.7044
33.6847 68.2216 79.9228
27.2148 53.0269 48.8486
34.2432 68.6891 26.3051
47.3163 62.3713 44.2231
51.2788 70.0225 19.0003
48.462 42.9973 29.3898
19.3667 50.606 49.7296
32.6043 72.2752 89.8619
62.8551 18.0306 78.2328
29.7021 71.2699 46.6094
40.7825 28.6462 14.9526
50.4928 86.8415 51.0008
23.2224 42.9494 64.4115
43.8214 83.7545 41.7251
42.9719 24.6551 70.4332
36.1363 64.9042 13.8262
59.6875 23.0245 86.958
36.2303 80.3376 32.4277
44.4928 70.6963 14.045
28.7531 29.4184 62.9061
63.2163 61.6428 84.6809
31.0354 60.5249 54.9073
36.5652 56.4028 64.4132
17.8466 83.238 67.3714
45.9149 38.8496 94.2845
15.8225 37.0069 54.2007
40.1273 72.6357 79.3759
26.8847 41.814 29.6739
29.3326 48.5686 62.0578
43.2395 92.0947 84.4553
30.2587 58.5035 29.2985
21.5688 80.4553 62.0249
53.1931 73.8791 82.1637
55.2684 10.9825 63.5981
37.5361 45.8065 51.4092
21.5339 33.681 63.6521
61.7173 36.7507 96.0942
46.9658 25.4995 85.7636
30.1125 93.4013 70.6707
28.7882 47.4796 23.186
38.2868 51.8749 71.3249
36.2365 79.9801 64.5778
65.0226 42.0084 90.8693
31.4311 53.7163 58.4406
53.6109 20.8381 17.3186
49.4026 17.9316 25.5803
56.6005 25.226 46.1677
47.8302 16.8553 46.2656
62.3665 10.6375 63.4624
60.0544 53.4128 82.2082
36.4201 61.2543 58.8204
46.4044 81.8419 27.0197
16.0424 43.4673 48.7557
36.5292 46.4053 79.6184
28.1965 38.9171 73.0126
62.7584 9.1605 54.0682
42.8441 85.7444 48.1147
33.9099 28.6293 70.8924
35.336 72.6812 72.8258
45.4322 48.8544 36.3309
58.5767 55.58 95.1427
33.9185 48.2709 72.9775
39.4569 22.1632 58.5205
22.4581 93.8802 71.443
27.8072 69.6491 74.7873
56.1157 46.7458 77.9641
35.751 81.4911 47.244
26.1807 30.2453 71.7235
28.8507 46.8718 77.9027
60.7532 47.7974 95.3903
46.3439 68.7154 80.1214
47.1715 16.1613 56.3657
25.8051 49.3905 55.4319
46.8405 40.3222 8.63863
23.8139 76.5247 90.5575
43.4725 36.2434 40.5773
32.7937 29.0904 54.3669
47.7166 26.877 49.2662
54.1934 82.4285 36.9365
37.9248 58.5775 14.7829
44.6774 46.9102 92.004
33.8233 78.0191 86.5296
50.1633 46.1514 95.4502
35.3783 94.2115 78.1915
58.89 16.0664 29.2317
35.1939 33.9191 22.6666
37.8764 36.5992 10.3152
50.9834 80.8057 70.8093
48.6695 14.5706 63.9081
44.0992 34.2047 55.2919
55.3156 9.88595 55.6704
41.9024 19.7301 52.116
39.4492 71.104 86.2593
58.6495 28.9119 72.6654
36.115 90.7913 89.1253
59.5826 29.8017 65.6334
36.5204 92.5937 69.2429
58.8302 62.6911 91.5886
46.0616 20.8342 18.854
24.9904 94.8929 82.0228
28.2253 35.8568 32.4523
58.0888 64.6664 66.1912
20.9074 39.2647 75.8656
34.4927 85.5535 95.6984
44.8736 64.7949 67.1226
37.3003 79.6526 39.4017
53.0135 23.8446 88.2341
26.6911 69.2715 85.0873
43.2907 58.1746 70.2843
58.7823 28.8198 92.4136
54.8018 29.2231 13.1673
25.5471 86.1975 89.4522
41.5939 21.7069 44.3215
35.2118 87.4159 63.2409
37.1463 25.4417 66.0086
41.2576 58.9343 9.16666
45.3297 59.6729 58.8102
51.8173 32.065 26.6541
39.8369 52.5659 57.9474
36.3073 33.8109 16.4501
43.3967 55.4577 76.9499
21.5482 88.9295 61.3089
44.566 30.8101 91.461
40.8531 27.8498 84.7746
37.3007 27.3988 25.6358
51.6116 44.8318 22.6254
29.9491 95.6488 78.4213
39.6813 46.0706 85.8026
47.7698 64.2529 84.6189
42.8376 50.2985 43.731
49.7168 18.4665 69.999
19.8196 82.7584 84.596
47.0015 60.977 10.9082
39.7079 64.0014 65.6907
35.9502 73.3107 31.7318
46.6095 75.1818 67.3492
16.0782 79.7221 90.6686
45.7847 23.9558 77.8606
45.6046 48.2289 9.13608
45.8586 38.8702 60.2811
46.8666 81.0174 55.9024
29.0278 56.2645 42.5348
39.2708 50.7516 7.59679
43.2506 80.9884 34.955
58.4258 20.2652 57.2313
41.5344 90.3767 71.7874
49.1589 65.672 55.4002
34.7422 41.3967 18.5086
53.5975 12.9198 31.3675
33.925 66.0552 49.4992
45.6615 53.1542 82.8053
35.9517 76.885 56.1851
43.9272 19.3142 35.6676
25.0479 35.7418 42.0875
58.9796 79.4509 29.6243
58.7358 74.9569 40.811
52.2801 56.7005 67.4383
40.7995 73.1337 18.8312
53.3928 20.0659 82.1751
40.0577 41.0239 91.4535
33.0345 63.6132 31.7657
51.0065 53.5056 25.8774
43.3133 20.3367 28.1557
52.1317 79.6154 29.0213
51.3959 25.3691 40.0117
46.0334 81.6144 89.8064
48.9214 57.1964 87.0241
50.7339 11.7685 50.1353
51.2819 35.1446 18.8992
29.3382 82.6833 63.0084
62.3839 53.0969 89.8977
22.9723 48.5918 29.536
40.5701 40.4736 45.3297
26.4703 74.671 65.0822
57.4012 21.3765 24.9728
60.6576 10.2689 47.4858
51.9868 68.2507 47.7398
36.9002 34.6014 89.6821
51.9935 54.4782 94.5488
27.5819 33.7073 54.4077
47.3433 14.2661 40.7801
51.6481 33.9461 95.3767
36.3643 64.3507 21.2884
46.8799 23.9698 12.1282
56.4911 55.793 75.2312
57.3748 14.0825 75.1457
50.8387 77.7714 19.9303
38.3238 21.4751 82.1901
30.3712 56.1555 22.6458
52.3788 33.0732 61.4618
60.3203 26.6133 59.3926
34.4632 31.1631 83.7317
47.9808 14.0932 33.8653
26.9491 91.7975 64.5647
55.7792 29.053 21.1659
51.0403 28.1132 93.309
17.1849 43.7448 40.9744
44.9575 29.548 40.4684
40.5228 24.4058 22.2893
49.8845 80.4883 63.3593
40.2084 23.6704 35.902
25.416 53.6695 31.1705
53.4549 86.2236 62.0832
44.0089 45.6649 59.4243
48.1712 52.7635 70.9183
39.545 35.1244 50.0223
20.5667 74.1003 73.8372
51.7172 29.1856 33.807
38.4645 26.7462 76.2629
53.3277 53.7083 19.2324
55.619 36.6638 98.7427
36.5054 26.2047 48.8798
29.0121 44.3014 84.8867
59.2607 10.4455 40.3943
35.3104 47.0974 15.7149
51.7452 85.3205 44.1399
48.5853 57.0442 14.4542
38.0407 84.4119 73.4675
53.6575 68.1339 33.353
45.8848 60.8037 51.8413
29.3747 35.3912 85.056
55.8555 46.0113 98.8764
24.3998 87.6646 82.144
50.5013 73.0434 74.1856
42.3958 82.8725 81.5112
38.836 42.4612 8.4676
54.0392 9.33757 44.822
19.3789 77.4801 69.5117
19.696 36.0051 46.7111
63.842 16.4168 51.8587
47.8461 48.6301 15.2196
52.1156 37.0959 67.5517
51.2277 46.407 72.3633
32.5244 67.3865 41.3454
42.8332 55.4176 49.3198
53.8374 61.5977 24.9452
33.546 29.1335 78.403
28.569 55.0703 35.4333
50.9977 17.6482 76.5259
60.7207 84.1182 51.005
60.6712 14.0286 36.3897
36.7715 24.0307 31.3076
34.3168 25.3249 59.8459
41.375 76.6513 71.1899
61.02 21.9901 66.7573
53.7139 68.243 40.8519
34.3507 69.1772 54.2764
44.7226 52.2334 63.9786
58.7636 12.4391 69.3719
61.8469 45.5576 84.8766
33.8081 31.2371 45.2406
48.56 43.7633 65.7194
60.3933 19.8797 42.1959
21.5116 39.3922 34.784
28.1554 92.6241 88.3128
46.6045 63.3107 74.4619
61.3867 33.0405 78.7903
52.6686 64.5786 88.0123
48.6586 41.1636 17.6815
37.5285 27.7112 39.2425
46.1678 40.6093 36.9885
52.9697 65.9726 25.5415
27.8951 32.6009 78.8305
32.2238 38.628 24.8419
31.2726 59.7231 47.71
30.3625 85.2987 91.6502
64.7726 16.6241 68.4563
39.0237 75.5919 93.974
35.6608 31.6785 31.5745
57.0346 60.1731 70.5612
50.6041 62.2022 36.3745
63.5539 30.6939 87.6623
34.7092 52.9766 17.8561
48.9252 57.2617 31.2977
64.523 36.7599 84.4696
20.8201 73.158 81.8029
56.8647 26.303 30.652
42.4702 74.0028 61.4039
38.8223 74.2472 50.0506
49.1329 86.4365 34.8493
60.1348 39.9859 78.1125
56.9065 38.9118 72.0201
45.859 70.1669 71.7038
42.6739 89.2535 77.8912
41.1766 42.6356 39.0981
19.959 90.2058 67.7866
42.9751 78.7828 76.925
62.2501 77.17 72.4124
58.7281 83.4884 42.3471
41.5545 78.9118 50.4954
46.1004 57.8571 34.6992
56.5647 71.9389 51.2929
64.0469 26.9061 80.764
58.4835 83.4409 71.2983
55.7816 77.0225 75.8267
