ply
format ascii 1.0
comment Created by Open3D
element vertex 243
property double x
property double y
property double z
end_header
24.2728 59.1138 22.4858
36.4193 47.8429 48.9617
17.2296 65.2753 36.4015
27.6068 80.0945 61.3972
34.6698 67.3231 63.8772
23.6601 85.7596 30.5408
19.073 56.525 30.8982
29.3141 22.5339 60.152
31.9767 97.8849 46.9519
51.207 72.0632 59.1668
26.8816 42.8591 46.3804
34.4231 88.4245 55.2303
43.2038 64.8061 65.5754
58.3891 55.5419 52.2289
23.961 48.045 31.3672
44.5216 76.4491 59.0523
22.1351 81.583 48.6369
47.6809 63.8058 19.2835
39.5828 83.1914 58.7873
33.5037 40.8901 39.1466
17.3433 61.0219 45.1561
49.6463 29.5276 53.3336
37.0434 65.6285 31.1778
21.1473 82.5174 54.4288
28.0485 71.5746 19.2847
37.7645 50.6489 15.5642
39.3972 50.8566 28.2801
40.3247 78.2501 53.0712
38.6791 34.9709 55.9309
42.1412 99.511 52.1692
20.4641 68.9015 29.266
38.5856 94.8964 59.3281
31.2707 83.7654 27.5828
39.4363 77.5571 63.1415
24.1695 84.7986 38.1825
33.7031 33.2376 48.208
44.0487 56.4952 30.4791
28.6701 50.8085 45.7099
22.8235 87.2525 44.6573
47.6992 24.9361 67.3962
24.0862 73.9393 34.1881
35.6411 56.9624 44.3783
41.7033 89.6414 47.0122
42.8012 66.9893 24.2611
31.6614 92.3621 58.7229
52.3793 73.5044 31.6899
27.8538 73.8312 39.7272
49.0901 19.8581 57.517
22.9696 77.7787 25.4186
45.1924 71.6259 17.4443
43.8206 48.4852 16.9084
21.3849 50.2465 44.0508
38.2948 81.1009 37.1892
38.446 75.7619 23.5043
34.3811 56.4247 17.1739
31.5044 69.2017 57.6137
31.2508 59.5297 51.6512
43.905 24.0749 59.0979
45.9436 61.6355 54.4247
53.8268 21.1831 59.7381
42.5477 71.6087 64.4846
31.8246 95.094 42.0887
60.683 58.4486 38.4144
39.4349 63.7612 18.621
31.5492 74.542 45.2237
41.961 83.0331 47.8833
27.4612 67.2985 36.0621
38.1854 75.7719 30.6066
19.4252 50.6674 36.3676
22.7016 54.572 53.6419
42.985 12.1223 52.5062
24.685 89.7312 59.2371
23.2926 60.7316 55.0223
43.7554 68.0711 58.7142
51.767 56.7386 53.3383
40.4996 35.5133 65.5094
48.5647 78.493 29.2135
39.3862 53.8008 58.4848
32.2629 77.0021 31.2322
40.0908 36.3148 35.2457
52.6904 86.6469 53.2209
33.1393 80.0975 19.0198
57.0991 73.0994 44.8639
56.5333 57.0088 44.7578
39.308 91.4534 32.4177
49.8296 20.8417 45.3356
30.1687 65.9711 25.6425
44.5296 48.633 33.531
46.4271 68.39 39.845
26.1345 90.5004 49.6954
45.327 49.9933 56.5689
18.5592 75.0534 40.9197
29.6372 57.5677 43.8058
30.849 54.4828 33.4675
31.0939 46.3328 29.884
23.6151 56.7966 44.2328
49.1621 43.2401 26.4658
39.7704 44.5002 23.8266
53.0892 46.8047 20.094
32.2975 67.2213 17.0025
20.7164 57.042 39.2981
35.984 61.9388 39.2969
39.5474 59.3287 50.8003
33.3542 53.4447 55.8683
31.5375 21.601 52.2966
30.0914 89.4427 35.1975
31.5448 45.233 20.2962
45.186 63.4325 34.2956
59.7938 52.6757 29.0403
44.4584 57.9476 16.77
40.0044 97.7629 34.5243
59.0595 50.2648 40.7703
44.0175 93.5486 39.9335
30.5519 46.8708 53.6956
27.6421 96.8987 60.0535
34.2232 76.0768 37.5017
33.0328 54.2494 38.96
34.641 16.0773 60.5792
34.4575 42.0918 52.5169
42.7635 95.6069 44.6712
29.2836 42.5637 37.5481
53.9722 19.5002 50.5379
39.3327 83.9715 22.3463
39.0101 19.8075 65.3145
43.4727 56.0367 45.2392
38.8867 46.5834 56.959
40.7842 73.6761 40.0642
37.611 76.5025 15.403
37.1371 65.7004 56.0411
50.9911 40.4918 44.2135
31.4069 76.6781 25.48
40.0854 56.4447 18.7347
24.8149 51.7685 20.5258
23.1255 65.3468 43.6564
31.9128 65.1786 31.4841
46.7876 82.6543 57.6394
39.2597 70.7671 17.2542
31.24 95.6166 35.7701
24.763 65.968 54.659
33.8188 73.3803 58.8477
36.2822 84.9594 44.5751
25.9072 63.3036 29.714
32.3446 66.3484 48.7319
56.4108 62.4945 28.7143
49.3293 85.103 33.982
41.4018 59.1372 60.8131
38.4741 59.1032 27.6354
51.4214 87.7069 42.7616
24.2135 44.227 39.9666
48.9706 72.2331 23.9646
28.2282 88.9905 42.4201
50.0046 61.5 38.6811
27.8798 54.4266 52.6472
51.0692 38.2526 37.7085
32.8031 57.9103 58.6169
55.7493 65.9361 62.9837
27.999 95.0522 52.9694
24.0026 73.7064 53.0635
48.1926 45.2793 50.8461
44.2098 87.9617 59.4039
45.744 90.2845 33.7976
29.7881 31.3081 52.9842
22.661 63.3199 49.032
35.0562 63.5121 15.3251
45.0576 39.9904 53.9378
36.3017 69.571 38.757
35.2606 85.7631 19.549
50.555 64.8794 60.7616
44.2866 78.3935 21.9299
21.8562 69.4066 37.5355
40.476 86.4442 27.4397
29.8087 51.8721 15.4743
36.8537 91.6876 27.5209
33.5092 69.3885 29.2419
25.2111 46.6143 23.6761
43.9289 51.227 38.111
54.3868 52.7573 23.4195
24.1445 49.4238 49.8992
33.7255 40.8968 26.0694
56.0105 44.1824 32.8456
51.504 50.9976 54.9949
58.5483 68.2698 49.7385
54.4981 46.2029 43.4739
28.5649 80.217 52.0338
30.5248 59.4309 20.3166
42.1784 40.9007 29.5587
38.9141 46.8592 40.834
28.92 86.3224 58.674
54.3391 58.8351 36.6771
35.4678 46.3587 31.5627
45.9504 85.4076 40.4104
30.8804 89.275 27.9755
20.3199 75.8169 30.8651
34.7038 73.2831 52.0247
47.7081 47.8274 21.6953
55.0594 46.5395 26.0398
41.2565 84.657 38.7232
44.4466 92.1887 53.1269
48.6586 76.8204 65.0883
46.8294 54.4492 51.21
21.9818 76.3597 44.6218
32.9018 62.4778 57.0989
45.2669 43.9698 41.1575
49.007 73.8477 42.0356
33.669 66.8154 42.8192
39.5803 40.5903 38.8276
27.1596 50.7188 27.5076
54.6671 84.7658 39.7302
36.5093 87.7233 39.7524
35.9489 100.898 55.7763
56.1186 63.9343 46.7741
39.3834 27.0688 68.7626
40.398 60.2069 39.8413
35.3816 24.1571 46.8459
37.59 94.373 37.8787
51.0701 65.83 26.0216
49.4387 73.5919 48.4297
34.3752 60.8951 23.4462
59.4828 67.5984 56.7965
50.4358 51.2223 46.1944
34.7826 48.093 38.9167
48.4929 52.7221 19.7491
45.0119 70.1237 53.8066
49.6301 93.2415 46.2199
32.5888 85.8244 41.5522
49.5133 46.8177 32.0551
53.7612 81.7593 57.4304
60.8695 58.3402 32.1701
49.7249 58.503 17.9622
57.8704 67.4367 39.5923
48.7804 53.9981 38.6622
41.8782 81.7523 29.467
48.7295 80.642 38.0555
23.4045 71.4347 45.3545
53.2155 69.0395 38.0475
46.9277 78.1141 51.9257
54.3038 76.2936 52.4386
28.4656 78.9274 44.461
41.151 66.2083 35.4313
51.6581 59.9065 46.8001
29.8606 71.507 51.5926
36.6787 37.5912 46.3578
52.1163 57.3169 24.5854
