ply
format ascii 1.0
comment Created by Open3D
element vertex 1046
property double x
property double y
property double z
end_header
50.9526 66.7333 34.9707
54.5306 48.9867 56.6555
89.8484 40.0003 95.76
43.3364 131.108 53.8191
54.2707 80.4696 41.2786
48.7375 142.963 117.576
53.0828 61.8127 60.3325
39.3037 139.878 58.6783
69.8411 30.5354 68.5714
32.0228 102.314 113.944
74.8042 48.7372 61.2626
75.3736 28.9221 71.55
33.719 118.125 65.8313
61.8253 135.861 122.284
25.1055 97.2212 76.6758
80.8637 139.668 145.474
59.9233 153.805 83.9794
46.9106 107.158 45.0207
82.384 34.0332 105.093
74.1995 35.1944 76.1184
34.6637 96.4991 44.5466
31.8354 98.6625 53.455
47.6225 77.8519 111.384
112.679 79.9467 161.759
69.6815 62.4098 19.6334
77.1076 143.342 86.4513
47.3913 64.4975 74.6638
99.3442 129.81 158.623
86.0216 151.971 139.399
65.7108 80.996 138.665
41.863 85.6565 123.128
56.0427 137.742 85.0273
67.6666 47.363 92.5405
33.3495 101.792 38.9313
49.5183 87.4767 102.332
78.4645 61.069 107.849
33.8902 98.5233 107.502
68.0711 76.9704 21.0667
41.7231 105.924 129.246
54.0667 64.48 80.5863
63.4004 76.7387 123.861
90.3741 107.957 162.835
27.1452 104.269 95.9483
103.479 108.801 160.842
48.2726 129.573 107.301
51.2408 61.2835 39.9526
36.387 69.6107 47.9536
43.795 60.2408 44.8892
49.7449 52.8481 50.9247
45.8032 74.8657 43.6811
28.658 109.851 48.6664
47.9456 144.784 108.561
55.0452 130.731 124.171
72.8786 41.1922 98.652
37.1446 125.812 105.758
49.9553 137.487 52.8642
33.7072 85.1442 41.8172
55.3157 159.808 101.766
29.6628 125.719 106.91
59.899 112.094 104.009
43.3174 114.711 127.835
86.0231 30.3149 79.9632
56.6379 87.4121 131.789
68.9077 106.784 143.363
49.9971 149.058 90.4541
34.516 119.672 112.972
77.1393 92.4979 36.4434
45.3468 138.801 103.494
33.2975 113.409 82.4047
67.0169 51.8205 102.162
65.0545 126.028 68.3469
39.9959 112.116 66.9184
37.0104 109.089 59.8402
41.7589 99.0092 52.1921
84.5427 147.553 150.419
82.1076 141.958 156.41
60.711 145.827 108.834
74.7438 123.938 134.354
79.034 78.5752 67.4882
24.1201 108.576 80.1292
95.4247 138.623 143.454
62.8698 53.9326 107.153
95.3288 119.568 164.967
99.2397 41.5596 97.5444
71.4138 123.7 103.236
76.6504 49.6831 125.217
55.4235 133.776 108.563
83.9453 112.585 158.876
72.142 129.72 125.4
54.9878 150.192 108.825
54.7665 101.856 53.5288
65.6741 62.1956 48.2093
55.8769 42.6683 50.6719
59.237 51.5378 81.9424
45.0234 54.6679 38.3781
62.9067 72.5296 60.327
65.4389 38.855 73.7342
78.2964 50.8723 89.4118
48.8862 132.081 127.137
60.9176 72.8779 26.1159
58.1615 46.6228 43.0185
61.3794 107.665 139.309
80.8208 102.42 51.8259
40.2971 79.3649 103.417
88.8536 143.784 158.073
84.6628 24.9955 72.6303
37.3304 87.6356 101.929
28.5341 96.4667 61.9065
76.9569 154.798 131.3
38.7642 130.006 115.514
56.0455 132.697 93.151
84.1594 66.2301 112.233
80.8777 157.192 103.205
100.491 21.6903 104.743
26.2672 112.257 88.7424
33.9847 124 92.1424
38.4212 134.445 101.18
72.4768 139.784 147.889
26.2905 92.9426 52.5052
70.938 122.344 40.9931
43.4178 82.4486 99.0865
67.9054 149.583 101.202
70.1468 133.627 55.3977
30.3237 81.2634 47.147
62.1731 89.259 146.467
81.5701 125.189 157.715
60.6258 49.5381 63.8043
91.4428 115.478 160.18
67.1045 140.337 115.016
43.5858 141.835 92.3402
61.2282 37.2106 38.6608
75.3554 70.9613 22.7961
47.7401 100.342 52.1469
64.8276 140.06 97.9618
51.1545 110.628 127.184
62.7303 110.181 46.3745
83.8121 28.3653 60.2705
51.5101 131.417 46.0583
57.2438 135.292 52.439
70.5614 156.691 93.2449
66.404 81.1201 80.6247
38.7936 75.4358 43.6862
34.4744 103.387 96.4014
64.5377 134.113 104.594
44.6864 87.4469 73.8856
47.4741 84.8078 39.0556
50.8042 100.84 80.8484
52.0848 54.8418 43.6005
56.472 63.8554 74.0947
65.6888 126.462 124.229
44.3912 102.179 124.216
56.2911 100.71 135.533
49.1414 118.624 124.241
98.096 110.045 165.033
38.2049 88.2858 114.683
87.9281 31.9752 116.619
98.0568 73.8789 109.491
26.9448 98.0552 105.497
104.11 82.9919 110.307
79.8116 157.997 94.1244
96.4669 135.684 152.432
49.6508 138.513 77.5547
40.6541 73.1512 92.2835
64.3392 77.1744 106.07
43.9768 93.7211 123.208
67.1291 152.225 111.566
81.6129 36.084 75.0617
29.0725 110.76 94.9961
76.4256 134.952 99.4025
87.5858 132.894 146.3
69.8289 147.952 115.192
70.0064 154.008 131.462
51.1543 76.7777 49.8371
65.168 60.2678 83.8418
84.6195 74.0837 23.8891
48.2315 86.8054 126.03
71.8056 54.3383 104.254
89.4084 122.363 155.89
44.7171 112.807 136.945
57.5636 116.554 50.2386
50.2818 83.3646 118.269
75.3684 138.971 74.8532
84.309 83.5801 38.0681
79.1233 116.289 157.532
55.9779 64.5535 94.6306
83.8085 84.6513 135.681
87.7519 33.9861 38.0089
88.4474 137.446 139.531
71.2307 28.3418 41.2727
56.6695 138.335 97.1479
43.9578 66.1408 30.8358
41.0735 113.612 90.3532
41.7195 91.8709 36.6665
82.3029 44.4531 76.1549
25.305 103.701 52.1238
48.2544 65.9078 82.234
88.774 55.4992 18.5976
43.3972 126.034 122.029
73.3641 129.143 153.054
74.1626 88.8325 89.0692
51.3064 92.7215 53.1503
41.4823 99.5649 37.5464
91.8243 74.5721 149.831
70.334 66.3875 114.668
51.2673 125.19 74.8489
41.3907 67.7851 65.0714
77.797 39.6218 111.354
61.0907 90.8471 63.6684
41.0205 80.2417 36.6687
61.5843 63.5969 62.0544
56.2841 59.1119 46.2205
69.7814 132.471 146.02
56.7003 95.2754 76.9276
81.7001 120.982 57.5735
62.8063 81.8262 112.32
42.8076 135.368 110.26
59.7835 156.293 95.761
44.4782 75.7096 32.4669
78.2772 106.093 148.945
67.2192 142.601 78.6072
38.5452 122.005 69.5243
59.8693 138.231 103.457
37.89 91.5018 50.2707
76.5984 27.8254 63.5122
36.2398 119.077 52.9749
62.9093 55.8078 90.0918
52.6709 115.806 95.8768
44.6279 119.532 76.4435
95.1383 158.584 104.446
78.541 52.009 52.9561
76.7523 148.965 136.992
97.915 74.9441 146.031
42.1236 92.9436 105.637
47.5531 92.0318 36.9525
59.4078 63.6532 33.2716
35.482 106.985 102.884
80.3076 133.136 141.916
56.621 148.561 115.869
69.7505 72.1191 110.69
92.9794 69.6074 23.7641
89.7868 42.1252 108.797
36.195 95.6531 59.4838
80.3351 60.0036 88.1809
53.3269 117.972 136.819
45.2405 90.9672 48.9888
56.7561 63.1097 54.1454
95.3335 48.2259 130.682
37.8531 73.5852 77.2527
31.6114 86.6164 65.6006
20.2904 106.4 91.1977
50.7922 67.0587 88.2933
48.5633 67.8206 25.2377
67.2803 115.872 125.109
85.3969 73.924 106.991
89.4892 145.271 133.753
51.0163 60.8196 69.3915
66.8005 103.98 53.8355
64.7028 125.57 115.997
104.936 99.3755 26.5879
70.7272 107.532 124.349
82.0218 74.3084 144.004
33.0165 93.9825 66.9536
65.6853 139.699 69.8072
63.5813 45.7339 84.7995
84.6204 89.2565 130.534
40.8308 85.0404 44.9402
56.1738 74.304 126.32
54.6663 144.113 120.361
42.6474 84.2051 53.0956
36.637 125.038 84.6112
83.6571 39.6978 49.2279
72.7473 84.6571 20.1346
65.6919 65.7866 103.131
62.28 149.602 115.124
57.8002 131.82 40.4249
61.9474 63.2616 40.8855
47.9317 101.229 131.784
71.812 64.2828 58.468
106.483 50.0924 131.431
83.2173 148.653 129.281
67.1112 50.4233 19.284
40.2729 130.669 83.035
99.4138 40.014 115.629
35.9762 92.8637 36.7027
112.13 70.8866 140.652
79.1226 97.085 143.09
79.7865 122.027 164.547
50.444 123.634 112.577
72.6758 127.158 158.879
84.0178 157.547 116.107
42.4907 80.4351 58.825
71.0728 71.6836 86.3903
98.7119 146.542 110.377
75.4233 157.429 118.115
36.7678 112.853 51.6471
72.2613 126.124 50.235
27.0767 88.9554 72.9128
69.9186 87.3433 144.941
51.6839 74.0439 117.656
56.2371 98.1013 119.399
38.5414 103.138 46.7397
53.2465 54.0359 66.8358
76.927 129.325 114.281
83.3223 82.7374 21.1481
52.2857 111.103 38.882
47.0359 70.6946 91.7564
32.4487 99.9163 75.8375
77.1553 121.295 144.745
41.247 124.216 54.6925
68.8691 44.6232 66.8456
74.592 89.0597 97.7873
43.7275 116.785 111.497
35.7031 113.507 96.5757
55.6574 53.9267 37.2058
74.734 86.0302 141.204
64.37 125.614 104.651
84.7994 120.451 142.213
54.5442 116.254 37.543
54.7035 70.6064 106.736
85.2118 41.1797 121.044
64.8187 67.4592 34.7116
69.9227 128.79 108.035
67.3754 63.0045 12.52
61.8215 149.122 78.0437
77.5623 68.5737 117.749
49.8616 95.1324 122.927
46.9719 111.662 72.32
79.3349 151.639 148.611
94.3432 34.6886 57.6819
85.3477 76.1265 41.4715
86.6143 60.2641 27.6792
65.4531 135.711 92.1839
83.0914 150.595 97.0976
75.8878 115.971 118.681
42.8821 108.615 118.273
38.6398 110.157 112.4
89.0913 47.4837 26.4223
31.4554 93.071 76.9617
78.6985 119.117 152.184
79.9939 157.122 124.115
50.3616 134.802 96.2458
85.0093 105.191 156.026
80.4379 54.9801 115.21
80.7067 45.1225 65.8244
92.1359 44.1581 52.7714
56.1149 100.035 112.559
61.2344 153.062 105.691
117.584 124.267 161.626
88.3734 24.502 92.2704
56.5618 151.053 90.5324
63.4591 85.7314 129.189
37.0891 86.6233 58.8563
33.3662 112.283 47.0616
37.4043 98.7546 70.7574
69.4989 69.7655 121.853
52.6725 81.8348 99.2747
41.8461 114.425 116.72
51.9271 83.2773 73.6545
96.1793 127.372 95.7861
60.1988 114.145 87.319
86.2479 29.2976 94.9609
76.9686 107.112 130.004
43.2509 90.6249 66.771
76.1848 44.2055 115.509
98.0732 27.0762 95.2212
30.0726 130.371 97.4215
70.2515 137.121 124.664
43.0696 78.525 70.0571
71.4197 63.9619 102.859
95.6584 26.9755 110.696
72.3615 139.37 113.721
101.372 118.577 144.458
33.8977 80.0786 87.3541
59.3017 84.5178 47.0313
81.1112 57.7044 18.5018
77.7647 68.1477 138.804
65.3904 65.6756 74.4924
56.0433 140.084 66.9439
113.276 102.79 167.637
49.8228 95.8857 65.3688
61.9022 95.0982 88.2369
39.9127 132.847 91.0868
56.3607 86.9427 56.5716
92.7911 34.0386 119.045
52.7818 68.1066 100.584
48.1964 111.758 132.034
59.5583 113.961 95.1989
77.7063 28.746 45.8621
48.0172 104.305 116.227
79.6409 72.897 133.048
72.0726 133.258 138.369
64.7051 62.7509 56.7134
42.8386 94.7134 79.6483
51.9375 91.0222 43.7308
62.9155 92.4017 122.584
77.923 54.2635 64.875
52.7606 102.669 122.976
72.7336 149.852 123.254
58.6617 115.491 114.905
83.5987 30.9964 88.0172
110.943 109.584 159.302
87.5518 64.1694 132.426
113.665 118.142 167.8
54.6706 101.086 45.8099
74.3407 86.6918 128.636
60.3171 132.14 116.166
57.6037 75.5841 103.31
39.6357 123.169 110.997
72.1263 121.015 145.752
98.8606 87.2737 152.646
67.3579 123.838 143.752
60.2674 142.771 126.545
50.4955 112.979 66.4776
52.8093 126.26 131.19
44.6432 100.607 137.211
57.7905 82.3629 110.482
78.8542 83.9789 152.937
89.7056 39.1484 42.751
61.5194 108.673 35.9136
88.1293 101.349 159.613
47.8315 143.379 85.3333
78.7277 148.794 76.0023
96.5579 68.2758 142.415
73.5931 92.0299 109.755
75.5628 135.186 119.484
93.6694 29.4903 102.468
46.3678 121.938 109.208
111.055 21.5248 98.7574
73.7761 103.581 139.241
65.0602 109.944 148.594
60.7617 61.3925 102.451
50.4818 121.78 63.6142
47.2397 129.741 90.0001
36.5341 91.1934 75.2132
31.6387 81.2163 56.9587
40.6895 77.5481 48.9055
86.7429 30.6854 108.817
56.562 129.956 100.941
85.2855 50.258 124.435
66.9088 114.775 141.708
74.9725 71.5768 66.0306
77.9693 149.057 114.07
70.6888 127.044 118.733
86.9152 36.9803 67.3606
79.7535 53.012 73.558
68.1983 36.8759 65.5605
113.619 43.3696 129.396
55.4788 140.679 126.524
51.9991 77.033 33.0244
82.468 74.8624 123.683
75.9532 76.3878 112.382
49.0356 66.3579 95.6942
94.1185 22.4988 80.3166
74.8428 39.367 25.756
108.187 119.926 163.966
54.0367 135.522 131.144
72.6244 96.8124 139.94
67.6349 120.318 135.133
70.564 76.2284 9.08073
70.7154 79.6133 115.143
59.9859 70.3403 124.905
48.4048 115.959 83.8071
89.9939 39.6169 27.3788
58.3062 55.2148 75.5345
87.0941 90.1958 156.922
59.963 140.549 133.871
55.1852 126.197 113.84
71.6674 99.3565 145.286
58.6064 130.762 74.9651
63.3559 107.838 59.0194
70.0705 145.268 132.587
92.6604 118.416 130.379
27.9576 104.484 103.967
76.7463 76.7818 119.05
81.9591 128.221 144.323
59.9701 72.7314 77.7104
98.7834 128.522 136.802
47.3944 93.2077 134.329
45.3961 71.8578 75.6388
67.0547 92.0712 141.131
57.7406 86.5963 72.3855
90.3663 143.319 117.156
86.8586 60.1268 65.1948
57.149 58.96 80.0739
54.1258 137.615 120.328
44.3398 124.163 116.216
88.2513 37.0476 121.098
84.4079 34.5605 55.8337
105.7 37.4691 124.608
84.1451 64.9185 138.527
78.3152 75.1728 38.3411
68.6066 113.133 119.819
85.8765 122.684 162.501
91.5131 50.6549 96.1242
70.5152 69.4435 105.958
72.1252 55.4465 54.8426
72.8894 72.4173 130.249
46.5822 118.445 40.3929
47.0129 95.6674 117.645
68.8768 99.7224 110.645
55.6972 64.3231 25.1551
52.4808 52.0723 24.1793
84.4799 76.8002 117.34
24.7576 101.17 68.8932
49.7395 98.7472 59.115
109.671 39.4475 80.1634
61.9885 125.022 38.6243
60.7877 78.9275 131.278
68.6913 56.5391 114.427
38.9232 95.6072 113.59
60.8772 75.6569 136.973
79.5452 59.4927 96.2307
47.1104 82.011 46.7972
50.1181 102.967 109.846
51.8063 108.053 141.653
87.9574 82.2917 157.669
37.7575 120.793 101.756
75.032 135.579 143.496
86.8238 67.3019 30.843
73.6592 95.2245 122.607
52.0206 123.334 37.9438
49.6433 92.1493 141.679
62.4983 70.4348 87.3005
34.615 118.925 86.9548
74.6273 102.391 122.014
83.3581 145.799 143.229
59.5744 74.3208 116.138
75.8757 128.204 140.107
81.7896 144.386 97.9957
63.0948 116.176 117.531
76.4408 148.059 119.927
96.587 28.4944 74.0182
35.3955 106.03 66.2332
98.609 68.2471 133.065
64.7218 146.817 122.887
49.4547 86.8717 63.153
90.3431 44.2178 90.838
68.1107 84.5524 105.117
53.2149 115.231 111.055
79.128 56.3547 127.44
66.2943 72.4692 99.1042
22.6396 94.425 83.6826
44.7089 86.2039 89.2964
58.1834 63.827 67.1189
66.0906 127.941 98.3446
63.9892 68.6742 120.579
51.0632 109.392 119.665
43.5763 109.533 108.428
102.61 78.0175 160.418
43.7418 107.459 63.7108
49.9802 138.426 112.908
73.5319 49.5636 94.9251
62.1548 140.635 86.07
79.5075 65.4605 80.013
59.3824 147.407 120.9
82.5881 57.7797 59.943
68.5565 114.339 132.065
55.4867 57.512 27.9779
90.4448 97.4107 138.879
55.1274 86.6988 120.466
89.6274 142.512 147.989
64.8005 79.3541 97.8898
50.741 130.256 118.728
103.981 73.8308 143.441
79.4521 121.769 116.109
89.4909 118.686 149.841
81.6896 62.4594 131.885
85.3903 146.93 89.496
72.0784 62.7009 118.799
47.0598 59.0936 56.562
57.2429 108.494 143.577
46.4119 79.4686 92.1336
53.9662 93.1535 137.434
72.9589 122.595 152.479
59.9754 83.0924 83.1207
53.1743 121.911 81.4142
62.432 64.9011 89.8639
57.3688 105.641 108.979
55.3104 141.81 90.361
58.9074 68.9475 44.5306
119.129 86.9292 160.139
58.2845 56.7763 90.5943
87.3933 147.428 122.251
75.395 39.8134 61.3645
69.2248 111.298 50.1019
56.2325 72.7942 49.6294
55.5335 92.3404 86.7542
80.057 67.0094 102.155
73.646 44.605 53.8739
71.2784 120.465 113.34
70.8888 32.6621 59.607
48.725 101.037 72.6901
92.2887 129.154 150.313
93.9376 61.7817 132.527
43.7973 82.8234 77.4904
81.0177 45.5248 122.041
40.4368 126.655 66.3145
65.1944 140.355 126.548
45.4652 119.833 96.2671
62.3479 70.7476 103.962
71.5792 84.83 75.5626
83.9599 44.1594 83.0468
36.8659 83.7082 79.183
53.7396 84.9323 51.4064
43.9129 96.3888 87.9209
56.8668 103.926 68.3832
58.3816 122.786 114.434
49.5321 87.5449 114.536
44.4077 137.911 80.4431
86.4728 77.0992 152.711
64.1661 120.15 99.8782
85.2383 136.172 152.811
67.0148 100.729 144.933
115.583 107.783 161.151
50.8473 153.441 98.4107
62.7715 113.361 132.076
50.0877 113.051 106.422
78.1329 150.548 142.636
123.791 101.402 164.731
49.3776 134.286 63.7802
42.7157 103.087 97.5881
63.9689 55.6444 96.8136
84.2908 44.3506 90.6746
74.6333 76.5362 98.5329
85.7689 63.0412 99.9906
42.4986 118.846 61.4716
64.4576 157.591 91.7298
97.5556 34.2771 91.9903
67.1062 101.735 39.4321
67.7105 130.984 44.4976
88.9524 57.535 104.363
76.2682 75.073 29.3346
89.4752 104.9 143.459
71.0496 160.508 102.972
47.1332 145.168 100.617
89.3039 135.449 111.813
60.169 69.8877 72.1177
75.8056 73.6392 140.802
95.3735 94.877 120.764
92.2394 89.0861 150.955
89.3666 110.943 155.927
68.2537 37.9323 46.7851
80.9548 121.111 137.232
66.9527 140.421 104.374
41.8889 101.26 113.134
83.3438 49.483 47.1918
85.6999 86.9677 117.844
61.7387 108.466 125.976
56.2597 122.358 42.5947
106.416 47.0723 105.994
77.6003 28.3621 82.2603
59.1038 94.3539 139.44
56.3499 123.51 96.771
54.1499 81.1056 127.399
68.833 73.8539 32.7797
59.6612 42.3638 58.9587
51.8352 105.806 63.124
47.587 124.848 97.6531
67.0009 93.5812 129.867
71.9663 60.2864 108.761
50.9703 46.5844 34.8251
78.1649 36.0101 65.1809
90.5415 32.7543 98.5723
63.4988 118.979 72.9492
60.3567 118.442 63.7522
103.949 123.316 147.741
26.4187 106.931 69.5629
87.7416 141.406 127.575
89.0756 56.1574 111.478
61.0548 101.965 120.541
56.7139 107.52 57.2843
96.1844 54.0254 89.4114
64.5292 129.839 86.6858
65.6765 46.8121 59.034
91.4457 153.864 91.3739
111.998 54.7111 110.082
60.7325 87.9415 134.582
63.4388 136.281 77.2902
76.163 101.991 45.1681
42.7204 136.139 68.0358
83.0784 161.619 135.512
60.6248 43.7877 36.3895
76.1955 122.266 57.8813
60.0961 131.766 106.908
36.5434 116.812 59.3204
82.4009 122.392 147.462
50.6698 86.2157 132.548
79.9372 77.1154 105.567
77.3904 124.381 107.783
44.0124 113.626 79.5833
57.5852 68.5121 116.738
42.6716 118.042 105.227
21.563 97.4735 90.595
92.0245 26.8903 85.6659
86.7655 51.5762 71.1389
85.2698 75.4698 134.066
63.8962 37.8352 48.4567
80.4345 52.2378 81.5174
51.711 74.9965 97.5292
71.393 136.9 92.9886
75.2355 133.183 66.7102
42.0847 89.0756 82.2289
39.0506 68.0632 56.9278
80.9984 37.716 93.5946
84.0362 88.3564 142.389
66.9826 118.009 85.7102
75.5855 76.5815 125.037
85.3805 65.9792 20.2454
72.2254 119.429 73.7693
87.8569 129.499 118.976
54.3312 74.4296 91.6136
50.7788 88.9658 89.3624
77.9708 135.78 151.894
59.3885 126.215 109.275
78.9449 67.5455 125.267
43.6298 95.5826 57.8946
101.321 26.1836 108.709
67.2771 154.295 86.1388
84.5603 59.6497 119.642
102.796 131.217 146.994
63.9296 114.427 38.8011
89.8612 70.0501 141.558
74.3115 60.2386 96.6369
56.5157 95.2401 124.312
68.3167 138.646 139.855
35.9883 121.688 79.9749
83.7273 139.154 105.69
80.8139 105.492 123.686
70.0621 55.3908 77.4361
36.7391 85.8761 49.6242
66.7225 55.0662 61.9388
66.1618 73.6075 68.8125
80.7722 128.429 107.41
81.1629 77.7459 49.7614
96.6093 120.872 148.723
77.0419 87.2781 148.566
60.1385 56.499 56.041
94.347 37.1134 86.366
92.2266 152.82 124.63
68.1381 116.274 42.1
51.9514 92.2823 127.283
38.035 112.042 41.8756
64.2743 85.1085 98.6867
70.991 67.4386 96.6266
108.982 27.289 100.207
42.1004 114.883 98.9687
57.7775 122.938 79.0965
87.0392 74.5647 81.5206
63.0147 66.6022 81.5672
86.078 46.1724 103.101
42.415 122.274 43.9369
73.9958 36.5633 51.2751
54.8107 112.443 83.4287
42.2228 101.089 104.638
70.2038 151.714 78.9725
62.5098 97.7388 112.276
117.889 93.837 166.109
94.4913 129.321 106.836
69.1892 44.3621 112.4
101.767 26.1563 99.8962
110.728 100.62 156.315
86.2447 128.856 159.311
83.4529 76.0262 74.6856
85.8236 46.5373 17.6685
78.6741 83.4391 138.732
88.6558 138.104 122.879
61.3382 93.6602 45.8343
64.8952 90.4578 77.3961
80.6453 36.5718 82.4624
81.7545 78.5684 30.3022
108.643 28.7458 93.6028
61.0168 73.4689 83.3946
85.282 66.3466 121.227
68.1332 96.7529 121.454
68.5773 86.1946 150.569
98.4157 109.53 154.334
90.9344 79.4467 146.677
80.7315 94.4533 122.786
71.3898 99.7248 54.0834
89.1166 53.9683 118.214
76.3546 79.1079 140.041
92.8576 70.9114 135.061
71.938 151.437 107.475
83.7788 150.973 82.9208
68.0409 121.233 117.839
73.8079 67.5213 109.935
54.6013 64.9969 45.0527
85.9329 52.1566 91.3017
43.8089 87.6352 107.948
62.5649 56.6937 65.5578
58.4427 102.239 125.455
53.0871 86.1793 106.55
58.8463 85.8489 118.429
89.8538 33.8752 88.8585
83.8159 157.955 143.237
98.5819 32.3983 116.558
55.9351 141.217 50.2476
34.6428 75.9262 51.7743
81.6716 97.7294 151.595
45.8353 136.839 88.1398
48.4727 135.183 110.727
52.1665 96.0763 113.712
74.6791 114.166 43.2014
79.8351 59.2571 72.0543
52.2001 119.694 73.5251
90.599 68.4269 121.148
69.1644 84.823 127.932
68.8964 74.5858 140.663
94.1257 129.973 137.675
27.1664 86.5643 64.9342
77.6087 129.087 72.4898
65.3008 100.817 132.786
99.2941 110.52 144.93
65.6748 75.8646 88.6117
64.6007 127.966 75.4914
74.0802 143.933 141.786
54.7762 80.2901 89.5479
57.2599 94.8882 68.2386
62.8258 130.814 53.8558
70.0766 66.6767 125.884
80.0723 21.5746 82.1119
97.12 119.764 155.611
89.7732 156.008 120.595
68.3165 140.877 86.9917
60.0635 138.241 73.7931
87.8536 28.7425 67.1312
76.0612 33.4443 32.532
47.4566 93.3716 95.2723
34.952 127.617 98.7951
93.5218 82.8704 123.798
117.354 43.2202 119.888
53.92 106.256 148.039
45.323 152.15 98.0775
61.3896 55.0354 19.3543
85.3915 70.143 142.423
82.6713 69.4942 63.9177
37.2448 80.3632 67.8976
38.8064 129.63 73.9008
84.7659 131.697 112.552
61.2122 66.3285 108.43
93.5278 37.1609 80.5585
48.3617 102.987 65.7252
50.0613 73.4282 71.8342
45.7967 114.135 95.4033
38.7997 127.207 92.659
57.1687 122.735 51.1369
43.4104 127.702 74.8533
69.9912 128.149 133.811
35.7811 78.1993 78.2425
60.387 94.6699 130.42
94.2682 57.7519 125.631
72.9644 80.8464 103.689
105.766 32.8893 97.77
56.697 109.782 118.904
58.669 112.596 67.7608
108.43 143.489 137.853
100.312 150.267 129.115
47.9352 97.1364 41.1274
43.6314 102.611 80.7853
70.7206 26.6059 60.5736
106.406 21.3259 103.381
62.6395 117.983 108.307
81.2709 150.842 119.818
94.4859 121.05 82.8465
70.4655 153.618 125.067
59.3781 59.8182 97.1102
91.1798 145.938 139.713
77.4359 62.7318 56.4214
42.6898 118.308 121.285
59.4726 80.387 99.4964
43.138 89.5237 96.7051
65.0778 52.8498 48.8087
55.0008 124.145 62.4572
57.5117 109.05 131.464
94.0739 148.672 129.64
84.2642 117.257 117.816
65.4587 66.8239 95.6309
86.6573 80.3801 147.266
94.7776 62.0104 105.461
78.5836 76.1873 16.3131
56.5081 46.9629 34.1461
99.8909 96.5427 159.354
53.3544 104.781 99.4951
89.9142 66.9391 105.776
64.6253 60.5301 70.4146
56.4779 146.962 83.8501
112.129 108.129 149.696
68.4049 91.9961 135.171
71.3786 70.1855 51.2039
39.1044 85.5727 37.1792
59.2337 99.0455 43.0257
74.2502 51.6383 113.208
41.3897 82.9887 110.517
61.435 78.6009 68.428
97.5264 29.4987 80.0073
72.7668 46.6412 82.5331
55.5514 113.165 61.939
62.5092 119.331 78.9585
84.0759 61.7937 104.896
92.6285 50.6647 70.4046
61.4087 103.687 49.811
56.3307 140.396 76.4966
66.6931 86.1939 122.852
58.1883 96.5791 97.6879
38.7697 108.204 94.7015
70.4518 34.7555 33.3075
76.3394 76.7298 87.75
79.1451 151.751 88.7185
62.9513 150.364 100.453
72.6264 84.7353 120.816
52.3514 111.443 100.774
60.4692 55.3573 71.066
72.495 81.3077 82.4703
102.313 43.7041 122.919
107.956 23.2037 73.4233
68.1039 85.8144 69.2481
116.655 112.946 154.152
100.145 62.1176 129.381
88.8262 59.0745 95.481
69.3484 114.792 32.0026
36.8651 106.893 37.0502
37.7501 123.353 61.6203
98.2209 81.6028 148.187
104.075 83.4433 151.607
68.417 57.756 90.2877
62.1087 90.7917 53.7606
28.3394 88.7958 57.283
40.8687 109.848 76.9673
84.7187 49.6408 55.3804
47.6921 95.0695 102.752
59.4143 92.0391 115.015
124.128 109.422 162.22
86.4019 31.9138 101.704
65.4259 43.4072 23.0292
80.5202 131.98 66.051
75.1385 58.5904 78.4889
44.5217 65.3468 38.3368
99.0066 97.1586 150.555
77.7868 27.8808 77.3961
94.5038 82.0113 149.973
81.9536 112.576 150.668
63.249 159.959 107.183
49.8727 68.8302 64.5886
119.232 124.182 143.942
90.5533 47.6304 126.762
86.1413 154.234 130.699
83.2928 132.403 120.216
80.6316 144.591 120.245
90.0347 106.261 149.054
61.971 81.7134 63.0454
88.2784 52.8597 85.891
112.506 112.149 141.806
53.9903 121.556 89.6691
113.345 90.6884 164.722
40.6419 103.489 73.281
92.9825 96.4733 147.213
78.0677 126.131 97.3959
69.2219 128.17 90.3733
94.6951 42.5569 72.0121
75.4335 38.3396 91.2401
64.9194 79.7707 50.4701
29.1745 81.8359 87.6018
78.7052 122.562 122.657
88.5583 58.79 123.945
87.6121 66.4409 40.6668
118.871 47.3369 129.25
85.6754 130.994 69.7372
66.5232 45.6393 54.3405
94.8745 112.471 150.791
65.0816 92.0677 92.7214
51.0828 125.078 43.2832
72.2981 118.097 53.8184
77.3665 72.5381 75.1111
74.8201 69.8706 100.527
75.068 38.0196 85.824
70.2239 64.9538 76.5625
102.442 68.8746 139.363
95.1984 38.075 125.286
93.433 36.0748 74.9138
59.115 131.711 68.0847
36.649 92.5536 106.516
48.3662 130.723 75.0977
117.085 113.329 164.952
86.6786 159.959 101.412
101.538 40.1648 77.7558
48.743 93.1147 108.489
69.8324 85.8167 44.6365
103.117 91.7309 117.014
65.7006 77.3441 43.8061
64.3158 129.128 131.911
65.0324 69.5579 52.6273
119.436 33.3559 112.629
61.2299 130.571 126.739
72.1917 97.9756 47.468
59.9926 79.0059 87.9161
99.9383 27.1705 83.9036
40.6912 76.878 87.7577
106.2 38.4448 94.6631
105.695 67.6284 132.704
99.302 145.768 132.424
50.7593 88.4265 82.1005
81.6625 89.1485 153.631
68.8155 124.126 78.0116
76.5356 122.53 158.932
92.7295 77.1756 81.3368
76.6831 160.805 130.488
87.465 76.7602 94.4442
77.1892 119.887 77.2129
73.2275 93.3312 130.006
67.2606 94.1606 59.7033
65.6567 67.4922 114.824
84.3914 142.518 109.801
85.8797 84.5373 94.1992
48.4299 120.701 79.932
71.1996 125.16 62.9806
78.2465 82.4475 39.2921
116.242 133.88 137.523
95.6706 56.5647 112.686
111.57 117.882 157.773
62.0367 110.299 119.138
81.5425 98.4656 128.568
76.2909 153.47 106.379
100.821 63.8462 117.575
40.1086 93.8307 98.8721
70.318 60.9898 67.3904
96.9831 61.0901 96.5017
73.807 133.65 150.475
28.6237 98.0879 98.6088
59.1521 129.98 135.225
54.9561 85.0999 81.7486
58.3978 90.9032 105.654
64.6723 91.1379 113.779
101.246 56.226 92.6554
87.801 73.732 70.2229
42.9251 71.024 85.6067
91.0651 112.36 48.4566
42.9272 139.91 97.5041
70.5152 99.6865 131.904
95.8664 54.2951 79.3652
84.3906 63.1174 90.5711
84.8404 98.1402 137.677
44.4886 104.226 88.9617
54.2082 79.8112 68.7388
104.633 61.1908 108.183
89.0505 154.974 127.891
72.1863 72.9247 80.7134
