ply
format ascii 1.0
comment Created by Open3D
element vertex 270
property double x
property double y
property double z
end_header
35.1029 71.3871 78.1349
57.3447 130.452 54.8247
41.9282 126.954 65.6192
35.5333 119.164 89.1374
26.6847 89.9799 90.999
37.3807 47.3942 61.0608
53.5189 115.128 54.1864
21.5204 70.6521 83.7863
36.0301 123.189 78.5775
23.3782 75.1452 99.1876
19.708 39.0199 81.2484
20.1217 70.8452 70.7375
41.4629 126.97 93.2746
44.2055 27.5084 84.6415
49.6011 116.685 72.4126
29.8142 108.211 86.4509
20.593 39.5041 61.4015
19.5695 41.539 71.1927
35.4502 123.447 84.6457
35.3882 111.459 105.626
42.5128 95.1688 103.876
61.9864 131.757 78.4399
16.9711 91.7151 68.5644
27.9135 110.684 65.8787
35.2692 94.6589 79.6513
37.3223 60.7209 76.6246
20.6324 78.295 76.8082
48.5048 97.5559 41.8299
26.5731 79.7251 108.166
31.7306 62.1964 96.996
37.0231 102.295 69.7925
41.0672 66.4592 36.7995
40.1197 45.2869 89.4898
32.5434 82.3983 76.9968
37.902 64.0466 83.9699
17.9802 91.3707 58.1737
30.473 113.254 57.7099
36.5674 74.6373 85.5483
57.3074 122.818 61.7995
39.1593 29.7054 52.5387
28.1444 100.131 89.2262
56.5468 112.196 32.9753
21.2783 62.7712 70.793
26.9507 108.643 73.8209
42.1587 72.5477 32.1354
31.3061 57.2957 64.6026
20.9102 106.597 68.0375
24.0476 33.9308 52.3067
43.29 126.016 52.0422
42.6298 47.6926 82.0625
52.1049 106.974 45.0192
50.9069 114.839 62.5949
46.3563 132.944 71.8967
41.4854 99.5572 94.0891
39.2102 74.9682 105.517
56.9477 135.074 65.2554
28.8271 32.5919 89.0271
37.0537 94.9486 88.8865
28.433 89.5822 38.1438
41.6001 122.541 101.216
58.3065 124.264 87.796
41.5917 78.5324 27.0409
54.6763 119.813 99.4022
20.8344 100.847 78.7538
44.6669 37.6081 57.543
46.7043 28.3249 62.873
33.0799 115.439 68.7864
17.7634 77.2169 68.5603
38.3992 24.3864 55.9594
23.9475 105.19 59.7084
43.9108 110.636 69.7531
43.873 22.6743 67.6837
50.4783 105.759 107.576
36.8602 40.2605 92.7513
42.3045 25.2922 76.0118
25.0351 95.8198 47.4224
38.8949 68.7309 95.0274
23.2155 87.922 82.7961
35.0226 119.695 55.6002
23.6262 79.8681 85.1697
45.3492 35.8478 67.1386
40.509 129.265 86.8151
24.1705 48.9523 83.5644
25.2913 79.9745 93.9282
38.4294 32.165 92.059
41.307 111.997 54.185
26.6725 59.796 85.9161
39.6181 124.044 72.5159
29.2218 105.762 53.6439
18.1485 100.61 69.3103
23.4115 28.2832 59.4995
27.5093 94.4595 105.317
39.4927 83.2063 102.752
21.9921 29.3882 79.857
30.7018 59.4759 54.0812
27.956 51.3948 75.7047
33.9759 41.2212 53.8822
37.9382 21.2022 62.4087
47.9584 76.6346 34.7276
21.0312 64.3485 60.5757
35.1572 86.3614 84.7869
46.7164 28.8686 71.4094
28.3986 28.3518 83.2145
26.0898 63.8128 55.2536
29.1089 21.4668 75.7397
21.5139 75.8849 49.3972
33.4553 96.2071 36.052
57.5681 123.404 77.8266
37.9712 59.3277 90.4325
28.014 99.717 98.1722
18.201 85.1275 73.7304
40.7569 130.448 78.2452
36.2911 105.844 110.064
32.7831 50.7665 68.7024
37.9908 79.7648 48.072
34.9537 20.1479 75.3398
27.8867 86.7636 108.159
39.2436 63.4741 58.8227
42.0104 110.898 37.052
33.2706 92.2422 113.035
21.4735 45.8774 78.2644
39.0314 78.5626 96.694
24.1831 70.6525 50.1337
25.1355 44.1083 87.963
37.1495 50.8477 83.0664
24.2909 35.8361 85.4149
38.3487 92.5447 28.3981
46.2948 99.7877 104.646
41.8795 101.978 115.859
43.1307 101.242 58.455
59.7169 121.524 43.1523
21.6486 97.4342 56.4925
26.8138 68.3895 99.6871
40.758 80.6329 113.214
36.0139 92.8963 65.9149
32.0419 24.3856 69.5822
41.4691 51.5765 75.3138
43.6838 88.0156 106.564
33.7787 48.9834 89.5339
49.2481 108.384 52.8986
36.4774 120.91 67.0457
54.3786 103.28 35.894
35.6129 52.7295 76.149
55.8486 127.995 93.1419
27.4555 40.9751 54.9417
29.2879 46.2005 59.3292
52.3416 127.901 98.0595
29.9384 101.14 107.119
18.2167 75.856 57.6314
25.0494 85.7266 99.3484
44.7786 120.003 43.1733
48.3586 136.372 80.1977
21.2463 33.9489 74.0914
46.2673 70.8843 39.935
39.6532 37.597 52.1472
20.8489 34.9214 67.5887
32.3861 109.837 93.6914
20.8179 27.8631 66.432
31.588 83.8937 33.1438
29.423 51.6064 85.2727
30.5683 89.5863 73.83
28.2995 74.6199 40.9168
26.5757 49.4723 66.2515
38.5818 22.4927 80.0379
19.0092 93.4467 76.9725
23.9542 46.4116 71.8606
55.5035 136.691 78.9753
32.1568 111.611 47.6471
33.8441 113.625 98.8006
32.7863 70.7725 108.188
37.8473 81.8936 90.7829
32.3263 113.865 78.6162
36.0744 81.8862 41.5888
23.6172 82.0833 46.1656
28.4381 103.015 45.2286
50.2637 134.429 88.7369
46.4753 128.66 98.5537
41.3286 91.2264 118.418
19.47 87.8108 51.4659
60.6287 121.928 52.0112
38.4934 19.8107 70.0363
39.051 124.232 58.85
31.8847 72.6994 34.6748
31.905 82.0332 115.372
45.0345 34.531 88.3945
40.3033 92.0242 47.2251
58.6004 132.54 85.8276
58.4767 113.589 45.4102
25.248 99.0514 83.6243
45.9441 34.4346 75.7843
27.6421 39.1855 90.1478
35.9311 87.8652 37.478
33.9264 44.2569 85.9868
46.0791 111.888 83.3322
37.1758 111.553 42.472
36.2792 83.249 27.4216
56.4999 123.03 69.8867
36.9673 46.4794 69.7221
33.3552 70.7766 47.462
46.1739 100.706 50.7486
27.5252 84.2877 62.0223
34.0083 28.0685 87.592
29.2935 74.4463 53.1222
41.6584 63.3315 46.3156
21.2349 36.0698 56.9082
44.16 29.5079 56.5065
45.6266 106.143 98.7764
26.8067 89.6039 51.4565
31.8553 42.5275 93.1584
52.9546 112.569 98.6424
35.9751 75.4371 30.257
37.8924 27.9706 85.3921
29.1415 35.7063 53.2872
43.8211 92.2878 59.0624
42.4407 43.3899 73.1721
50.4688 85.9775 34.4805
37.5487 119.005 47.883
23.1323 93.4422 66.7257
49.3942 113.367 91.1342
43.5132 23.0543 60.1231
28.5305 23.7458 65.1977
39.6495 70.0898 65.1926
43.3014 71.0821 53.8503
46.5186 131.42 57.5704
31.1199 22.4959 83.1683
52.6175 117.057 106.783
45.6559 90.9217 50.2907
48.206 87.0008 42.5904
43.208 102.6 29.255
48.2259 110.013 112.206
25.8709 99.053 67.642
32.6307 26.563 55.0431
41.9841 80.9733 58.535
38.5007 106.204 77.2283
35.39 103.077 38.471
34.0232 61.8788 46.7647
34.2159 112.424 83.5187
23.483 28.2364 71.7067
25.5165 57.7426 62.6419
48.2795 116.705 36.8103
49.5205 134.769 64.8457
39.2089 72.7712 60.4057
46.3362 41.8528 76.8999
26.7161 21.8308 61.3677
47.6109 78.3099 42.9457
24.4279 85.0636 55.2909
27.1023 92.0507 59.4289
47.7648 84.9076 25.9032
44.9367 134.172 85.5418
23.8692 43.9201 64.1224
36.3202 65.7276 69.6975
49.9956 109.124 29.8852
35.9443 88.1262 57.5892
21.9178 72.1952 89.8191
44.131 43.275 65.7423
26.8991 35.4606 68.0453
31.1214 58.1308 81.7585
23.6521 24.1321 74.0367
30.9994 89.4595 67.9791
42.1719 39.5866 89.61
46.7916 39.5611 83.0499
53.5218 104.621 28.2501
40.5217 92.9257 62.7147
50.1892 125.466 45.0759
24.2968 79.6997 61.6954
53.9981 117 84.553
40.889 83.7688 34.1274
38.9598 68.6119 48.922
26.1771 105.75 50.335
37.3136 55.0863 62.1779
