ply
format ascii 1.0
comment Created by Open3D
element vertex 1295
property double x
property double y
property double z
end_header
56.2823 125.382 104.115
36.3632 158.623 81.9022
37.6381 58.1127 69.4084
43.7296 93.3833 69.0237
77.1201 158.604 141.733
30.2494 133.904 51.2613
33.3375 154.208 53.8778
69.541 42.6025 87.9848
43.6441 58.7002 93.4652
32.193 143.848 55.2761
38.1758 167.695 56.0823
60.1989 170.672 119.086
86.2256 162.676 20.7147
50.382 158.884 104.024
75.5824 160.198 113.783
71.7908 139.354 84.2328
94.0008 199.793 42.8772
41.1256 119.525 69.354
54.7805 178.677 74.1561
70.9937 73.2114 111.613
62.8674 107.809 115.678
51.022 167.98 121.775
45.2792 116.906 107.06
47.6629 108.557 96.9634
37.3896 168.041 80.4761
47.1868 145.89 88.8002
56.5339 30.3618 81.0582
48.2237 102.198 89.501
58.2181 69.7203 84.304
37.9829 177.094 64.3232
74.5494 109.83 127.872
56.2703 120.37 89.9333
112.68 199.903 63.0487
36.5216 88.1908 70.7764
81.2279 184.182 41.8616
42.2378 134.686 107.289
35.9602 55.7986 107.808
58.9504 40.5414 113.701
113.044 209.321 96.0131
43.1329 155.898 95.5688
48.1685 181.125 77.4266
66.6447 69.6488 95.7868
36.9753 151.807 42.2385
48.7378 170.793 73.16
39.9329 99.7956 92.6681
51.5038 178.085 120.742
44.4653 130.834 114.828
50.045 39.9235 114.538
46.5423 62.6945 102.652
50.4836 123.149 112.267
58.5787 82.2716 37.6781
87.4976 178.946 27.7819
50.474 168.933 107.896
44.9334 156.116 77.7312
76.6177 78.2791 46.256
68.2108 165.127 78.0932
44.1649 163.662 99.5961
81.8405 73.4296 25.8788
67.223 112.29 124.901
50.906 130.363 116.809
37.6414 109.169 79.407
53.5221 133.531 80.3733
44.4873 40.747 108.174
66.2574 147.116 124.854
44.4129 108 69.8982
45.4482 181.356 59.1257
59.5555 154.12 57.7877
52.6722 64.4967 92.4242
60.6925 63.6074 89.1526
63.2344 159.516 129.619
68.395 63.8732 52.045
75.8343 110.468 99.2074
70.8621 64.9027 104.528
76.1931 123.555 120.985
56.7615 167.659 101.588
75.5575 126.682 25.7893
62.2982 43.6432 88.6704
55.5423 129.784 132.862
35.1301 87.7098 81.4919
45.9956 126.576 59.9445
57.6675 71.351 42.9449
53.8836 122.223 41.3276
44.9526 56.0534 72.2158
95.5794 184.657 144.881
74.9934 107.042 119.26
42.7319 139.626 34.9667
38.0622 78.6315 95.3885
68.5987 180.674 86.8237
51.7742 127.16 54.9479
35.1653 143.073 71.0209
53.0772 132.653 96.1147
46.3133 69.2693 104.245
45.3181 164.172 79.2625
59.124 152.707 113.578
83.1039 110.346 122.138
35.8884 120.378 79.6838
64.6262 172.6 126.971
47.8674 137.4 104.1
37.7603 125.562 88.0648
71.647 178.307 44.8892
55.8622 170.056 69.1032
66.0008 62.3276 42.2316
120.588 212.728 80.2527
35.3605 140.833 83.8562
44.4331 86.7904 60.3482
61.46 40.3659 78.7681
42.5557 167.938 107.041
58.7586 105.505 66.6747
55.5293 111.38 120.272
59.7606 149.447 147.481
105.375 135.61 153.494
59.689 178.211 84.6057
32.1799 78.1751 82.5729
48.4816 110.226 63.1582
78.3436 116.126 126.019
57.2947 176.717 130.438
70.7558 127.3 91.4488
43.0478 136.376 83.645
49.9664 119.647 50.281
43.2365 151.957 44.7938
60.5074 85.6395 113.476
94.97 145.433 135.988
54.4675 169.125 92.9427
94.0447 70.959 20.9784
78.4854 152.783 26.1947
68.6598 152.33 117.753
70.558 157.176 130.542
110.748 207.488 80.3994
91.9475 186.877 123.822
102.417 195.753 39.6587
48.355 86.7287 98.216
68.7015 146.709 26.0525
41.1954 98.6679 83.7667
64.0331 46.8658 97.8133
59.4526 138.665 76.8678
97.8463 139.61 158.245
75.8562 95.0285 50.0242
35.5011 46.7725 98.5933
46.3125 148.723 138.78
75.1482 125.19 135.13
49.3406 146.116 125.69
57.7705 37.3546 73.7655
52.4793 175.461 57.1179
111.799 201.567 110.637
87.3087 170.118 149.68
50.6875 126.264 86.5338
53.1687 82.9586 43.183
44.1997 122.258 88.4386
51.7084 58.1426 98.9169
56.8105 140.644 123.625
67.266 145.585 102.363
67.5643 102.376 60.1701
59.0031 120.712 121.634
51.8794 153.212 97.0446
86.883 135.203 135.409
52.0422 63.9973 82.4789
87.4817 179.929 39.272
64.6297 169.668 54.6495
48.9963 164.018 64.6367
52.2352 148.182 107.868
72.5009 149.418 69.3563
49.3263 74.3576 92.7136
38.257 69.1906 82.3452
39.9329 124.674 76.106
50.4168 88.3329 112.286
48.4622 163.245 87.5099
80.5094 80.9636 91.9035
45.5163 171.463 91.0454
60.6464 139.473 52.8443
77.9072 159.014 133.064
63.7318 146.674 86.3403
62.7274 145.687 142.383
60.9151 186.418 68.5738
52.2449 94.7804 80.8792
85.7572 158.317 136.264
68.5036 117.752 60.739
74.0828 182.679 108.648
80.5197 135.562 145.198
28.044 67.5608 95.5789
81.1678 128.573 129.855
65.4349 156.016 103.111
58.1982 41.9253 99.1872
124.333 208.898 91.5407
58.1691 183.336 52.4964
30.6813 61.6339 103.896
51.5816 55.2329 80.6419
45.6092 127.448 95.6417
68.3189 103.885 67.5176
43.2467 178.654 74.8998
96.8349 104.237 24.1257
41.6785 168.231 71.9306
49.4101 132.554 109.684
44.1774 97.2283 106.388
68.0935 163.733 138.356
42.3296 65.2431 70.3081
56.3587 134.249 116.242
51.7539 70.9409 46.8582
43.1076 41.069 100.966
54.4476 51.1412 56.0219
108.211 204.803 90.2375
61.7993 160.29 37.0574
76.0816 36.4624 101.858
68.7448 145.979 62.7334
56.0364 162.395 88.0174
70.495 119.704 122.786
52.9163 86.7551 68.6646
61.3419 158.661 144.88
46.6909 35.8195 80.4361
100.256 166.938 135.212
75.1301 86.8405 29.8021
50.1546 160.596 140.119
59.9852 142.753 82.0857
56.3423 97.9166 66.2378
58.9264 171.162 50.4927
48.5908 151.453 49.0712
33.4496 55.1446 86.1137
53.9088 162.405 116.775
86.0858 159.448 148.5
39.3274 87.2263 57.923
41.8009 89.1964 97.6463
51.3934 162.655 73.4485
39.7711 147.512 88.4352
49.423 74.5668 64.4073
71.7589 155.667 107.862
53.999 155.151 42.3212
73.8742 147.747 103.119
83.8294 173.595 97.8804
79.796 55.3615 104.276
43.2685 75.754 67.5992
60.2075 182.051 94.5163
72.1319 182.784 51.7547
59.817 103.193 45.5787
93.4156 171.418 30.1454
75.8018 154.521 119.266
54.58 116.08 99.9624
46.1435 89.2602 85.953
53.1867 153.038 89.1388
80.1156 145.331 147.382
80.7323 132.42 18.126
60.1459 150.874 121.486
76.2264 123.458 92.0842
42.9596 168.616 42.7797
72.3053 68.4401 32.1589
42.7019 102.592 77.0872
58.1966 167.138 75.7137
82.0561 90.9227 99.5044
45.176 156.329 68.3989
51.8973 157.477 112.905
80.55 70.2906 33.2078
96.1962 63.4035 28.3662
58.9278 73.4015 52.1531
87.8211 108.448 109.674
42.856 173.024 98.6985
51.1113 144.595 100.121
70.7222 65.9745 116.333
60.2277 135.739 84.9484
58.969 152.106 37.7889
85.6517 180.481 146.995
38.1984 84.9074 111.839
77.5795 182.917 128.907
76.47 69.2701 86.6298
89.7731 130.968 113.877
49.5554 163.735 132.044
61.1936 118.235 81.1651
58.7136 68.4605 98.009
42.0058 49.7085 72.0371
61.7229 80.8636 44.0936
43.7119 151.51 84.4325
46.9376 46.7983 113.471
31.699 73.8543 97.2038
67.1658 84.6647 52.5475
52.276 121.173 121.911
33.2158 169.364 77.6394
65.5081 52.504 120.575
93.1344 197.136 50.9119
61.3817 80.0903 100.549
77.5061 156.419 105.903
57.8033 127.863 37.7067
87.065 121.34 141.718
53.3269 125.24 95.8435
40.0202 114.219 63.4698
59.7596 111.94 45.3502
84.6881 84.1241 33.1814
69.4167 110.932 96.3818
37.8702 56.5634 90.3693
69.374 140.533 57.5192
49.0006 81.6451 104.407
49.2936 72.1174 85.9175
91.0806 115.324 139.637
79.3723 65.5459 43.8539
71.86 177.586 77.0096
74.3619 37.8663 76.3404
43.9722 85.4926 89.6555
88.9647 167.6 134.703
56.2489 57.4239 53.1124
61.0434 116.855 93.576
42.2656 86.5351 75.7999
49.123 114.877 113.663
39.901 49.1158 112.108
28.7378 58.1692 97.4084
35.2965 65.0869 108.815
61.3344 29.3216 112.421
40.0437 47.7599 95.9572
56.8219 138.553 35.9768
59.8731 133.377 91.6851
67.259 185.698 48.3325
60.5908 49.5128 65.6928
99.3431 192.818 132.041
53.6291 96.6822 54.0086
59.4065 135.856 47.1243
103.02 200.974 65.9336
84.9694 147.728 25.7529
64.8494 95.9815 47.7869
50.3166 44.8022 76.9085
69.4233 45.8031 74.128
35.8971 150.699 81.7209
44.013 57.8142 83.108
54.4942 152.514 62.6087
54.5961 63.3108 51.193
89.8314 142.81 19.9871
63.7099 168.626 84.4895
36.6984 143.305 43.6789
77.7137 153.28 145.785
62.7272 142.289 31.0838
72.9621 114.816 38.9573
38.1786 71.3567 97.7638
56.6405 145.879 60.4751
100.59 195.46 32.7013
73.1296 91.0366 36.3721
69.6515 121.406 68.139
89.8203 161.655 128.801
60.077 147.105 54.0087
46.0758 116.195 56.9742
59.144 96.6362 48.4137
47.9007 84.6912 70.6765
64.7462 140.192 87.2161
68.01 182.639 69.7033
81.9711 109.042 110.629
33.7844 171.336 71.1426
67.1977 110.313 71.3277
67.6713 161.059 122.089
45.4333 65.4898 81.297
84.7739 84.362 24.9361
62.5682 98.4133 90.6599
43.4052 44.3026 92.588
69.4794 48.805 80.7388
54.4255 178.103 100.621
38.0421 157.997 67.6991
53.1715 93.3526 106.134
44.1097 69.113 94.6526
59.767 150.569 90.5664
87.3329 184.099 91.3657
65.0878 122.731 57.6848
131.32 209.111 86.685
50.3597 136.658 130.567
101.425 201.798 87.0529
79.7487 126.684 31.3633
64.3821 29.6946 81.2158
49.3023 119.065 90.6505
58.3524 89.2444 59.0177
68.7987 178.558 123.603
59.7494 155.578 46.3419
87.9305 156.14 120.631
50.6783 153.834 72.094
66.4866 105.677 46.2595
70.959 166.163 45.2482
49.2182 119.456 78.9639
65.8843 124.618 79.6501
59.9632 129.573 141.453
39.1723 62.6249 98.1094
35.3861 72.8819 74.253
62.9279 136.588 37.4567
62.666 143.78 65.6847
80.7002 117.157 102.822
49.3187 152.537 38.4257
47.3057 100.433 79.3781
91.1719 20.1081 100.746
53.4152 48.8725 69.1999
56.1021 161.006 39.0304
72.8397 118.838 111.234
81.1873 85.9366 82.4044
65.5153 141.132 73.5226
76.4064 48.8089 41.2043
45.8129 148.657 74.3327
116.502 209.676 62.8245
52.396 66.5422 55.7141
56.2313 150.574 48.9236
80.2043 151.313 114.423
44.3308 107.667 84.8459
89.2329 161.117 115.456
92.4662 89.4515 124.984
77.4422 31.6019 84.6864
45.5008 140.655 135.044
77.3823 189.941 47.1826
60.9321 125.606 45.0689
53.679 41.4664 87.9797
71.7084 82.6154 39.9968
71.1377 55.4028 116.641
39.5201 43.0409 105.861
63.4347 62.9594 105.109
54.4497 167.568 36.5024
52.7737 187.122 67.8379
58.5905 129.429 121.77
74.0643 137.106 144.238
62.8864 178.85 101.529
67.5479 99.8845 83.769
58.47 121.782 130.594
86.368 188.452 48.3474
108.218 207.858 71.518
32.6841 62.9124 76.4334
69.2067 111.828 117.997
76.8838 117 114.727
94.8788 160.551 100.891
62.1417 176.075 68.5675
82.0287 181.347 87.9826
56.8456 91.9988 115.751
68.4738 186.232 115.762
113.462 196.936 116.607
67.735 179.4 107.095
78.6117 129.571 139.423
61.7992 113.541 76.1573
33.7893 133.684 69.2002
43.2619 94.975 90.2432
74.942 171.605 90.4836
76.7018 42.4336 111.987
114.458 150.043 154.392
61.2441 132.99 127.991
67.1228 135.027 91.3032
50.2332 95.6674 68.7385
46.1726 144.842 39.0348
78.9893 137.351 96.5067
63.7104 91.3811 105.311
82.6468 155.95 105.494
68.4389 91.3401 97.3519
65.6184 90.0464 118.563
66.7204 156.407 87.2356
63.491 54.9718 82.9045
53.1688 111.132 84.2265
89.26 72.3047 26.4864
56.8553 89.6055 98.4381
42.8571 153.846 38.2927
47.4168 91.9981 95.2502
100.798 195.943 113.499
59.5688 149.03 68.189
57.1223 144.951 114.183
52.7788 78.0294 49.5669
64.4298 73.664 47.929
49.5142 71.061 120.197
71.7517 94.6934 65.3413
87.068 125.983 29.1761
104.309 161.457 151.318
75.3318 34.7734 64.9254
69.1102 144.456 116.026
50.2182 103.247 65.6512
76.175 55.9718 58.4904
66.6289 134.179 147.225
50.7983 115.418 104.023
64.0828 125.182 119.339
61.788 168.972 41.8162
49.4053 37.2388 73.3531
50.5225 143.629 44.1475
95.8326 177.854 28.3655
60.9118 41.7507 60.2971
60.7599 178.96 42.6036
45.52 115.98 94.3863
62.8115 173.69 91.5081
59.1462 130.066 105.891
78.3642 76.2495 36.1377
101.168 199.102 49.0338
75.6501 69.1623 102.201
65.655 95.5969 108.976
99.6348 190.582 123.44
57.0238 137.836 146.244
71.9411 67.5049 91.0404
55.3917 131.052 85.668
77.5221 124.44 110.079
65.1689 72.4397 112.298
79.6673 117.75 75.4653
47.9401 124.054 41.1831
63.9854 121.322 88.9887
39.3709 76.9968 110.293
73.7145 127.124 113.577
42.3364 67.3062 113.36
74.3529 170.499 134.919
105.34 166.404 155.906
45.6164 41.7262 70.2113
66.1686 121.603 130.353
81.2178 182.276 101.594
47.7869 65.99 88.281
71.1071 28.6519 102.55
61.9086 161.832 91.0066
70.6048 172.234 40.9062
133.333 211.816 67.6564
74.482 46.2952 119.666
93.663 189.693 113.67
52.588 151.724 123.362
49.9031 135.865 57.7518
54.0399 159.307 122.778
64.6197 132.308 78.1973
98.8626 35.2705 52.0645
69.9316 46.792 60.8403
49.5427 94.7017 87.3762
54.4836 86.905 84.2205
69.1113 100.767 41.9845
75.204 67.645 60.4725
66.9123 116.624 112.207
68.183 180.355 95.5272
53.8189 137.791 87.8075
85.6865 150.093 113.08
86.5701 195.167 74.2991
37.9553 92.7495 94.9853
33.4028 122.135 57.6096
68.3745 163.591 86.1651
52.2882 140.161 37.2203
68.0547 191.868 73.1617
52.5116 107.882 105.463
35.7472 71.8584 90.4031
92.3994 185.576 51.0237
76.0111 140.66 55.9628
98.1292 167.196 145.328
64.9206 91.8643 85.1448
65.1386 73.2658 31.2158
54.9927 144.534 66.4257
57.1257 105.839 75.0824
55.1175 46.5102 79.8615
48.5011 116.851 66.1016
61.6963 52.8194 103.617
68.7647 29.8727 86.7469
53.732 166.267 127.605
114.189 210.501 70.1397
50.5654 37.4711 100.371
73.1986 145.356 149.707
49.1043 39.8625 89.4992
45.6237 48.3505 77.4969
65.2221 149.316 34.0173
68.8888 69.6008 60.9013
111.207 174.15 146.505
42.915 48.9705 62.3348
62.5998 157.974 108.329
58.3267 60.0475 113.66
63.3233 72.9602 71.343
63.4374 152.253 134.733
65.7901 54.3528 73.3909
39.3638 167.709 64.5604
33.2003 84.2519 90.9954
67.6384 138.924 99.0393
46.3758 44.6906 86.0717
66.3454 154.107 48.9433
73.349 103.345 45.7748
57.3885 62.3743 120.692
50.5656 48.6406 119.513
72.404 152.72 125.843
80.0735 152.096 130.36
56.3906 161.483 138.577
92.9448 193.546 86.2999
32.7406 62.738 89.7036
74.0918 59.7712 67.9192
68.1232 152.341 142.152
37.2391 127.558 67.4762
61.8601 34.5525 60.1181
132.203 207.255 62.4141
60.1974 54.4212 56.8819
100.993 168.344 25.0396
45.2259 37.5998 91.8298
41.4849 37.5025 85.1145
84.4299 193.345 86.0167
67.0966 157.051 39.0312
61.3186 69.8168 119.781
47.8314 99.1726 101.505
49.6855 111.026 71.9261
37.7165 118.673 54.6103
68.9582 152.696 146.909
94.4214 193.574 104.606
51.0317 33.32 64.4873
61.953 32.4709 66.4723
61.2913 181.233 77.6928
101.241 174.811 148.563
44.1241 113.136 77.397
66.2075 166.886 36.6559
100.726 97.7933 122.808
69.8762 45.8481 48.7755
106.99 193.948 127.376
98.245 198.986 106.618
57.2103 65.53 77.1798
84.6077 83.8642 40.1558
107.953 156.998 158.683
70.9979 42.1587 113.216
57.9336 121.093 45.8163
66.0859 127.352 105.793
61.1007 128.471 54.8023
73.7419 127.446 35.0508
102.739 174.392 137.997
42.8882 74.68 107.13
52.3526 137.678 48.9911
58.1847 116.792 50.6858
66.0159 81.9425 94.2458
53.6302 154.378 106.831
63.0511 130.506 113.202
53.6584 46.738 112.797
43.7717 81.2034 57.6847
108.886 183.609 29.6879
74.3097 161.974 39.4844
100.977 162.166 98.0038
54.4336 134.469 55.0968
53.2153 120.023 58.2996
102.999 174.446 155.448
48.0378 81.8963 51.6916
69.683 166.896 127.734
50.791 80.9216 119.697
54.9094 100.995 83.5674
84.1495 102.846 58.7976
77.426 161.462 27.9489
72.1694 79.7384 33.233
96.0658 199.667 79.7636
81.5865 57.0984 57.0851
92.7002 54.1243 70.4243
51.4876 172.497 50.2778
77.285 181.74 76.4606
79.1205 148.583 122.141
71.9892 148.279 95.765
37.7743 54.8135 97.569
51.6023 177.57 89.1942
71.957 45.4589 106.01
35.5655 72.6958 103.733
63.756 96.9835 57.8278
44.6116 114.071 87.8902
92.7592 97.2396 121.39
83.1853 152.027 152.135
74.4203 50.2626 107.918
106.863 81.6956 124.371
83.9326 60.0441 50.7368
81.6316 163.553 130.809
60.2763 57.6943 39.1432
48.4667 164.484 58.5929
63.0211 141.796 120.701
100.562 187.455 139.71
54.1578 128.005 120.946
83.3343 175.074 141.864
94.7755 159.319 156.576
67.9028 129.873 49.4486
86.2629 50.4286 120.17
62.3019 45.7772 47.9929
77.4532 132.325 121.524
51.5073 92.433 46.8251
53.0224 134.405 125.559
49.3051 41.0483 60.5877
38.7621 152.495 61.6463
70.301 155.414 136.336
78.8166 76.2112 80.9668
72.753 174.443 30.3763
62.6177 127.448 88.2079
90.9069 183.746 105.675
91.0838 191.613 41.9299
80.5333 124.43 40.4168
50.6774 111.676 79.7552
60.1895 73.0607 64.8692
87.9173 182.896 139.117
65.157 53.2431 59.9253
73.8614 77.5043 60.6314
82.2265 65.1884 37.8132
63.4462 180.898 50.6576
64.2369 110.687 64.9505
69.5668 130.581 42.048
90.7561 175.479 90.3282
61.387 99.588 83.8772
93.0706 185.677 40.1643
93.3265 196.515 61.8547
79.8018 92.7414 75.9118
61.6168 83.8936 106.479
70.6666 53.5726 58.7783
64.0985 31.7845 73.6569
120.27 210.145 87.5474
39.5237 84.4028 85.6846
69.0563 170.942 96.3354
72.412 52.813 34.1135
63.2213 80.081 59.9294
68.5261 171.977 74.5354
87.9676 189.25 58.7125
84.1332 170.71 128.246
56.5435 122.241 53.5463
62.6366 80.9297 118.564
80.2809 60.9636 27.1975
91.4185 123.358 119.071
58.5583 80.9788 64.1585
63.4211 104.815 74.9068
60.1962 156.657 120.709
60.4847 68.9975 34.6576
54.8364 114.343 88.9632
90.0157 62.9929 51.1137
61.9244 161.234 137.918
50.5941 146.22 70.0179
59.1981 110.906 106.102
50.2946 144.947 52.7792
92.0982 37.84 48.8116
89.2536 171.524 37.6966
52.5479 57.1141 123.523
114.963 141.772 152.149
41.8132 60.6946 116.846
65.5616 128.575 26.7131
79.3928 168.871 143.043
65.026 46.8185 39.1783
62.6395 47.5532 77.8208
116.292 202.622 98.7379
40.5263 39.4171 79.5243
78.266 155.064 96.7806
94.0816 175.507 135.546
52.411 45.0818 105.516
54.5183 112.349 67.434
61.9383 71.6492 80.2057
40.3234 112.255 93.8105
65.7025 107.376 102.673
83.8236 146.777 136.361
61.0085 76.107 92.3296
54.1997 105.949 63.7751
71.4863 113.139 77.9525
77.2574 185.173 63.5726
104.386 206.112 64.346
71.8552 174.057 129.519
99.6671 202.471 59.2521
112.708 196.291 125.144
67.2512 153.758 66.7171
60.027 95.0965 42.3128
57.2994 95.6834 73.789
87.9619 194.113 53.9365
82.3186 101.232 33.6194
60.5908 175.912 108.364
58.4505 75.5145 40.2257
66.3427 43.6566 109.425
62.336 88.678 45.4388
70.0538 143.41 129.219
56.6423 54.1983 71.6011
92.5142 109.408 37.7232
79.6259 110.584 39.7519
82.5254 41.1374 44.4589
119.013 202.851 74.4346
71.3186 57.7435 91.7938
43.9571 51.7414 118.835
72.5049 132.753 103.81
58.474 41.3129 68.1332
46.5196 155.593 88.315
106.793 60.3284 28.7593
80.6329 139.412 28.7879
90.1567 76.1373 47.531
105.878 189.805 32.3243
88.1265 161.646 28.3189
82.2147 133.469 152.279
110.483 127.433 148.455
48.582 102.72 73.0512
59.6492 57.9128 73.8627
52.6465 116.29 74.7295
74.3836 65.1404 46.7175
95.5848 165.156 90.7801
48.689 79.8589 96.6175
86.1004 70.7378 120.051
55.9668 143.751 106.383
81.9392 81.2259 44.6185
71.2691 110.21 111.918
45.1702 93.7798 78.7461
69.8443 50.3193 128.145
82.3033 103.36 27.0616
61.0685 135.859 97.0408
45.1397 86.025 48.6408
46.8952 157.119 59.1468
45.8147 129.096 33.9342
69.1169 26.3004 93.8294
90.0821 175.687 143.235
79.4254 120.536 143.355
96.6993 168.417 152.748
71.3695 179.866 37.0619
57.2071 97.9212 89.5524
69.5954 157.392 76.2456
60.7365 118.945 107.036
77.2982 190.891 84.5325
55.8568 91.6156 66.4564
58.4642 51.9011 99.3858
47.84 69.5756 112.898
75.2109 61.566 118.333
85.1407 35.1404 82.4564
92.6999 57.0127 116.088
53.0268 113.371 57.3356
76.8624 34.5174 58.6549
42.9796 122.865 57.3015
128.592 213.778 74.1469
94.7593 84.6137 58.0787
51.9025 79.7493 69.3864
59.0956 109.135 97.937
126.22 201.525 72.1409
66.8826 23.9948 79.05
66.4931 28.7499 99.3976
60.4418 59.5656 61.5683
39.4594 108.071 53.9593
59.2315 82.715 71.114
52.7137 64.009 111.044
110.971 201.551 83.8445
74.9811 185.824 34.2597
68.5778 135.165 124.406
90.4485 89.7906 28.0139
75.0463 140.439 101.102
107.324 200.927 78.7634
61.2773 163.116 99.1088
60.4497 90.1436 39.2819
87.6393 94.0247 50.5211
33.5366 67.6586 94.9536
72.1336 157.459 28.6361
69.3934 127.968 57.2839
49.756 50.9461 81.2058
100.671 49.2899 37.463
78.9952 173.979 25.1068
82.1905 134.851 42.2667
75.1495 24.0447 103.133
48.3726 133.759 65.8664
86.6247 189.592 81.6226
59.2777 60.7209 96.8411
73.4035 55.1915 84.5832
75.329 106.552 110.184
81.0517 121.18 117.609
59.6938 94.1021 81.6643
83.5974 90.9733 28.381
66.6725 103.213 93.2959
82.8062 56.3814 130.604
67.5881 124.141 111.869
94.5741 94.4762 22.6987
55.7141 65.8067 104.983
51.9643 96.2278 73.4047
65.9626 58.2179 92.2661
92.7833 82.2066 23.1714
39.1887 40.0979 90.8216
101.454 95.3288 28.4963
61.4874 90.9461 96.0004
56.5753 61.4005 105.918
55.686 66.6169 37.8158
48.3386 61.1954 70.9775
48.4864 34.4847 107.652
70.4046 58.4614 64.8903
90.3376 156.397 107.918
53.4076 109.688 98.2664
71.9052 94.1674 108.441
84.5503 149.145 126.494
55.853 32.4517 68.6783
67.2146 87.0196 77.5046
83.1942 115.891 114.246
65.5206 51.4183 65.3991
54.395 156.178 130.747
78.5356 96.9832 59.9136
65.7259 81.5039 65.8611
30.9943 52.3337 93.1983
105.203 195.277 135.277
92.9509 193.753 118.965
48.1934 87.7906 78.107
40.9839 119.87 46.6398
89.6694 144.93 129.869
101.854 201.682 76.2377
77.8891 138.041 89.682
65.481 161.949 71.2972
59.002 177.462 122.943
82.4967 103.846 88.7096
62.4513 154.608 85.1455
56.1786 98.702 59.6424
71.9174 33.4708 69.9438
120.167 202.344 54.5152
59.5941 161.517 64.9794
48.3921 52.1665 57.2089
89.4213 127.526 21.2002
118.618 206.513 66.4625
63.8359 46.1892 68.1596
50.4469 141.507 86.6306
68.6101 35.5557 61.4352
61.0707 67.3451 71.0219
95.486 128.866 154.04
83.4474 188.355 132.041
57.9084 139.655 96.3244
65.8509 88.9271 89.6035
100.981 84.752 23.2099
50.2532 55.1449 115.957
115.22 208.462 87.3956
80.9799 129.038 110.006
96.1455 70.6625 43.0045
46.3448 69.7215 61.9152
124.012 210.028 67.114
47.6144 61.4463 115.555
66.7713 76.082 97.7486
86.1651 88.1607 53.0212
82.5413 127.365 118.596
81.5432 175.946 34.5956
72.4993 162.462 58.5935
66.6084 34.0489 111.527
105.551 196.294 52.8915
68.5498 175.502 135.127
74.211 63.4389 81.5199
112.599 191.871 58.2145
79.3681 40.5861 128.131
80.1488 88.716 118.676
57.3894 47.7356 119.813
45.1728 83.7023 114.048
65.7339 130.556 84.3292
62.1581 94.6401 71.87
41.265 152.192 52.0555
107.134 66.6936 43.8505
94.362 185.348 97.3297
84.4411 65.3468 82.1777
86.4747 151.595 34.4653
83.9491 80.9228 100.521
40.9995 79.4301 89.7421
59.059 120.575 99.6815
91.6329 71.7905 114.77
62.7624 98.8724 99.0918
80.6644 46.0926 38.4517
81.4085 179.172 135.936
39.1074 134.409 64.5941
50.9067 177.4 65.0962
58.9625 128.164 78.4648
70.8263 62.1631 42.5169
58.4573 113.123 59.1369
99.6805 180.582 48.7067
99.3822 197.56 95.0298
56.2472 75.5493 107.524
52.8024 105.717 87.8706
86.072 185.649 77.4543
62.7862 128.685 34.3975
94.3501 84.2686 35.2402
59.7588 114.414 64.5942
70.4391 50.8724 98.5834
73.7552 171.506 81.3731
85.9872 139.328 89.2575
114.383 71.7385 23.0082
105.395 88.8911 27.0551
135.115 207.505 79.9599
89.0496 68.9035 54.623
49.2229 141.736 93.4132
65.9609 58.0278 102.907
72.4133 61.2655 124.625
81.7205 188.226 61.7164
55.5859 116.666 79.5241
63.3772 88.9133 52.8773
79.5706 93.4143 26.7781
99.6653 109.595 124.935
69.183 92.341 45.1678
95.1362 156.918 17.538
89.504 87.694 42.3293
72.5812 168.519 33.2588
87.0371 140.295 29.3982
84.7046 54.0666 114.691
41.3066 122.973 64.8128
96.477 56.0976 108.776
78.8894 179.083 46.9272
75.9943 144.065 17.4839
91.1635 67.1705 108.119
64.6378 28.4403 70.7496
82.2042 57.418 43.6807
60.6827 150.967 100.419
69.4119 48.6124 119.821
71.4972 118.136 136.17
76.7289 137.596 127.969
66.3752 72.6536 36.2864
58.9379 49.9202 75.3846
77.7457 82.408 34.4206
76.6695 72.4523 111.65
74.4117 138.149 67.7615
56.3146 76.9519 92.9617
70.9443 76.0233 119.601
82.1235 23.8734 89.1635
78.7147 52.4339 33.655
88.2267 90.0712 97.0121
71.3735 173.636 55.1392
83.6718 159.512 96.7634
62.6907 156.771 67.9752
86.6007 136.554 127.601
49.0633 136.271 95.2501
83.385 78.2544 63.573
57.0886 104.288 99.693
69.3399 178.86 56.3049
92.4564 62.7073 113.604
73.1938 72.7748 77.3425
63.089 101.501 64.9867
71.372 161.053 93.3118
61.3052 28.6195 98.7288
81.2936 105.278 36.5041
68.8353 85.2962 83.7163
69.3231 154.715 32.2883
52.7683 58.9032 113.564
60.3463 138.484 114.752
96.9391 108.517 29.7721
82.8675 97.0113 54.59
106.189 203.37 54.4642
49.7752 161.817 126.085
69.2242 62.8672 78.5931
81.6185 134.194 24.9206
47.68 94.1097 51.4624
81.3468 70.9267 66.3539
32.9777 67.3802 85.2384
81.4501 137.37 102.845
102.855 146.358 135.526
70.8653 73.5528 84.3787
60.1555 27.5977 74.299
44.7053 122.895 49.6691
52.4658 169.605 79.9677
44.4515 80.8887 95.4003
77.9979 84.3745 52.7958
87.5765 78.0727 37.5396
53.8652 103.17 78.7767
75.8258 79.3813 104.058
87.5112 96.3805 102.297
78.5581 87.1264 41.0538
102.458 187.767 43.2407
75.0442 78.1099 89.0662
89.4316 56.0003 33.562
127.624 213.902 84.32
71.0049 41.6601 52.3477
80.6709 91.6813 37.5518
93.1676 120.433 148.364
58.6014 107.535 50.8868
77.0303 173.225 130.441
84.7571 93.529 65.0115
87.2099 73.0763 33.5181
65.919 93.2626 40.562
97.0729 174.41 127.291
48.1252 78.6189 110.117
79.7787 169.698 32.5672
65.6478 144.065 52.9846
63.7146 78.1748 51.5594
73.4214 68.0708 39.3841
64.5761 53.4281 33.2489
79.4144 54.4226 115.825
56.6466 144.153 92.6775
52.6927 95.3066 94.0436
87.7044 137.495 157.447
73.7042 98.4414 34.1866
33.3061 148.693 66.1613
56.3492 77.4614 122.498
78.8632 66.7241 127.399
96.6078 82.3202 70.4663
60.1953 53.2004 42.9514
63.7725 151.495 78.7571
73.4936 20.2129 84.0081
42.8608 64.3896 88.126
72.9882 41.3939 59.9248
60.7652 138.738 19.1724
80.171 188.629 33.6233
52.4669 66.3121 61.8206
61.625 77.8011 36.0661
87.5381 131.86 122.088
58.5635 57.8372 83.2664
51.56 134.091 35.3953
43.9519 72.1189 88.3495
42.5781 129.408 55.0445
82.6048 100.184 41.0395
97.253 158.803 150.215
82.3089 47.5754 128.401
54.6106 81.7001 104.713
60.7413 63.6733 41.205
83.3834 147.761 94.0143
52.8131 65.0943 73.0471
85.9703 116.873 122.139
96.9031 178.865 90.8394
72.547 102.459 97.0674
103.049 64.9732 122.222
69.7561 137.199 76.2562
67.3146 137.391 117.381
68.5297 23.1841 88.3528
86.4773 115.394 75.7747
85.1557 48.1102 47.9879
73.144 57.8571 28.3908
67.1788 86.2335 111.84
76.9076 42.8448 51.0462
43.1263 81.9759 104.199
71.8751 128.589 128.907
93.7379 125.648 134.181
69.0851 125.952 23.4987
37.9848 150.018 72.7835
88.5405 34.8802 70.8745
55.1293 39.1434 80.8782
111.061 182.756 140.92
97.0781 88.0269 27.4069
73.8086 33.0248 118.613
79.401 105.683 105.984
60.1597 57.2744 89.8258
101.178 185.499 26.6407
69.3167 141.544 107.204
32.5606 67.1833 79.994
47.638 131.258 80.9523
76.4779 61.0098 99.7976
95.4403 149.996 121.056
82.3826 73.0824 87.9008
65.4643 162.995 95.458
79.786 110.721 92.3548
65.6947 88.5183 60.6356
79.0903 124.957 53.281
104.421 78.05 47.8369
71.977 83.6128 56.1994
69.0996 144.28 90.0769
93.0362 86.6272 49.5273
86.5825 68.9165 45.3992
68.4004 90.2757 72.8034
60.5227 49.0741 52.2681
77.8812 171.195 49.2466
78.7733 47.2639 97.9832
88.9232 119.748 33.9077
79.5667 85.5024 47.1103
72.4713 130.032 64.5075
68.8526 152.641 59.3462
71.6018 36.4061 113.599
74.2275 118.205 74.8705
99.5049 109.06 36.4536
72.9558 71.3365 52.9959
88.2651 49.2106 60.4073
81.3199 65.9029 28.6997
56.7516 60.217 41.9227
94.9013 61.7033 91.6005
75.1765 90.5561 55.1918
76.8632 58.28 75.7347
103.202 196.176 70.8759
90.5831 89.6076 35.3575
68.6889 75.9411 91.3018
76.8296 118.926 35.9638
67.5001 148.536 51.8885
80.4322 84.9701 67.5956
53.3433 105.446 57.9568
72.5946 98.8673 54.1781
75.2739 144.267 126.849
72.2199 112.402 66.3241
77.2008 156.7 90.1803
74.7961 29.6855 109.431
90.905 114.971 124.438
89.0768 102.433 75.5246
67.9702 83.6667 47.0638
71.0939 74.8435 38.8838
72.0705 124.664 51.3091
45.7882 69.3968 68.1218
63.7483 28.2382 105.385
100.306 40.5054 47.5477
92.0916 184.914 85.461
63.0622 65.3737 116.825
51.5307 154.524 56.9396
69.1409 39.3268 120.36
51.7034 72.6832 70.0631
91.4003 63.3937 32.6713
78.0923 100.547 47.6993
72.3339 79.8928 109.103
80.3332 170.391 41.6517
77.719 137.792 112.081
80.5516 99.0978 118.548
72.2337 74.7477 70.7737
81.6213 97.7926 70.6782
86.2932 88.1033 124.999
72.9076 92.6691 90.6757
52.9709 73.5753 53.915
102.451 185.252 36.6439
64.0492 149.045 39.2069
82.4828 111.748 73.4075
71.1281 157.656 82.9141
65.7272 70.8919 84.8635
80.5159 127.718 103.823
78.144 96.9683 30.2755
85.1596 82.7425 94.6484
83.4008 63.1758 57.8095
86.9493 110.235 38.1764
93.6384 156.991 134.647
62.7143 66.6671 110.263
95.2637 190.565 81.2885
67.1338 171.226 63.4188
93.5225 195.082 90.8591
68.8725 176.21 101.614
112.772 193.304 49.2021
79.192 146.094 22.2333
130.484 208.177 81.7807
57.2938 51.8882 106.324
71.1716 104.428 50.9443
89.976 151.822 134.7
96.7963 78.0703 41.2261
68.1701 129.294 120.068
74.5035 156.636 75.4601
82.2316 123.072 135.249
61.6155 78.0197 78.6259
84.6965 64.7489 72.3165
54.9978 104.167 53.4573
89.2263 81.9838 104.089
76.3107 166.871 50.1336
102.121 187.427 49.598
90.6894 66.9433 39.1018
86.587 28.5367 111.499
91.4708 104.561 44.844
87.2718 46.4756 72.8529
112.119 160.362 16.6586
65.3708 179.615 74.3208
103.175 130.137 140.373
68.6799 48.8982 109.695
110.377 195.335 43.312
70.3464 117.098 88.0203
99.0698 126.767 130.422
64.746 111.569 47.1498
83.9984 163.592 29.759
91.6619 89.4436 62.4955
76.3556 102.752 90.5253
88.3972 114.88 39.81
62.451 115.821 57.2445
66.6399 148.858 130.781
83.4675 52.9223 52.0477
93.6077 193.694 97.6751
66.8941 96.407 94.3314
58.8176 60.422 33.9592
111.766 154.818 20.6085
89.4586 95.0028 82.6401
77.6782 102.343 29.113
42.1046 102.262 65.5022
123.033 206.349 80.7465
96.1736 61.7283 55.7359
57.8719 167.689 62.9749
94.7024 63.7116 46.095
63.8409 94.2505 77.8064
83.0059 104.979 43.6183
52.9773 38.2106 73.7989
92.774 62.5293 123.126
85.3989 120.545 105.954
60.0148 54.421 116.501
80.2156 67.2189 108.526
84.3118 145.393 44.6545
62.2277 60.1592 118.975
62.7478 97.9963 52.7666
91.2625 72.9541 41.779
74.2555 114.069 92.4503
112.578 201.012 51.0933
87.594 122.981 111.131
75.0526 142.889 118.698
81.7753 101.511 101.701
63.0036 83.714 55.0335
48.4174 67.6015 77.3576
103.458 36.1295 57.1193
91.264 103.611 119.482
57.8642 162.087 129.099
69.5496 121.359 40.9344
91.9509 63.3436 59.5961
134.311 201.098 83.7339
65.7712 78.5299 71.1681
88.8408 195.652 45.6429
52.929 77.693 95.0137
103.793 102.4 31.0556
64.6117 143.88 96.5069
78.9612 59.1692 110.372
94.2681 191.519 56.7201
59.0682 65.0261 58.1569
84.3521 37.5921 57.0033
37.6888 64.1086 87.1383
104.911 75.129 21.605
57.5368 32.5333 106.847
99.8547 139.729 141.422
130.948 204.048 93.1239
90.8475 32.3207 82.1911
93.0111 164.557 113.689
62.0895 96.2905 64.41
58.5531 67.4849 62.7225
53.8198 43.7182 116.742
62.8532 148.94 95.3046
53.8646 157.443 66.8616
29.8679 60.4605 92.7767
81.3627 141.995 120.599
84.7844 111.562 97.2054
85.8867 24.2031 104.366
82.1147 155.799 84.2096
77.0193 42.8931 44.8802
89.9902 58.6728 130.296
77.3226 45.9132 70.5104
42.5596 129.46 85.181
78.7843 163.552 41.7026
75.4186 100.088 40.0383
86.5491 28.6982 89.9576
65.5129 175.538 57.9267
74.8642 129.14 70.5508
58.7081 74.5438 97.3008
68.6995 162.35 65.8113
88.1195 21.2892 93.7107
89.1505 34.91 112.037
53.9375 58.4135 58.1713
72.3489 93.8763 58.4003
71.9234 83.702 66.6129
43.4124 128.742 71.5757
82.1528 33.9911 102.437
68.2587 155.28 94.3491
59.8521 102.52 56.3474
78.2549 94.6903 43.8346
82.0425 145.832 80.6693
97.3428 174.521 45.7534
71.2385 154.311 49.984
57.0492 111.554 93.9868
91.1633 80.995 64.0866
98.175 129.537 148.589
81.8781 101.257 81.4266
114.15 175.468 133.954
103.873 131.815 27.4459
109.807 202.974 70.2677
102.504 70.4796 55.0383
80.2279 92.9421 88.1192
85.7255 97.2636 84.8639
66.2168 136.222 61.3165
79.4214 110.947 78.66
98.4345 100.826 34.6493
