ply
format ascii 1.0
comment Created by Open3D
element vertex 514
property double x
property double y
property double z
end_header
44.6366 104.191 31.9893
53.4538 38.9297 25.2779
29.494 84.074 84.5798
28.1183 56.4526 85.9069
17.5198 70.9111 61.0701
27.165 97.239 49.7736
33.1614 81.017 70.6864
37.3955 62.1288 89.6975
58.7934 54.4145 60.8614
53.2658 65.5258 34.403
83.37 34.7038 104.844
53.09 31.4026 56.7175
38.3479 37.1952 63.6066
19.6272 60.265 72.8437
35.7392 99.5452 33.9145
77.3993 14.7166 78.0028
49.7451 25.9445 77.3197
56.8686 77.7808 72.268
64.7646 109.517 88.0964
46.8528 75.7527 37.7158
33.2816 100.683 55.1906
38.6519 48.97 46.8356
29.5063 101.947 42.0514
61.7626 62.2132 97.1122
56.5274 104.759 89.0087
30.1641 34.5192 65.3163
49.5973 89.6973 41.885
70.9273 110.432 93.4414
73.9653 87.5096 101.33
30.9552 97.1781 77.0768
75.9401 112.14 80.4567
98.2681 80.5053 105.828
82.5134 103.811 59.6889
34.6251 65.5738 51.5301
39.3192 57.9537 65.0229
37.0908 102.746 86.2016
34.9886 41.0767 54.4685
18.2102 68.3963 70.5069
46.0855 76.2807 86.383
94.6413 63.8536 109.325
86.6864 57.2642 107.401
107.752 88.0032 106.149
64.3297 77.7221 15.538
45.7311 96.707 46.3811
69.9766 112.127 69.1407
64.5595 73.0844 42.9305
77.2829 71.2425 12.7012
47.1788 103.807 57.8784
93.3409 92.0382 105.18
30.4251 50.2949 56.2706
76.6973 78.3016 10.2713
57.3149 86.2062 68.802
77.447 26.2019 98.0063
45.6961 52.5303 48.9554
53.221 74.8884 49.2333
56.8277 27.9768 31.2839
39.2058 27.4691 77.9083
36.5325 108.03 39.9382
63.5505 69.1702 53.2314
85.1297 91.5213 108.537
35.4477 82.3997 54.0616
23.2024 75.0707 74.9108
107.689 96.2256 104.475
70.5611 73.1204 53.8348
55.5623 97.8032 25.685
62.911 89.9451 80.4792
58.0988 59.921 53.2544
45.9862 20.6044 46.139
24.2675 55.7347 78.1227
42.3022 80.219 58.0145
62.612 44.9371 78.379
26.1554 62.4734 51.4475
47.0512 40.5136 57.7241
91.7469 35.8689 103.793
26.9201 72.6746 63.47
73.8869 95.6267 101.873
44.5636 30.6921 80.3192
28.9545 42.0227 86.8903
26.705 88.2577 38.6731
24.3529 39.3134 68.0614
19.5798 86.0127 60.1977
50.2712 100.963 28.0455
48.435 34.9854 48.6831
66.4946 96.8612 56.0336
65.2258 49.1588 33.4382
62.8446 93.77 94.7723
62.0041 70.727 98.8871
58.5096 61.384 76.6031
88.9938 59.943 15.3426
40.0556 59.823 50.5334
62.3642 108.096 59.8764
45.932 38.8231 31.3599
32.1129 56.1792 51.0618
75.714 36.4404 104.908
40.5452 44.8314 82.3209
55.2697 17.6666 68.9946
23.4099 59.3548 64.7529
44.7055 102.541 80.081
68.0166 66.9489 15.4445
75.8148 58.6283 17.6705
70.1125 28.4312 29.9096
27.7309 68.8841 53.1361
61.725 20.8995 77.6384
23.0511 77.7187 55.7361
18.0941 78.0395 63.7457
60.5635 63.4312 44.6915
33.1106 90.2754 31.3863
17.9544 64.1901 64.8001
22.9568 50.5009 79.0967
48.5536 45.7652 32.9567
46.1259 106.626 85.7047
41.5966 52.3388 88.6544
36.2409 33.8094 72.4533
47.8974 17.7119 63.7905
96.9758 38.9 97.5168
101.915 60.4739 106.241
70.3117 66.7016 27.8859
66.7608 84.094 100.362
28.2485 36.7144 76.0564
56.3212 58.2991 42.4452
61.5527 44.7403 94.6014
40.2345 92.1815 27.88
63.8707 90.4477 49.5446
34.072 87.8067 79.5468
66.9659 24.3756 68.6845
94.6153 56.6224 105.617
75.3447 20.6656 91.9482
39.5117 66.9658 75.9375
42.4512 27.4542 43.8174
54.0713 54.4507 69.8768
72.1765 102.78 62.4118
82.9302 31.2225 92.3702
71.761 31.8456 91.6639
35.3286 30.8153 41.9734
57.2103 43.431 33.3106
62.3282 112.499 75.2745
39.5204 60.0597 73.815
47.9805 105.782 47.8346
31.6111 29.9768 78.0248
35.7316 37.6307 82.8291
42.5885 62.8374 45.0487
58.3738 88.8098 97.6076
73.1488 98.6874 29.9981
101.081 46.574 100.408
69.0239 92.4487 97.5446
70.7875 24.9347 87.856
41.9881 97.595 37.5316
101.342 23.4026 83.1983
79.804 17.7931 85.6181
62.9543 32.6011 51.5634
61.803 35.5493 90.644
72.1194 80.925 17.4187
65.1709 103.287 97.5845
75.8822 46.6589 101.934
51.5783 102.188 77.9115
49.173 38.5517 86.0251
61.9964 95.8124 63.4914
68.0089 48.0644 99.7985
76.6281 48.0698 83.7827
78.3136 98.5733 75.6351
47.034 49.7399 88.3023
37.2917 86.1015 87.8236
75.0706 51.7147 106.844
72.6373 102.907 96.628
72.8092 19.1708 85.5125
34.8428 84.2428 62.1211
85.0841 72.1845 111.29
20.9755 44.7683 64.8968
49.4545 91.3698 72.7245
65.1177 38.8989 46.3326
48.0259 68.5068 54.9554
76.2879 18.73 71.7268
91.5462 87.6222 98.8593
27.969 77.2589 75.8572
48.5191 79.7467 65.6614
49.6402 83.7349 89.496
88.5152 24.8098 95.0221
53.2319 36.7694 67.7554
47.2273 98.8296 88.5659
42.2349 100.63 64.7665
58.7203 13.8784 52.8017
80.3429 106.994 93.54
28.198 71.6401 70.1095
79.1588 63.6851 13.9861
83.634 84.1865 97.5241
39.1058 69.9795 85.1318
37.4516 83.4793 36.2827
26.9097 82.475 68.229
78.149 39.4053 97.8171
41.9593 37.9131 49.6025
52.2131 103.717 37.7197
58.792 49.4571 41.2539
60.0358 77.5235 81.9367
47.5444 47.7905 77.4939
62.3839 22.3057 31.5693
78.1399 99.0853 51.2912
92.19 68.278 93.4504
28.0125 75.5245 45.4133
30.8009 64.8651 75.1556
67.5941 102.611 41.819
86.8855 58.4557 24.5722
51.7815 47.1443 49.9437
72.5461 59.3926 73.8159
85.3583 67.0107 9.69084
43.1996 22.5789 58.5965
67.3996 33.858 72.4462
42.1947 68.5868 50.305
24.4295 44.5774 77.5568
76.2152 107.611 50.4626
57.1929 103.379 47.6733
56.0842 35.668 43.4844
79.9909 46.6593 94.1035
27.8229 91.0393 58.5256
46.6858 89.8603 29.773
103.136 66.1716 12.6953
80.0073 100.892 103.345
40.9162 35.7338 38.7807
57.9921 89.9208 45.7225
89.0116 77.5643 17.7153
53.6936 69.2051 82.7538
59.6679 106.659 70.7019
69.4237 39.7614 85.612
85.3767 68.6752 17.3438
40.4045 75.674 49.3968
41.9874 96.5937 54.1551
63.7426 53.6911 20.8866
85.9934 107.833 96.2855
54.4938 30.7441 75.7677
56.16 20.5691 60.5749
82.2922 22.007 92.5615
70.0176 15.6206 80.3005
93.5054 21.9086 85.5801
56.482 92.0941 57.0007
68.413 107.774 61.3495
72.8304 72.5103 90.8552
69.8156 92.1039 24.3342
103.491 50.3637 17.7209
23.0559 52.497 65.1526
40.6536 91.735 67.7653
77.2023 20.5513 48.6429
74.8147 41.3489 86.4167
55.614 82.1353 54.395
33.6786 50.8088 87.424
43.2966 53.0638 70.1186
100.272 72.4609 107.284
38.695 99.1336 74.2908
58.0951 74.7087 43.0435
63.3532 74.1061 63.9937
72.263 60.1284 101.021
49.5767 65.7656 47.345
69.9052 22.9101 36.3753
62.6801 67.9869 24.1806
80.8769 92.934 102.126
44.4929 57.8033 86.1468
45.1238 60.3319 96.6086
49.3446 86.0949 79.6452
52.7697 52.6898 26.4343
38.2247 27.9576 58.5181
42.5867 85.9059 33.3543
71.0054 109.833 85.943
71.7513 40.1281 22.4404
34.8832 78.8529 79.6102
74.1452 89.8876 58.4064
51.0625 75.1773 31.188
42.7288 43.5037 91.6868
66.6338 18.3334 46.4426
75.8348 16.3092 65.7744
35.8814 33.4923 48.799
49.3718 47.0998 63.3793
70.0361 19.4673 63.7066
61.3179 56.8433 35.7321
84.9913 64.908 102.291
54.9226 23.1135 37.1146
90.4173 104.49 84.7362
47.6495 59.1553 55.2555
74.9015 20.9568 40.3153
50.8587 32.7824 29.5523
59.2454 104.56 54.6551
61.3363 101.08 44.9781
61.3491 29.0357 76.8327
103.956 107.845 52.7988
72.149 106.028 75.8176
92.088 76.8975 111.299
26.3938 46.007 60.3714
76.4163 45.0794 31.645
63.86 63.677 61.517
88.1378 80.3442 8.30999
75.4276 65.767 102.164
56.2965 70.974 63.1758
121.911 49.9873 107.031
58.0721 54.8215 94.0454
54.2656 28.7006 43.5624
55.4314 84.2699 93.6465
49.3849 76.9827 75.9603
21.0249 70.6574 53.533
67.9087 21.3803 29.3352
55.0271 42.6894 82.0986
71.5607 60.8729 83.9833
106.592 85.2057 91.1921
70.2855 82.4568 92.8287
52.7518 30.3732 87.4448
89.7808 48.0186 108.22
70.9009 16.5939 52.5884
115.946 50.0153 98.1365
51.835 61.6783 84.4103
54.6547 20.7511 74.5369
64.7748 35.4513 61.5298
33.8287 80.9611 43.3255
100.388 91.6091 110.778
52.2814 17.4567 49.1001
93.7923 114.894 60.9036
69.1674 74.9452 100.439
63.5198 21.8773 51.4085
61.0754 106.648 81.4506
81.872 80.2635 105.959
34.8906 68.6757 44.5
87.3817 81.3324 107.466
40.1245 22.7651 71.9498
77.4979 26.1538 87.5871
36.3067 96.6722 81.3709
47.0095 76.3674 48.3967
31.6859 90.8084 70.3297
61.1985 20.6349 64.1131
37.5992 23.2219 64.5678
103.12 102.045 101.321
77.9542 62.0638 44.4181
48.5792 65.4641 63.4734
59.0683 43.6158 61.3548
48.2125 42.4572 44.1328
88.1363 109.831 55.9666
66.7768 23.4947 78.887
48.2431 69.8011 73.5287
71.0574 54.9039 90.9564
82.501 46.5924 35.3486
36.4743 105.276 48.0238
58.7806 100.859 95.9692
68.9768 73.8347 72.8271
79.2538 25.0695 39.0136
49.6886 53.1478 58.3435
81.623 37.4492 36.0653
69.3645 43.4042 93.9601
87.7742 99.0452 91.9403
73.8667 54.7773 29.5844
69.1895 94.6163 81.2334
27.7149 80.81 60.0219
58.0399 98.8732 72.4422
60.2748 98.0425 80.2441
33.3236 91.3107 63.5394
57.559 86.3566 22.4789
98.067 71.6698 9.66592
79.8065 58.2708 106.082
44.5674 41.5461 41.3498
108.074 49.584 98.9634
99.3207 98.377 99.7203
54.5221 45.7911 89.9706
94.7557 85.1194 110.113
47.3157 69.2696 103.063
58.321 101.112 38.1246
100.923 53.9008 100.386
67.4428 80.7518 55.3921
89.275 95.1719 84.7291
38.4598 102.687 59.8534
90.5033 102.598 105.369
66.6405 76.6448 87.3641
75.6436 27.6938 53.5363
75.4509 102.792 35.2406
47.5068 59.6957 73.3329
80.9822 38.5074 27.1023
71.2236 74.9322 30.9364
106.279 75.6651 103.963
67.9411 31.8278 23.4295
65.1163 94.393 42.4006
94.2674 31.0776 96.6438
95.3723 101.812 92.536
62.4562 79.8359 98.4073
62.3547 75.5011 73.6207
40.391 80.5757 40.5008
40.7565 35.5698 84.4687
75.0775 116.565 71.6228
75.7018 54.4077 99.0585
32.6551 73.6486 51.8042
82.1552 55.0453 34.3863
55.6888 87.9312 79.8007
33.3864 92.3424 56.7332
42.2054 77.3487 77.6292
67.4038 51.9656 43.7213
51.4456 94.1615 90.0903
64.0777 57.9894 88.8084
93.8328 49.5261 101.448
65.0574 82.6553 36.1649
84.2713 42.6554 109.471
38.2596 47.1192 90.2398
96.6553 68.514 101.341
80.7641 61.2 24.5403
25.4865 61.5214 58.5101
64.4891 68.9623 84.092
57.4508 61.595 67.7396
84.5748 87.2478 80.7779
73.5562 115.806 61.7345
83.4782 46.4185 100.187
87.5759 53.0044 101.067
92.1713 107.509 96.5756
94.4969 78.0098 9.2662
82.0125 81.4955 48.4248
65.7035 55.2633 100.514
61.8715 95.2772 27.1233
63.079 75.3891 21.721
74.5731 32.3702 31.8161
57.7423 38.249 86.767
91.5197 75.0383 88.2376
111.038 76.1655 102.122
78.6867 76.4104 93.4187
94.6136 26.4572 90.8855
88.0016 67.9796 106.704
53.0504 43.9389 74.942
93.1062 113.299 72.6833
89.1497 111.739 65.6245
97.7821 107.383 57.2017
63.7844 87.2231 86.5583
40.081 71.5985 92.3843
65.7594 21.9933 58.556
60.2978 77.184 26.0877
80.5621 33.5279 72.7477
81.9991 108.071 83.936
65.9217 62.4 76.2726
77.3459 105.344 86.0985
83.0903 71.0508 98.9291
48.115 66.0517 69.7864
71.5063 83.5227 83.8479
61.1576 20.0108 40.8505
53.4434 86.4425 27.5109
91.822 69.8798 9.08813
95.2065 50.8333 94.2301
62.7814 90.8641 69.0725
69.9713 34.2099 35.8963
96.0697 86.6164 13.7635
79.9237 69.5297 21.2243
48.9348 89.2804 87.9674
37.7179 77.9197 45.1557
40.8021 80.5423 98.8613
75.217 97.0014 82.4354
31.2814 27.6413 62.2421
98.3996 91.9232 96.1386
57.2046 86.8304 38.5826
46.7759 82.7265 31.0827
73.3243 35.6278 59.681
45.4535 44.8907 72.2403
77.872 85.7673 14.3933
98.6977 36.9633 89.3378
62.6443 84.2601 23.5575
58.3289 35.8364 76.1649
62.7384 66.6695 30.6058
50.5435 57.8916 79.4759
52.6113 75.4262 95.2008
84.5636 93.9035 19.0276
65.3709 80.9212 66.2829
40.5092 105.728 45.4255
83.4695 87.3268 27.6627
63.0154 89.1884 32.0226
54.2358 94.7139 66.7097
71.0564 54.0512 52.4698
89.1084 105.566 65.8504
80.8947 30.4541 64.0141
90.8239 24.2868 66.1062
66.0264 97.6927 77.0187
50.0402 93.9484 64.6594
89.3436 18.1194 79.4063
116.021 55.5274 108.235
78.0771 90.2672 78.872
44.6938 87.8205 92.7346
95.7985 94.0274 21.9866
30.801 51.3424 92.8386
115.481 72.7652 99.7772
88.8973 27.9213 76.7264
67.6195 84.6654 71.378
58.2286 54.0456 86.7695
72.4838 31.6943 47.952
99.8447 95.1538 85.5655
86.561 101.311 72.7935
60.1139 77.4463 89.9772
109.892 92.6025 89.4118
79.9463 27.2571 79.6775
53.3639 50.8705 77.222
83.5792 60.4057 80.0769
38.1723 82.4348 74.1424
82.0224 89.5467 14.2139
75.1688 70.505 36.4251
74.2072 61.9768 93.2113
60.7497 83.6134 58.2746
78.0733 36.1327 90.5297
74.5973 58.5336 36.1896
78.7667 29.4918 33.353
71.0714 53.4404 102.287
59.4132 92.242 33.806
40.9657 70.6087 97.8195
119.543 65.7702 105.41
79.1696 69.913 90.8256
58.0329 53.4214 79.4066
76.9424 63.3036 78.936
66.1318 108.152 49.4658
70.3485 36.9523 77.4106
67.1306 52.6134 62.9603
110.684 87.4732 98.5085
61.9442 83.8328 30.1937
76.7873 49.2942 56.0249
107.207 58.0196 96.744
101.412 72.158 95.8268
78.9852 39.3074 46.8031
52.771 99.7215 59.5485
80.4486 89.1952 87.5714
108.162 57.5726 107.948
89.8744 85.1302 91.5504
76.6387 84.738 85.1982
75.7744 84.5192 45.3739
