ply
format ascii 1.0
comment Created by Open3D
element vertex 281
property double x
property double y
property double z
end_header
31.0875 44.1432 112.632
45.6435 76.3219 144.706
24.9935 72.2126 116.252
34.6981 76.4869 141.902
33.498 84.525 102.523
43.6781 66.0198 128.849
55.2747 48.1079 139.955
27.2599 80.3659 115.047
34.1887 70.2649 148.831
34.5192 76.0697 79.5904
20.8583 82.6352 122.046
43.9896 39.6819 111.088
35.0015 39.9736 125.368
47.298 34.8858 41.3226
44.4556 89.9661 104.005
32.8925 75.7784 114.485
37.967 59.8149 153.51
43.5095 32.0897 45.6807
32.4865 91.0552 122.465
29.9677 98.7234 101.781
80.0988 111.426 102.447
39.386 73.0057 115.285
60.2905 90.8566 99.9124
58.2226 94.9796 92.7995
30.4586 85.5766 135.497
33.0841 46.9251 88.3722
48.7432 92.1141 94.3588
37.2942 48.7715 98.4143
52.9022 91.8991 79.2086
65.9923 25.612 58.8898
26.3906 58.6631 137.448
37.0813 102.559 105.302
79.8314 38.1971 145.335
28.3583 59.398 112.845
52.9078 27.433 47.4379
93.816 26.3588 123.377
89.7409 27.9274 150.844
59.7732 90.825 85.7211
48.7221 40.4904 99.0542
40.6541 76.8821 124.598
73.0766 107.297 112.491
34.7635 63.0632 79.503
34.5254 80.5795 121.426
40.4689 46.9333 53.0188
43.7493 98.009 106.457
30.791 79.1184 106.737
37.3143 86.1892 116.37
54.7245 34.4587 37.6692
24.4826 60.5875 130.796
49.5628 47.3259 35.2083
28.8676 68.1646 144.521
68.5528 107.818 102.472
36.2124 48.7361 132.408
51.1157 24.8253 54.5884
45.3758 60.0209 119.379
24.4195 73.2127 87.4678
50.0635 40.7622 119.715
51.9516 60.2526 111.033
34.3839 68.9234 87.8234
35.0254 72.9213 94.3688
27.2787 43.9415 52.9441
26.758 98.1783 110.084
64.9866 46.2576 41.1651
63.483 35.6398 100.373
37.53 50.0112 63.8688
23.3302 92.0048 112.118
33.6176 56.1826 53.2186
35.6243 40.5758 117.462
40.7742 37.381 66.0723
42.9804 70.5941 97.7005
40.7915 66.4526 78.0906
43.2683 42.208 120.133
37.323 36.589 56.3901
41.982 58.8163 65.0973
45.3123 60.1766 75.0507
45.2686 43.7952 59.5973
68.1558 43.1571 102.492
43.7985 78.2789 75.2338
30.7798 51.8091 58.7572
47.1535 32.8028 57.19
37.1211 43.5174 70.4887
57.609 47.5582 37.9907
47.0335 64.153 68.1355
44.382 55.8184 54.4046
73.4349 112.092 104.493
82.1549 109.427 113.98
39.4299 51.1925 123.228
61.4179 45.4638 32.591
45.9418 72.6528 132.783
61.0371 84.852 79.7834
53.7449 70.0272 69.9386
31.8624 75.1474 130.596
84.0944 36.962 71.1012
39.6786 65.5044 148.691
47.3165 46.4421 143.05
59.7008 37.0853 56.8095
31.9783 51.4378 121.932
41.6345 91.2115 92.4169
68.3647 51.7267 66.872
48.1695 53.0835 147.815
40.4925 40.627 104.424
63.8116 75.1033 71.7665
53.9374 59.1347 142.821
49.1093 36.9261 131.042
29.5526 89.9481 113.467
35.9087 42.4007 60.4369
37.294 57.2955 92.1446
31.2605 66.8724 115.723
44.4686 44.7378 136.501
36.8987 49.5473 116.995
36.2019 56.5311 141.176
25.4602 89.1455 121.22
28.7056 59.9621 101.912
47.864 76.6673 115.582
38.3063 61.7003 113.479
45.2348 57.4218 90.1415
44.8658 54.0247 79.0732
58.8503 45.5679 110.669
68.3189 82.8469 83.3163
37.7512 91.876 103.269
33.3874 63.1074 123.92
28.9979 55.9326 124.871
70.4977 97.4901 118.159
59.9008 43.5021 102.55
44.5695 61.899 83.9566
36.5729 60.1805 58.9534
36.5438 74.6779 103.059
32.2651 56.9013 86.5151
46.4146 67.0303 92.4367
33.9526 97.0462 112.331
49.385 39.7994 35.1706
54.4873 79.9178 80.3672
28.8417 69.6479 92.0074
45.9779 52.6999 60.3756
30.0657 52.3182 114.409
65.1057 67.2885 70.5166
38.3871 64.6577 138.085
55.7228 37.657 90.9491
23.8223 80.195 131.939
47.4043 42.1442 49.1074
35.5558 50.2881 46.0964
28.2182 76.7446 122.457
58.1578 34.9242 49.5803
24.6466 64.9923 120.95
44.6465 69.9058 122.872
38.2303 78.7458 90.5976
73.3687 28.1064 55.1934
44.9841 47.338 66.483
62.7775 40.5204 65.8593
50.1872 60.435 99.8847
62.3161 43.0844 138.59
55.7937 44.9967 120.348
49.8542 53.7884 96.172
65.9263 51.2653 47.7198
54.9924 53.3666 115.775
51.583 78.2328 86.7043
38.4569 77.437 135.106
38.7991 93.9338 111.225
54.5378 82.1338 103.573
43.5529 84.6377 94.0956
48.7114 67.3973 111.883
53.0425 69.1391 93.627
54.4964 44.7247 42.4118
61.9892 66.5799 82.1965
41.0431 53.6556 146.818
55.4722 87.3471 90.8944
29.6518 61.6338 148.242
32.3646 72.0144 124.942
47.239 48.5146 49.0304
53.8379 34.0102 100.628
61.4045 38.0342 43.9079
32.9686 40.3725 65.0703
84.9271 32.5697 124.503
57.8294 22.1352 43.2314
69.0901 56.1895 50.7132
54.8398 68.4047 141.191
40.9128 67.1642 87.8176
50.8632 67.5488 121.746
50.4611 47.1135 105.942
27.9996 71.3554 107.589
51.3229 71.3591 75.8481
35.4301 80.354 96.6997
72.1225 36.6268 47.5699
64.394 53.5544 37.3994
44.7026 69.6311 115.342
42.4348 84.5162 85.6827
59.6044 51.4073 48.7597
40.4912 51.1046 138.645
66.7781 41.636 109.671
27.4587 69.1838 128.165
72.8554 28.5282 62.9372
45.2595 45.3238 71.7396
57.853 42.6004 51.153
48.8703 53.0984 73.1382
60.7702 49.1537 89.8278
32.0816 68.0867 139.003
55.7398 42.1037 33.5658
59.9679 46.8712 60.7581
58.6561 73.4391 74.4786
53.0647 35.9732 48.1345
50.3473 66.574 103.699
44.4904 53.4786 108.505
57.4752 66.9997 123.548
39.3092 57.4625 129.697
54.8798 62.7077 74.0056
51.547 62.7084 86.9144
33.6212 89.2365 109.175
42.8444 42.0757 128.59
45.4726 57.1055 127.882
35.0137 57.1802 133.215
67.036 100.137 105.091
61.0612 40.1542 127.084
54.62 48.7303 95.6374
40.2624 50.7829 90.3181
34.4886 84.5179 127.626
27.0806 73.1823 134.755
69.2288 77.9614 77.0148
52.4043 48.9783 130.181
79.6862 93.3927 124.871
54.7589 86.0309 80.5775
57.5456 61.5612 117.553
55.231 68.0282 82.3101
76.422 86.8723 87.7849
63.1406 77.2185 80.0592
53.8127 90.8397 99.6195
77.139 100.487 117.382
68.8483 24.0391 50.1817
64.8684 35.4499 60.3771
58.4259 81.4974 111.176
55.7662 42.0554 133.514
63.3345 45.2214 118.167
34.1522 65.7227 130.599
88.5924 41.4954 145.672
49.7781 73.6656 102.075
63.1528 52.8451 112.623
44.1118 59.7702 145.4
60.357 43.9316 95.419
62.3308 49.2293 144.528
63.4564 30.1696 42.3009
75.2755 67.0514 66.5875
68.2665 35.7575 65.2678
46.669 49.6171 132.521
52.4792 56.6637 69.9538
49.3909 84.8396 89.3692
34.2214 35.318 63.0481
69.3603 50.257 60.3444
86.5557 36.5693 148.417
50.8686 77.2166 121.49
60.3863 70.5636 101.453
73.6185 40.3912 98.0289
49.9882 69.4098 86.3142
34.5763 91.0624 130.286
67.4615 38.6673 130.278
60.4614 58.0096 76.2644
52.6091 48.6131 82.5462
60.2049 78.0366 94.3868
51.2432 46.7146 89.649
45.5489 60.6833 137.782
88.4649 32.9665 128.705
57.8443 74.1385 107.494
51.7502 56.6015 127.312
79.391 35.0855 64.3032
47.8306 54.3371 85.3962
56.9771 72.9567 128.445
45.7314 83.0728 110.156
63.0981 88.8046 115.271
57.7553 57.447 89.8207
60.1681 81.9118 127.609
52.5706 81.0724 95.4075
72.8086 68.1508 72.0037
61.4672 85.6273 95.5783
51.5811 36.7728 54.956
64.6659 90.7579 107.655
60.3754 62.7944 107.949
60.4545 53.5634 132.996
67.2366 58.8872 77.4562
52.8972 47.4472 52.7577
56.2529 56.6665 123.573
64.6467 42.1202 84.4522
58.8925 72.4252 116.776
80.0595 81.8319 77.7847
