ply
format ascii 1.0
comment Created by Open3D
element vertex 417
property double x
property double y
property double z
end_header
48.9918 163.203 58.3645
44.0719 161.226 51.4913
28.7478 49.332 82.1939
52.3395 57.8413 47.5673
54.3284 178.145 49.3282
38.1776 41.6431 67.4214
47.4763 31.7257 70.6975
63.0117 168.914 40.2516
58.6716 180.099 38.1851
41.5915 30.2939 64.8668
65.131 170.125 62.0977
41.7219 59.4438 74.5105
34.508 62.257 80.1597
27.604 40.8859 82.0822
41.9472 22.9507 79.6963
26.8125 58.349 79.5246
32.1967 32.3777 75.4857
33.2541 59.2431 64.5495
45.4608 55.8967 81.4926
55.0805 193.233 61.8331
25.1704 96.6584 84.2719
35.9559 67.2619 68.2037
48.8943 55.4505 72.1069
46.6107 53.5596 50.5866
35.7443 53.5331 91.0672
63.0296 194.538 65.6855
32.4665 60.1559 72.7751
31.6228 119.553 42.2981
48.3064 181.215 64.8464
55.3572 169.036 42.6288
31.4218 51.5111 67.8532
33.106 91.0157 77.0306
35.7068 131.867 43.1351
22.5099 124.986 63.8658
34.3361 42.9428 88.9625
53.5969 56.023 62.5881
48.6452 59.7428 56.8472
48.0662 36.5323 55.9363
50.8676 177.651 70.4163
40.1642 33.4007 74.3424
28.7921 83.3135 85.6025
45.4898 176.152 60.5094
23.3784 123.781 54.527
32.3935 100.741 89.232
62.4525 164.306 46.8278
32.5276 35.1899 87.3986
23.9511 88.6541 66.425
27.3374 116.307 82.295
42.1583 38.4765 58.9461
45.3652 119.05 50.663
59.1074 192.3 52.8753
39.9759 152.665 59.2393
29.3146 126.935 79.0735
31.1482 89.441 89.4372
34.8209 31.8515 68.6179
43.4063 125.986 42.8619
49.2578 79.0243 93.8098
37.6757 114.432 52.3678
55.6299 164.852 60.4383
47.1799 65.6536 50.3505
64.0747 174.823 46.1533
53.3043 187.328 55.6989
30.6369 112.774 45.4675
41.0723 63.4468 57.8377
55.3661 185.116 45.036
67.4553 177.16 66.1984
49.1343 63.323 73.7631
47.0442 183.175 58.9154
27.665 109.515 62.7497
63.0093 173.574 52.7199
70.2805 179.125 75.8019
61.3419 164.991 67.633
26.2019 82.4297 67.1719
36.257 47.2767 82.8939
55.3389 160.131 49.8787
28.6891 108.96 84.6006
36.6822 39.016 78.6151
56.9383 184.379 73.8635
32.0921 40.7757 73.0197
39.9857 136.599 70.3618
28.814 104.838 55.0476
34.0394 79.2653 73.976
48.1861 140.129 76.3028
40.4802 79.5762 93.8973
23.0182 111.142 57.5991
25.2561 131.648 57.3349
29.273 133.759 62.893
55.087 44.8052 58.4794
48.2034 44.587 57.3655
41.5689 141.585 74.5274
43.8148 37.8648 67.6424
36.7959 123.44 41.8362
48.6954 124.343 88.4398
72.7371 194.274 59.086
36.2634 92.9495 93.8869
41.5147 100.539 55.1833
50.1467 168.262 49.0402
27.4288 98.3798 55.2612
39.0949 129.745 64.8679
53.3606 150.589 42.3125
43.2913 41.2774 89.6019
46.9969 101.498 93.0652
58.5664 151.902 47.8201
55.9763 172.652 69.3711
49.5046 130.974 64.9163
65.2074 194.547 51.4707
55.1897 150.953 67.6899
42.9208 110.409 93.0776
34.4605 120.479 54.5032
42.3711 131.369 80.8055
58.9944 183.079 58.1441
44.0751 75.3787 91.6192
60.8543 199.07 58.1421
40.1602 101.35 95.6345
39.6375 105.228 75.9035
39.2765 122.359 89.1512
34.1607 52.1448 77.531
38.53 75.0173 65.7513
42.0125 52.2339 62.8077
37.0543 110.274 92.7354
49.3018 145.943 45.8284
37.245 29.9872 87.3677
29.1162 89.0372 57.6031
34.261 78.4973 86.2885
42.4189 136.788 58.7829
40.1513 145.595 57.9121
67.0655 186.689 46.3663
22.4358 119.439 61.7322
41.4925 96.6207 49.2568
29.6494 84.5427 77.2985
24.0383 125.204 48.7838
39.1259 59.0305 84.7902
38.0527 105.557 88.536
56.3419 194.733 68.8042
36.1108 80.8889 69.1256
51.3382 24.7081 67.9368
62.1537 164.557 54.7011
39.335 76.2564 73.6929
38.3624 74.1772 87.4133
43.3614 47.9853 81.2498
32.8538 137.773 68.8244
67.6092 151.323 47.2674
53.1686 186.753 68.4949
32.6466 139.534 59.0347
26.7153 91.89 83.0838
44.3384 81.1708 79.2916
25.5626 117.79 73.7276
34.3529 114.036 90.2566
62.9812 188.586 60.6972
35.2159 103.452 63.2981
34.4675 95.0035 83.7632
22.2769 90.102 76.6906
67.2058 140.758 33.0183
28.9839 124.892 62.2283
53.1145 147.119 73.4536
41.354 77.4419 58.3825
59.8045 171.631 75.2305
45.1105 89.2616 71.5882
31.4869 79.9105 80.009
25.0095 113.688 68.7786
51.3461 108.123 91.9335
28.3925 117.188 54.2377
69.7255 107.009 33.4396
54.2518 144.408 41.8738
47.5507 78.1083 51.4668
61.8503 188.228 47.7039
59.6764 186.123 68.1494
70.477 154.583 78.0611
62.2785 179.19 72.1619
60.7499 132.43 87.7947
66.9648 197.694 59.7538
61.4262 141.515 57.5789
34.8944 149.785 61.7525
62.0417 87.6353 42.1334
44.6078 28.5872 77.698
37.313 87.0916 89.4526
44.7241 72.8612 71.9651
46.9927 174.849 43.9606
62.3701 191.323 77.2203
43.6633 57.6992 89.8738
37.1499 149.069 71.9783
40.3326 140.466 52.15
51.0576 110.99 37.4197
29.562 139.465 64.1655
44.2589 130.39 66.3761
39.3682 151.929 66.4959
45.2098 83.8607 96.7394
44.1846 106.223 55.4757
38.7336 94.0855 67.4553
21.3284 109.628 66.3717
37.7384 132.517 52.6678
44.2825 69.4569 66.8901
36.5568 140.328 54.9827
43.9398 151.244 71.0824
60.7404 59.1415 72.282
56.2794 130.488 66.0744
60.8491 141.518 36.042
51.1956 172.418 63.2806
45.3164 82.9122 53.9924
25.5305 108.902 77.3004
47.9575 115.228 86.1945
66.5796 144.073 87.0786
33.9655 126.135 83.9409
44.0911 119.562 93.8008
43.6484 73.4307 84.2003
33.3315 107.675 87.6898
32.9194 111.942 56.1405
30.5686 131.867 57.5193
63.6787 186.435 77.1702
62.3539 145.978 84.8226
50.5351 138.242 42.9844
26.7838 122.879 75.1258
55.6785 179.305 65.8931
33.258 100.39 56.4595
35.8184 132.383 81.2853
38.629 87.0678 75.5714
43.5857 49.8335 88.0077
73.1863 98.3122 38.5009
57.0045 68.9825 56.2365
54.4469 151.762 53.8311
59.9188 150.943 41.5207
44.3955 123.789 87.4251
53.6661 47.9388 70.1445
58.5856 148.021 73.9752
22.8206 105.59 73.9317
38.6341 81.3438 80.4817
43.9401 142.212 47.1754
51.9012 135.168 47.819
78.5466 176.841 64.3545
43.7403 117.319 71.1005
71.2756 151.94 83.1359
65.5335 115.233 32.8416
55.8538 129.36 90.1229
56.5755 107.843 36.2708
35.9042 129.474 76.9284
53.8896 59.3839 81.0235
48.7253 135.56 59.344
59.3361 135.059 58.6773
46.0614 89.6051 50.6098
50.8568 140.468 53.9641
43.8979 146.572 75.5765
53.9064 182.184 59.4007
39.0991 98.0516 86.0703
78.1697 177.412 75.8576
25.4947 103.37 80.1741
34.2217 118.992 88.0159
53.9242 51.1568 76.0819
54.7149 83.4687 52.2574
71.1111 115.511 31.2328
48.72 90.3428 96.3508
33.7164 144.822 61.6104
54.2607 90.5003 43.0041
49.5635 134.277 75.825
71.0288 82.4884 41.9379
42.535 82.7507 71.8281
53.8712 84.8783 47.0868
62.6116 97.1753 38.1156
31.6906 93.3473 59.2288
47.5708 94.3148 92.6455
44.736 153.384 63.0135
28.1196 131.36 47.7771
55.5653 80.6746 93.5856
40.8026 87.3496 52.9027
36.5905 117.503 46.3861
59.9469 93.1369 41.5383
84.535 175.645 77.5685
36.2185 87.4662 64.8722
59.1865 146.36 37.6819
45.0627 108.099 66.1556
82.2114 196.648 59.074
47.6004 113.177 40.965
70.5039 192.279 46.56
31.2564 128.706 54.2014
56.3948 139.042 41.5575
62.7482 110.234 33.4259
39.5877 116.735 93.5955
70.0677 146.997 84.0003
32.6547 129.669 64.0259
53.6086 69.9205 68.7902
50.2971 133.336 55.0133
46.9072 95.0087 47.908
77.6422 129.738 34.3598
70.4813 121.872 30.8564
63.1193 152.051 81.6929
69.0265 176.317 57.7796
48.296 73.2282 87.0527
69.0635 105.79 39.8273
64.5679 149.49 36.6725
47.1185 104.536 86.4713
34.1293 99.56 51.2689
50.5599 76.7677 88.9248
67.6187 133.532 33.3187
67.0745 189.228 70.4616
43.0864 103.219 66.4641
65.4885 172.853 70.7273
69.8734 184.488 69.9383
58.6809 73.2279 79.9315
44.4431 73.1319 77.053
64.5395 84.6927 49.7678
69.9901 164.421 58.0255
42.7693 103.255 90.3325
42.878 112.489 51.1277
71.5452 195.72 51.0933
49.8047 83.6997 80.1025
50.2492 55.2143 88.8962
77.2188 141.798 86.0464
78.3022 182.917 67.7124
50.3828 70.2249 63.9266
59.4097 106.054 92.8433
63.7764 127.993 88.9115
44.5165 93.5623 76.2877
49.0113 117.173 94.5212
27.4989 117.936 60.0426
42.6543 89.3731 97.7719
50.2788 70.0918 75.3638
40.6676 42.0891 83.8156
63.7538 128.849 34.779
29.7647 121.984 84.1243
51.3518 39.313 68.1831
59.5138 122.885 90.7881
47.763 129.19 82.3886
53.9164 73.9775 80.1301
51.8405 132.964 83.3205
48.1792 147.183 51.8064
63.1578 104.076 35.2519
71.0251 140.232 85.946
77.0126 192.848 51.2551
44.5733 109.127 41.9922
59.2026 145.694 67.446
53.5313 128.235 74.0467
32.3732 145.359 68.6933
60.3246 135.293 38.1658
50.9317 99.015 41.6778
65.7033 120.841 33.328
70.7157 193.92 66.7667
38.3293 74.1782 78.4875
44.8929 127.651 52.4079
32.4147 115.185 75.9702
44.2375 73.0575 61.3246
54.2614 123.46 92.111
50.507 105.953 37.8454
55.7623 110.022 94.8463
56.9216 73.9014 58.083
48.8825 41.2369 87.0703
33.7306 128.225 68.9996
26.9086 86.4626 71.8353
38.3704 81.3394 64.521
58.0384 101.527 35.1325
49.1832 153.122 56.2587
49.8242 103.521 68.0359
53.4315 137.406 78.5095
49.2933 97.8279 85.045
40.722 133.834 74.8384
75.855 147.79 86.1072
27.4595 122.328 69.5514
53.56 149.477 48.689
59.6026 132.227 43.5858
48.6107 153.464 65.0166
47.0365 103.939 41.6583
50.378 72.0263 56.2428
28.1075 120.807 79.5014
38.0383 126.252 56.3214
58.524 140.888 83.0305
38.4998 124.038 49.4058
49.3902 151.217 71.1731
49.0516 71.0668 81.2347
45.7111 100.145 45.2751
67.6105 100.024 35.2765
65.2219 92.2699 41.4396
60.3516 151.729 57.2858
40.9441 97.3603 60.0754
38.0623 83.74 59.3347
65.9829 143.357 37.2368
45.8374 79.2316 65.6881
48.873 39.6212 74.6227
36.0192 88.2665 56.6228
76.1165 125.543 30.9038
37.9506 93.307 54.1806
43.8965 135.085 48.9107
70.1665 85.7706 50.2454
54.1627 98.1314 70.0449
44.9118 139.345 63.517
61.8904 78.4237 52.6546
38.4792 109.117 59.4505
75.5254 119.985 30.3168
72.7768 140.186 33.0165
52.464 75.0574 52.7021
47.1216 101.652 75.9299
60.0502 125.901 73.915
43.495 112.1 46.315
58.3062 89.2993 74.2034
50.663 91.1363 48.5376
50.4007 93.3253 44.2688
62.2182 74.117 59.8039
75.608 131.661 87.1412
51.0029 85.9264 91.7012
30.8139 88.6692 66.8018
44.2023 34.7896 85.39
36.9798 141.83 71.5246
56.214 102.175 39.0108
75.394 151.671 75.0304
57.965 97.0934 91.8882
54.3255 106.55 81.9074
58.8317 136.567 80.8508
71.8542 177.183 42.3794
39.1355 109.922 68.7109
60.805 50.2753 62.5007
53.4148 126.615 83.5451
71.9201 170.872 60.6448
59.9629 119.923 45.188
32.509 108.694 61.2095
36.5153 97.7665 77.8614
55.5239 82.4904 85.6267
78.7798 179.089 52.3328
51.4755 76.07 74.5298
27.1526 119.31 65.0176
46.9322 97.3545 71.0781
