ply
format ascii 1.0
comment Created by Open3D
element vertex 203
property double x
property double y
property double z
end_header
23.1631 92.2623 92.9078
30.0938 91.7627 102.789
9.39875 81.5972 114.561
50.9302 67.4211 53.6665
26.8637 25.0737 98.5528
55.3715 70.285 58.8036
27.3527 86.1914 86.7837
33.3841 36.4636 116.532
15.735 90.4045 102.29
26.5886 39.9605 121.414
27.3084 55.6902 102.299
11.9637 85.186 108.252
60.917 40.6299 42.1355
20.4957 69.0654 99.9403
23.3428 100.199 96.6143
26.3836 75.7376 92.9065
44.8628 23.2513 63.7898
59.5758 22.7221 54.4278
25.3858 32.7443 106.118
43.8125 81.81 68.916
19.8002 84.6399 113.964
54.81 54.0339 49.0641
38.6648 87.5335 71.6422
61.6472 53.1527 48.1268
10.3166 79.2369 121.157
28.4358 94.9246 84.236
63.9793 30.3215 51.0344
39.6504 16.6344 79.8342
50.861 13.8755 66.7498
54.4839 46.8374 46.721
51.4794 15.142 59.1464
29.5201 23.5404 88.8327
53.0765 23.6191 54.0106
40.4985 89.1388 81.286
29.0754 75.601 82.4558
23.433 37.5727 115.42
23.3048 91.2189 108.414
11.2744 61.2623 130.168
12.8042 71.0194 125.535
49.2335 42.9779 51.7642
24.8846 19.4387 111.665
56.7069 41.5384 68.2336
20.3876 67.4291 107.888
16.9105 78.6977 122.361
43.6573 15.0906 72.5256
49.6696 50.4818 58.5155
20.5231 47.3065 111.813
32.8726 57.0983 107.923
50.2626 60.6418 93.2041
45.2116 59.3627 58.4752
41.4351 62.8409 89.8259
41.5488 43.5596 91.4529
33.9061 68.4657 75.4626
48.4248 37.3091 90.3914
36.214 31.7397 106.188
61.2775 37.4421 59.9357
51.2975 48.8813 80.7707
65.0627 35.9285 46.7782
35.2128 22.9118 104.101
51.1996 46.802 70.4378
33.3673 50.1229 90.2805
34.7265 87.474 79.0364
43.307 54.0735 68.2991
30.7954 62.3489 80.6207
50.4992 83.1052 70.5757
55.2713 33.8827 55.7626
7.35913 71.4972 122.623
56.7444 55.5121 56.1118
47.176 55.3189 51.2528
28.5958 44.8548 100.542
15.3468 63.5394 111.304
38.9631 37.7158 111.236
38.7234 75.3695 73.6459
44.9407 45.9667 85.5166
44.5746 75.2865 64.5068
41.6599 54.4556 96.9988
16.6455 76.735 105.53
18.6406 60.7609 119.892
36.578 21.9866 96.3041
38.4798 52.5725 76.6491
27.6294 83.3473 100.588
35.6057 58.6201 75.24
64.26 43.1728 50.4988
59.0645 28.4822 60.1499
43.8155 66.5247 73.4944
43.3413 48.4987 63.6719
61.9382 50.527 55.6487
41.329 46.9333 110.49
19.3351 96.0101 104.313
28.9793 62.8153 93.8366
18.3177 41.8867 122.773
37.256 23.0717 74.7921
13.9468 90.6896 111.66
26.4496 19.2979 104.792
51.6755 75.5977 64.505
21.2358 77.085 116.108
37.0721 75.3119 92.5448
50.8302 23.0859 70.7333
35.9227 59.7644 98.0022
32.2333 12.3146 105.044
21.5224 74.328 110.194
40.8086 76.0555 85.229
56.0803 31.6098 48.6788
32.4021 58.3322 86.5225
47.4018 54.268 90.488
39.3017 61.3441 106.522
45.296 77.529 78.976
56.8453 49.8578 59.8299
17.0716 67.9052 117.458
20.9665 82.7925 96.9728
36.2972 45.9673 75.8719
15.6896 90.3513 118.531
44.7045 72.618 94.5441
38.4491 68.4891 101.211
40.5 21.6207 83.8477
34.7422 80.3283 102.165
49.0238 57.5536 68.7192
54.1088 62.37 51.9464
52.331 41.0065 83.0919
50.9323 68.3261 82.4772
44.0325 68.6691 81.485
27.1202 72.7776 106.057
38.7787 13.8132 91.8054
54.0481 38.2022 46.9491
42.1326 28.7727 84.0101
27.2982 45.3381 107.16
32.676 45.9663 106.84
18.702 58.1386 110.397
36.6083 14.5799 100.361
47.5718 60.8367 80.4934
14.2629 54.8489 122.243
31.7736 20.1806 109.446
35.161 54.1503 82.0043
50.372 33.3004 76.4728
61.3235 60.5831 55.2904
26.4696 59.63 122.201
51.7755 56.227 73.6369
36.4376 89.745 93.7157
29.4496 26.8748 108.723
38.7972 66.0489 75.0622
53.8604 22.4972 61.1165
23.2342 59.0898 113.542
35.6163 31.5468 89.5756
55.996 61.7195 72.0004
41.9583 64.4349 64.6282
28.7254 82.4015 108.771
54.2288 54.0119 65.7056
15.8481 74.2816 116.707
45.4016 26.8067 78.4744
28.4057 62.6419 103.427
31.941 37.2969 84.417
43.8072 14.2573 84.2223
36.486 43.4055 103.871
15.5336 47.8468 126.337
31.8726 71.904 100.028
37.4791 57.5965 114.342
39.8453 37.2172 71.771
41.1354 42.003 64.2281
43.0412 49.1782 102.453
40.16 28.8759 68.9724
46.5891 32.1924 66.5553
28.8902 32.8794 87.5022
26.7722 51.0582 120.244
30.9797 68.9268 86.1884
37.9961 38.1941 80.0275
36.2323 25.0582 80.8837
52.2468 72.5927 76.3547
30.7687 63.7734 86.5695
45.6214 40.4069 66.3672
41.0476 31.5247 100.914
54.1467 67.5305 67.202
30.2746 24.6859 114.257
35.8954 39.7712 87.8951
31.4579 41.1556 111.574
43.9994 28.8784 94.2375
32.1095 88.0869 90.1953
34.1569 49.974 96.6246
49.1297 72.2829 70.2614
39.3525 75.9019 100.826
46.218 67.6604 88.4785
49.1574 68.8488 62.0972
34.5274 46.0682 100.046
44.1165 38.3934 72.5099
25.8203 34.1642 94.6823
52.0433 33.4041 61.0763
49.8639 33.9485 68.9396
57.0856 51.3731 70.7897
49.7199 31.0269 84.2106
28.6225 37.386 99.7409
47.4004 43.4958 80.8042
58.0234 63.5295 61.9744
37.817 27.2445 89.9569
31.3596 56.3878 114.984
44.2994 60.3009 103.881
33.8593 76.6564 88.0121
48.3429 31.3222 56.8288
38.2555 29.4703 75.9402
41.4395 23.2377 90.4034
31.7039 35.6038 103.293
36.4911 37.9598 94.3274
29.1318 68.8854 114.614
43.4314 38.293 94.9604
30.744 41.7386 95.1939
