ply
format ascii 1.0
comment Created by Open3D
element vertex 154
property double x
property double y
property double z
end_header
45.5441 53.9084 45.9848
31.7665 76.8962 63.5636
44.0501 51.8105 36.1893
24.566 22.5792 47.8912
33.1499 64.7719 46.4007
25.5548 35.5011 39.955
25.3987 42.2706 32.6481
46.1807 44.0615 61.4896
28.8157 34.7402 56.0187
24.1435 66.9492 44.6612
24.7057 65.5466 37.0233
26.234 28.176 54.6745
37.6943 38.3362 58.9943
27.8672 47.7124 38.6948
29.1748 56.0512 65.827
38.5657 60.0938 64.9497
46.3241 61.8227 64.7543
24.0088 46.4217 79.8068
26.3114 45.0399 26.2645
28.1423 20.9858 71.9462
47.1734 47.5577 52.1601
31.802 39.9069 59.7826
40.5779 83.1056 52.9861
31.1591 34.4017 74.9021
21.9717 37.8724 73.6874
23.0836 27.1177 60.8042
27.4432 16.4917 51.3721
35.4679 80.1517 55.7043
42.2643 30.2249 33.7993
25.1105 39.2207 65.8991
28.4547 58.0045 41.988
27.698 35.5541 48.8528
28.9422 41.8952 42.672
46.2731 69.2973 60.1287
26.2164 69.5499 53.3999
37.6708 82.7172 62.509
21.5316 32.5448 67.457
34.8643 36.5141 36.9672
32.5407 18.6397 68.3383
28.9963 60.4004 50.0138
46.9125 44.2755 43.3081
23.7496 20.55 58.5116
39.51 55.7342 82.4347
40.3237 75.1977 49.3582
32.9631 47.9043 58.8575
42.2324 51.3186 71.5367
30.8084 79.1732 37.2224
32.2753 68.1738 58.0774
25.3265 61.0969 27.5508
25.5738 50.8536 31.6712
34.546 53.7287 84.6998
41.9832 64.2717 84.9812
40.8464 59.4918 74.9099
24.8531 27.3717 41.6082
47.6759 62.6359 53.2652
40.8308 66.6355 69.0505
26.1612 34.282 73.4397
40.7146 51.6129 56.5421
33.543 64.7099 23.2867
37.7506 35.4364 23.5875
29.8355 55.2191 81.1249
36.447 63.5444 86.342
26.3271 19.7008 64.4424
46.425 52.8266 60.9374
35.0441 63.5931 79.8556
31.725 13.8462 55.5422
44.6732 72.5165 77.3517
45.4833 58.2363 56.2624
32.6266 30.1584 29.1598
30.8256 21.8438 44.3285
26.9415 34.2931 31.8137
35.7348 79.2391 70.1069
37.2856 81.1048 39.7101
32.8045 72.0059 30.7132
30.5702 48.467 46.5115
29.9362 32.9065 62.6128
34.6657 52.7592 51.665
45.8034 54.1734 75.3112
30.1476 76.003 52.7183
32.4251 49.338 75.3049
32.9955 58.6216 36.9505
36.0369 41.8043 67.3708
30.6148 25.9015 38.4689
35.2313 70.3116 70.8518
39.3712 22.4551 45.579
34.4709 26.5404 75.9364
41.4558 67.0079 76.7253
32.7288 47.2728 33.1871
40.4591 45.4364 23.4757
25.2287 50.7458 72.9655
30.1153 46.2103 81.7165
45.6919 62.7485 71.0505
38.076 43.8473 53.61
25.4408 57.6254 36.4162
32.6314 41.107 24.7798
30.4864 52.2192 24.9217
36.0523 25.3664 32.703
32.6488 62.2295 57.6196
34.8635 18.8772 40.7214
33.2396 39.9215 30.0424
38.8616 60.7328 55.5182
46.9745 51.8132 68.3121
45.6027 72.1021 50.2279
30.1449 45.3774 64.5975
29.0454 73.2931 46.1414
33.0656 48.0251 40.3911
36.2791 30.1029 54.0549
32.195 23.5289 52.6266
24.3579 33.5103 62.4467
25.9541 29.5929 46.8919
44.441 32.2088 43.7975
32.488 40.0686 50.6142
38.7279 79.6732 76.265
32.107 28.4245 66.9784
39.7619 72.1109 82.9542
35.1474 77.284 43.8807
32.3888 81.9901 48.1635
39.3053 30.0578 68.7592
36.3537 72.394 60.6184
39.5707 72.8934 37.0242
34.5153 58.65 49.2119
34.2744 42.0757 84.1491
26.4154 70.5949 40.6634
35.3129 71.3888 44.6959
30.8164 66.1065 35.5371
30.1081 33.0499 81.7971
27.5141 57.9313 31.2663
31.8161 53.6421 71.6354
25.7808 26.9874 69.1153
43.9869 67.3203 40.6059
42.8221 65.1789 47.2808
41.3101 41.1085 67.6762
33.5943 32.5457 46.9585
35.1014 65.4567 64.1262
32.1441 61.6432 31.7225
38.1474 40.4346 80.6106
44.5762 78.7958 60.9856
34.7616 47.7102 45.4112
34.1499 59.6418 74.5106
38.9429 60.9949 46.0839
29.3706 72.8404 37.4442
36.6352 25.5608 63.1267
42.3087 49.827 81.7423
29.4342 42.2449 69.0413
34.0209 55.077 59.8875
38.999 58.4233 36.6111
38.6344 48.548 33.7592
33.8278 59.098 68.1079
35.7921 41.0998 44.7737
34.2937 75.5762 50.2204
43.6061 76.7251 69.2159
43.359 38.9198 36.5616
38.2164 50.4848 76.7517
35.1453 58.707 31.7789
