ply
format ascii 1.0
comment Created by Open3D
element vertex 1556
property double x
property double y
property double z
end_header
49.8248 74.2082 36.1143
48.9799 43.5122 130.143
40.0309 125.633 48.755
48.7731 80.9336 129.648
23.9139 89.7607 56.6922
46.4349 94.0253 116.117
44.155 116.009 33.2299
39.8305 86.3711 97.4368
59.79 159.047 91.3051
59.2222 105.966 37.8905
33.7326 132.068 88.7652
40.86 124.579 131.206
34.4523 105.908 126.936
23.3889 70.6119 75.7952
40.9271 106.257 116.779
26.4479 99.6695 59.5812
36.6113 119.085 47.8497
28.011 59.3996 78.4983
43.1635 56.3166 96.1885
70.2314 87.8559 38.7896
24.7677 106.118 97.3935
39.0635 122.765 41.8585
54.14 58.6131 109.215
49.075 137.062 86.1319
67.0586 152.888 64.8981
46.2996 144.246 99.4089
40.6253 106.566 81.3834
52.0408 70.535 69.2945
39.9466 103.443 132.182
29.9494 71.7131 57.9018
48.4595 36.5791 110.012
30.1465 42.7809 88.0244
38.9322 122.454 123.342
69.2547 39.8601 111.787
44.9919 101.742 59.7136
22.5891 68.035 99.499
47.4554 77.0821 94.5092
54.3751 118.668 50.1626
42.1937 139.069 60.6868
42.4807 110.141 130.865
42.7826 99.8862 81.9887
36.898 136.004 68.8547
57.8971 101.269 116.338
33.0972 71.056 46.6139
64.3433 89.4665 41.5699
44.2094 125.589 82.5479
43.8057 39.0555 68.9986
30.0252 108.068 105.514
49.8622 44.5548 59.2744
41.4285 122.492 112.237
26.9207 94.6373 96.3214
79.6962 66.2315 95.3403
73.402 67.4086 92.7607
65.541 32.8022 89.6442
48.1192 99.9517 128.4
67.2089 116.28 98.1258
44.2601 137.314 110.879
46.2209 62.3068 119.156
34.92 125.658 97.9952
38.2499 115.658 53.7547
43.8807 37.7812 91.7722
60.3274 82.5371 62.673
39.1758 141.503 82.5555
40.8557 46.1615 104.317
39.7987 88.0797 40.4924
46.2869 48.9513 125.047
23.9447 50.2715 86.6356
58.5407 127.497 132.38
32.8545 44.4992 81.4062
44.075 43.0396 58.2454
37.9016 130.309 101.528
42.2797 81.6207 32.7867
56.084 28.6137 50.4699
51.4289 49.5221 106.729
40.4353 41.7952 51.6637
44.177 90.5592 57.7717
38.3736 135.116 112.536
50.6389 81.4798 31.1192
48.8912 121.598 137.904
64.6224 40.2672 132.153
22.2246 72.7373 94.7056
53.0013 21.3045 76.332
41.1412 139.78 99.4518
69.9119 102.322 147.255
40.8421 128.998 120.709
74.8082 70.3841 103.853
69.162 37.4112 48.2998
70.4145 137.181 55.2372
66.3348 58.867 30.4698
62.403 146.415 51.6463
20.5102 79.5966 77.6086
40.3113 92.7367 104.341
46.86 85.3969 79.4203
52.3656 140.062 55.5053
37.312 31.9463 80.7506
71.3041 91.5604 96.6006
47.1057 106.177 138.915
94.0868 69.1797 134.914
40.1331 117.738 133.157
33.5754 42.5925 72.6228
69.6681 86.2847 146.918
29.9971 118.105 69.8962
73.1202 98.1959 129.891
41.0021 126.893 66.3227
40.3466 66.5143 58.828
62.0787 103.815 52.2335
37.8381 122.357 90.0766
55.6054 148.301 69.3971
61.5711 28.8053 114.965
56.2597 87.8529 65.5372
43.7346 120.326 123.06
32.4732 36.6157 77.8248
25.3044 51.2808 95.3343
33.9165 69.4244 122.162
61.4975 34.2769 126.637
47.8733 26.561 74.1417
47.4071 96.2342 34.4197
31.8289 75.4802 97.4355
31.892 49.9108 105.292
55.3664 94.5072 60.1422
43.0758 142.672 67.7026
70.8425 100.456 80.6495
45.9658 117.284 70.4332
46.1176 76.3251 71.5147
62.9646 133.486 127.653
33.8692 88.7292 46.6702
37.7181 66.7677 135.25
44.8961 114.003 60.414
27.8717 81.2177 113.244
35.1466 41.4937 99.6273
54.6152 45.0788 129.775
31.774 109.192 44.8909
34.1346 52.4662 75.9143
82.4378 87.1739 130.526
47.3702 28.3495 107.978
25.7158 107.366 63.4395
39.1215 111.205 123.721
38.1173 100.222 37.6791
49.9083 43.5673 105.468
37.5961 111.129 103.041
63.3305 69.7195 50.4021
67.6437 63.3331 52.1983
54.9896 74.5711 81.3312
35.8137 69.1941 128.399
56.9658 124.357 58.2324
36.9917 60.2526 49.2935
22.7804 59.0959 89.6201
36.4719 81.1763 125.217
39.7018 101.166 71.3163
47.1372 148.539 81.6006
68.7022 157.777 70.5393
58.4478 153.473 85.5423
43.5585 145.044 84.8027
30.2669 88.4192 54.6869
37.3199 123.108 71.8044
38.8938 113.857 43.0635
43.0591 56.2638 88.7334
64.1867 107.256 126.054
51.6291 78.7402 100.037
48.0121 50.4976 134.18
48.1316 72.7305 77.3117
50.6492 136.382 71.2062
71.0432 73.5723 131.886
39.267 58.1945 60.7948
23.8688 100.998 89.9059
63.4992 67.1127 36.4494
73.4144 66.0735 148.866
25.7438 59.7785 63.0284
29.937 95.3125 107.46
56.483 52.8964 46.5256
28.2365 52.5437 65.8287
47.6232 21.8897 87.7334
60.3591 131.223 47.3931
86.1145 73.0732 137.011
41.6869 112.374 112.801
22.6086 77.1842 73.1944
55.0875 93.75 41.4012
37.9774 87.337 106.107
73.3341 93.1959 56.8268
44.0402 74.8666 34.8741
38.4646 75.1886 37.4012
55.0707 30.2262 93.2188
31.2199 98.8095 82.5461
55.4436 37.1322 47.7301
45.703 61.8545 61.1559
67.3072 33.1729 125.372
43.5704 88.5871 33.2001
33.2364 56.7444 80.2334
80.9041 116.961 78.6446
25.5941 83.0917 55.3308
38.2655 107.476 60.0099
42.7143 66.7961 135.425
32.2018 77.5636 45.4173
64.4502 28.8422 102.219
57.0948 124.531 43.1864
35.7409 108.26 39.3446
51.381 103.462 66.4394
36.9983 55.5336 123.531
44.4833 75.7713 52.3168
57.7517 35.4754 83.8277
56.5859 113.516 57.1857
51.1429 130.998 75.1265
84.6653 37.8393 98.2064
46.3693 117.171 41.5995
30.791 74.2618 118.94
31.1324 50.4218 85.6901
35.1447 106.875 116.578
25.8109 73.7318 62.7887
36.2877 102.21 99.1251
28.8711 103.587 79.0162
56.4728 26.2115 87.5116
52.2039 128.993 61.0385
22.9741 74.9707 105.681
53.0577 91.2749 83.2882
27.7093 54.8171 108.926
36.1463 42.2229 114.283
56.917 144.702 119.217
49.7723 58.3668 127.938
43.9517 135.014 117.22
66.8916 21.5939 86.2272
55.481 74.8897 31.7038
67.1658 120.101 90.4657
49.2063 31.6383 114.57
59.9534 61.326 33.6186
33.1201 94.8294 101.747
39.6337 100.026 107.986
62.2884 87.5263 89.7888
40.0253 52.1503 75.9749
56.5266 136.096 62.1396
35.6662 78.5911 56.0034
44.9549 37.2451 120.898
50.3883 106.116 124.111
55.3015 121.74 65.4355
43.7553 69.7697 142.277
33.9386 62.8912 104.085
38.989 54.9926 130.983
28.8416 103.942 111.366
49.2494 130.939 80.8643
35.9801 123.693 111.246
73.2529 113.763 66.776
46.1849 80.6786 86.9808
67.9675 104.465 85.4552
45.9758 83.0984 109.632
69.2069 49.9981 118.785
22.9313 96.9481 93.8705
54.2884 142.542 72.8585
81.1162 154.771 94.2329
36.4181 106.996 108.981
66.0902 98.9265 127.557
27.1602 71.615 120.275
61.7585 104.121 131.705
63.785 138.322 48.4752
43.0394 86.6001 104.384
61.0703 41.7981 68.4941
41.3607 74.781 91.1827
46.1763 148.56 74.5765
27.7456 93.1635 82.1894
35.7552 115.939 65.5144
82.7064 102.965 67.5148
82.9498 133.985 89.6354
47.0912 89.3387 100.488
44.0452 120.602 56.6483
40.5212 87.7777 82.4809
40.9088 135.2 94.1676
77.1484 93.4857 95.8545
44.0808 106.975 64.7223
39.4614 130.907 107.885
28.8296 91.201 47.6825
76.6351 76.4145 87.1305
56.3149 153.01 71.9214
46.2112 65.5654 99.154
55.9478 50.6415 86.4788
30.1995 55.9062 86.5292
31.3713 73.0906 110.975
44.2338 121.935 39.6337
63.4989 57.2451 140.694
32.7835 104.934 58.4758
68.337 63.9121 131.389
58.6657 88.6845 143.427
48.1143 70.2872 124.07
44.9195 69.9483 46.1783
37.9938 135.877 61.5339
30.559 122.857 90.5695
42.8283 88.2888 49.7668
38.5997 104.208 44.6696
78.4235 68.3413 132.885
24.0325 80.7305 103.581
45.5201 135.217 52.0398
37.1875 131.363 118.108
52.9838 133.069 117.756
71.6339 74.2218 109.605
22.0405 62.8818 74.158
21.6181 91.272 94.3659
27.3866 67.4019 93.6982
52.8757 69.1478 123.997
46.2591 58.0158 40.9493
33.735 58.335 112.712
34.3626 119.478 98.5809
23.7874 66.4237 65.8143
46.0846 89.6303 38.5708
56.8496 67.5731 58.2411
55.5247 114.161 36.7455
42.4081 139.512 76.0908
36.379 94.6438 41.3518
41.7349 109.49 53.2878
38.753 91.7403 53.0814
43.3111 137.815 83.7165
30.0199 85.3744 75.9796
53.1079 131.879 90.4329
65.9345 107.839 111.985
53.0587 154.214 89.1633
39.8551 50.4233 95.7629
48.5797 50.4578 95.8614
48.4223 73.115 141.854
43.9249 65.3595 40.4829
58.3877 79.7471 48.6062
36.0936 38.7062 89.7066
74.7433 53.0709 144.38
44.8027 79.2204 134.594
40.8709 111.128 136.464
64.133 64.4359 76.1998
48.2943 134.687 101.454
24.2152 57.3659 96.6492
27.9509 58.8706 113.496
64.17 124.44 119.984
56.735 85.9896 58.5205
22.6551 61.9818 94.9842
61.2127 77.0831 22.7019
32.1807 124.274 53.869
49.3699 35.6851 76.7555
42.6756 95.7923 74.1486
23.7604 86.8614 86.7833
46.4091 130.535 70.5295
46.9292 128.422 58.6002
50.7964 46.0962 65.5685
30.1703 84.114 44.8176
74.9404 146.843 64.3779
43.1253 31.5891 80.9632
63.9718 139.168 104.242
25.6418 73.4601 111.036
47.5617 28.1118 101.886
45.653 40.5452 77.8132
40.1574 61.7696 83.1224
64.5925 102.953 67.1938
32.4155 94.7627 52.1295
27.5514 63.4858 72.3615
41.5259 117.978 86.5388
47.7509 54.6204 122.756
22.5286 104.843 67.5272
28.8061 98.8241 89.5455
66.382 159.052 78.1452
43.6314 82.1957 69.1803
71.9323 23.0379 80.1344
45.4862 36.1466 50.0407
66.9067 128.116 43.4325
59.1548 22.9931 61.8453
40.2642 104.897 123.73
83.1419 111.183 84.5813
31.4431 34.3118 87.3558
65.3294 125.548 134.865
46.4028 56.9028 54.4794
31.1541 91.1739 64.6565
63.359 120.978 67.2612
54.7367 93.0381 98.4309
37.5203 83.8285 68.7669
25.3925 67.5763 86.7874
44.0347 48.7373 45.0462
22.4338 106.102 78.0199
45.9777 88.9502 120.995
38.6385 135.85 86.2421
37.8603 85.4046 91.2694
52.9232 93.3497 74.659
37.3417 73.4653 71.8061
30.1424 68.0622 69.5966
30.8718 97.9518 63.1777
28.8025 70.7587 74.3409
65.1515 66.9731 25.6204
50.7675 111.414 119.737
67.2458 91.2512 129.009
46.0349 121.011 64.3247
68.3681 34.4612 117.209
60.8068 106.592 140.286
55.951 82.2193 28.1965
39.9782 131.954 54.1104
26.3537 65.923 104.914
93.352 63.4152 99.179
53.4818 146.9 94.7866
49.9684 24.551 94.2409
38.0177 42.3819 64.5398
61.7326 118.964 91.2018
45.7594 129.37 89.3201
41.4416 138.247 105.154
57.1275 39.7595 130.735
85.4469 79.0497 93.2304
45.4948 64.0103 82.2788
45.9598 128.44 64.9715
28.6129 80.6954 91.579
37.3423 100.871 114.606
66.7528 78.6645 135.995
40.2429 73.6729 57.0108
49.6391 37.8624 100.298
71.2513 83.4512 83.071
34.6399 85.6677 96.203
62.1885 68.0223 124.565
53.6576 67.6683 79.2961
40.6407 61.3059 41.2823
56.0116 122.937 122.67
57.7274 31.742 60.6318
42.6354 56.5198 47.9325
22.255 80.3795 94.2526
28.2677 113.443 93.9152
39.4311 82.0997 52.2427
37.3021 74.7716 43.1239
30.9894 124.986 76.8061
56.7054 84.4049 35.1329
36.1983 111.227 75.0129
36.1331 84.5322 131.235
33.094 77.2631 104.251
84.405 73.7276 56.9829
52.9534 67.2542 88.6342
40.506 74.3591 121.931
65.6507 89.1634 122.644
44.5139 118.032 135.875
69.2857 72.1318 101.889
41.3467 64.561 68.1408
65.1117 153.327 92.5168
48.5964 74.1682 119.314
35.9597 129.557 58.1692
71.0609 135.818 87.3145
40.3122 67.4597 100.15
27.2849 107.74 90.2342
24.3437 88.5093 105.824
54.4499 64.7467 73.4136
81.7139 144.73 89.0486
59.6037 143.859 61.7897
32.553 93.5392 79.468
63.6022 41.9692 85.7937
52.1138 90.6535 38.1328
21.725 68.6707 90.2251
65.1926 29.2462 55.7296
46.9902 84.7745 73.01
38.4856 97.5266 78.8302
31.0195 92.1037 112.53
21.7963 92.3095 65.5783
30.0307 118.818 62.7163
40.8608 43.9965 92.3714
32.3635 104.718 69.8789
59.0349 113.333 124.692
43.1 45.1499 73.9111
62.7925 15.3143 86.4309
53.1776 111.26 138.52
33.5587 131.35 80.3761
45.5884 93.2572 108.959
69.4327 140.04 75.4999
40.0203 31.9166 86.5271
51.4886 24.1772 100.702
40.8913 29.8184 70.7395
58.0723 83.2584 86.8285
61.9961 38.5305 43.2735
63.5784 101.44 32.099
75.9689 61.1751 45.9605
54.8501 92.5715 52.8601
73.9983 121.112 88.957
56.4177 107.82 75.4223
38.9585 89.805 47.4563
53.3668 151.546 80.6992
48.8486 72.6096 90.2607
64.4601 91.6948 57.1568
76.8069 106.293 56.8949
35.7682 128.36 67.8941
49.8775 114.048 125.441
41.1808 62.6848 90.9562
33.0006 98.0818 115.409
73.6235 72.8032 22.167
63.6238 98.9677 99.7013
48.5042 139.226 94.8568
60.6143 46.2635 44.25
21.9423 99.4911 62.7347
78.5684 22.6294 74.7917
58.8967 39.1685 60.7823
27.5269 82.5022 49.9325
48.5065 123.931 74.415
69.1837 57.3919 133.209
56.1404 58.1878 126.856
42.3461 114.562 118.766
50.003 91.9419 64.3984
85.0914 77.1221 110.725
51.4057 74.8182 51.4632
36.7431 94.6208 116.456
30.4006 76.1567 53.6323
39.252 86.9923 120.005
48.8182 146.157 94.0011
74.9841 109.819 85.5195
43.1325 101.402 113.06
68.0438 109.905 137.459
49.6838 52.9848 43.5351
47.9605 53.8796 106.028
43.8402 95.0325 67.1685
43.2421 121.601 78.8952
29.0601 110.413 99.5704
30.3774 99.985 73.4348
75.511 91.8077 145.232
33.0907 87.4787 107.699
59.6145 130.318 97.9755
26.829 95.7509 52.5692
44.8815 49.7803 79.4029
83.5595 113.061 59.848
78.1183 87.0055 72.3493
48.2673 85.7803 34.9968
42.1094 43.6931 116.001
57.4785 15.9603 84.6258
49.7381 119.037 57.206
70.299 161.116 88.9795
49.822 47.8766 45.7156
54.0484 27.2548 104.638
34.948 87.5737 77.1642
65.9615 85.2947 82.9728
51.6286 109.025 75.8782
56.1249 114.72 107.509
59.8221 93.0723 148.849
57.3036 71.5852 120.849
40.4425 38.2357 101.9
53.0833 122.636 101.75
83.8608 78.2694 61.5787
49.1656 41.0442 47.8457
48.1609 101.28 81.3643
34.8941 60.0716 76.0885
56.0211 80.3636 121.104
49.2653 75.0678 62.8561
50.4226 134.595 51.447
54.1619 107.613 91.935
38.1978 79.4103 63.9681
48.7973 91.4073 53.9138
87.4091 85.7736 88.0253
36.6529 96.7046 104.763
59.002 77.4745 68.3751
26.3667 85.404 97.0498
39.8226 119.398 98.8199
29.1186 99.4326 48.4403
56.0297 25.5804 99.3982
86.2313 41.097 82.0106
74.5633 120.537 68.1407
52.8499 97.3393 136.609
43.9021 48.0726 94.6459
79.3028 77.7725 57.0948
56.8468 43.6384 122.052
65.1643 90.8235 148.011
58.984 155.185 77.9831
55.0216 57.5934 53.5344
27.6668 101.285 105.419
58.001 147.754 57.961
49.591 121.389 123.086
55.6722 89.425 111.088
73.2037 66.6738 42.2718
39.6198 124.025 103.691
63.8796 45.7306 124.348
21.6044 94.8154 72.2321
49.4158 152.932 83.7705
29.9633 62.2236 61.4313
31.1721 105.047 63.595
34.6864 100.771 65.1759
23.312 70.4303 69.9533
31.6043 91.0188 72.8839
53.1104 21.3548 83.0357
70.8555 128.6 57.4101
48.2199 104.713 46.4457
65.2367 78.2531 63.9561
35.7743 89.3517 65.2839
36.2654 39.95 107.365
64.99 79.9808 70.4331
52.6372 100.753 74.4981
36.8117 34.3072 74.1666
46.4896 30.391 89.5819
39.8089 56.423 53.7099
42.7387 53.4433 134.257
61.1101 55.5935 114.089
50.343 143.395 60.7895
58.1097 81.3413 141.3
45.5757 75.1919 83.3828
45.6669 31.3466 94.9387
57.9252 88.2924 83.5763
47.244 104.226 38.5294
29.6989 48.1277 94.0008
34.9006 81.2597 108.155
60.9601 109.203 83.2391
33.7375 118.446 89.723
56.8794 36.7881 117.969
25.9976 47.6151 79.4783
60.7226 85.2566 149.218
40.7292 128.63 90.6031
62.699 132.933 108.858
49.7771 33.8178 64.8599
29.106 63.1245 96.7096
74.5753 16.6968 93.2654
49.0431 81.7329 40.2056
43.6152 131.796 103.507
57.4951 118.428 136.965
31.9626 99.752 43.1654
28.6788 74.6676 79.7192
65.5325 131.628 122.503
52.5022 86.275 132.334
26.9232 104.348 55.2318
42.0911 67.7865 74.2046
63.9332 145.174 97.5713
45.5458 24.9739 95.657
73.7228 131.704 117.876
81.3667 68.5139 108.444
57.0293 108.294 111.609
47.5301 113.473 137.364
37.8895 116.164 111.187
73.2301 54.9638 45.04
44.281 125.408 120.193
33.7771 61.7847 58.5638
39.1196 80.8842 119.113
67.4917 84.5178 55.285
78.7419 98.7951 121.663
51.9501 78.7735 141.763
70.1124 93.8531 73.8719
40.5488 80.3122 58.0314
37.1025 102.487 51.1966
31.87 64.5332 79.6873
82.2862 88.1672 26.8935
71.5895 122.269 131.525
44.8344 80.231 115.188
40.6695 130.746 73.4188
32.4696 86.0918 60.4017
46.4875 43.7547 115.401
53.6008 53.1092 119.581
45.8459 101.661 107.076
37.7529 79.8729 73.6295
27.7457 69.0459 80.1497
40.9926 73.2142 137.207
32.6001 99.8567 103.778
26.2764 108.699 78.9222
65.6563 48.787 38.4426
52.689 66.4524 37.8212
40.1188 91.8977 93.6712
32.8142 62.3073 120.107
36.4019 51.5382 52.9672
31.1965 62.9253 53.4121
34.1281 92.8155 93.3261
48.0079 90.2353 93.5099
33.707 65.9384 49.1696
73.4738 69.7459 70.1352
57.6083 140.105 84.9091
48.275 83.0201 55.4286
32.3797 110.968 92.1634
71.9319 74.1615 93.0518
33.9191 121.272 64.4905
36.8839 60.5195 67.1478
82.9134 73.0858 42.294
55.6562 48.8286 52.2638
40.1826 70.9133 68.0558
40.1472 35.6102 63.4132
43.241 61.4526 100.436
42.0112 46.0394 122.816
33.245 98.7965 95.9013
41.6943 44.9917 128.226
27.4352 114.95 82.0482
42.232 54.1198 82.2241
44.6821 54.6297 62.5351
38.2727 127.268 78.7807
45.3213 65.4409 54.1705
54.3458 45.6711 68.9821
68.5112 144.198 85.1566
33.9474 113.735 110.367
56.5896 134.078 123.224
40.4636 85.2647 63.3741
62.6137 71.1782 118.116
82.4676 84.252 113.427
62.4057 113.329 53.5815
34.3587 50.5741 110.597
40.363 64.59 120.113
55.944 140.01 107.259
52.7447 42.1318 43.7082
73.4842 119.442 58.426
62.2746 89.0108 105.435
48.0449 79.1729 139.126
50.5024 148.508 88.5976
54.0736 90.3782 119.685
49.9757 45.3686 84.5317
43.1217 24.6786 83.7483
60.0078 145.658 87.5085
56.6722 77.6752 90.5303
28.6108 51.1212 72.1421
68.4297 72.5517 146.828
65.7358 62.9238 100.981
42.9706 90.5814 131.732
22.1471 89.5178 71.1021
44.5072 47.4872 67.5927
71.327 151.298 100.138
51.1545 114.944 80.4495
37.473 75.1923 79.398
49.241 135.072 110.127
19.2852 91.1775 87.5417
49.7875 93.1754 146.727
64.5307 95.6275 123.041
56.9278 88.8101 90.4864
54.6195 89.711 147.847
62.4908 29.8391 71.7955
38.5992 125.717 55.3339
40.3377 54.7958 42.7735
39.535 84.4426 75.6828
48.3335 87.0263 116.306
34.4893 95.7589 68.5976
31.7473 113.884 102.719
41.0038 116.524 70.0424
58.7259 102.35 65.6539
58.7326 125.207 92.2425
32.9179 58.5581 106.5
42.9998 72.337 131.486
59.6391 97.9128 54.0526
52.2509 67.1036 113.266
62.5823 36.4543 99.9448
48.8051 94.4281 59.8023
52.9579 71.6791 139.704
65.193 151.986 85.4425
61.3478 23.9882 98.7778
54.7043 32.8976 66.5472
70.3257 47.1601 113.244
50.1286 114.067 113.757
52.8027 84.555 143.334
24.6836 101.305 73.744
32.8827 82.6271 49.3772
60.4818 92.4321 99.2392
48.1162 129.537 104.946
25.4148 86.4807 110.34
93.5172 109.921 63.6123
75.2442 149.112 78.3831
41.0963 114.455 79.3051
59.5051 134.724 117.147
65.7583 81.0051 19.5487
32.1572 81.6794 122.239
60.733 61.2838 46.1704
24.7395 55.7241 73.4788
60.7167 128.875 78.131
57.9521 127.616 64.958
62.9129 138.121 55.6531
33.0605 86.4381 112.604
49.1479 40.2798 124.24
22.7115 98.4246 81.2467
51.8632 34.7885 121.371
23.8569 85.5278 63.6195
63.5366 129.822 116.513
58.9079 85.1514 131.66
33.727 84.3756 102.593
70.9805 79.9616 22.0525
80.9006 83.9006 82.3017
55.9682 74.5679 99.6422
36.7725 62.1978 129.582
39.8842 119.291 106.416
25.8836 56.9571 67.9851
44.8954 58.1815 67.885
34.7939 100.567 120.259
47.7968 54.6342 49.521
41.5456 74.1216 73.8855
76.8227 116.573 121.491
30.6111 104.991 48.4055
48.1031 109.411 68.2411
39.1457 96.9598 128.314
67.7804 73.6059 21.5659
35.4233 50.8803 88.5813
54.3132 114.258 68.9639
30.4559 92.0955 58.6791
38.6977 99.1055 85.4422
69.6594 65.2319 115.412
78.3959 63.7707 30.3656
45.7026 79.886 63.5742
74.5856 40.0856 118.602
50.5341 28.0518 60.5684
42.2334 99.9445 40.392
64.3062 39.7201 105.162
78.6397 99.6158 99.8403
67.323 90.2633 77.6588
34.7562 48.9596 96.9643
76.9063 62.3429 138.315
28.7295 78.2029 102.587
39.904 94.1494 112.558
61.8834 117.685 140.962
22.7826 92.8111 76.7079
33.9924 107.195 85.6035
52.9472 145.326 104.486
43.3194 51.6162 55.6884
32.819 70.4788 79.8752
45.1993 88.1594 66.9166
31.0892 66.6354 108.035
35.7517 130.786 94.4832
51.3234 51.7225 130.718
38.6259 69.5829 50.9536
61.5199 88.0536 28.217
56.0129 138.454 49.2971
44.6673 100.156 50.8112
37.8667 56.0926 80.4296
43.2408 56.2292 115.957
28.1003 64.7993 114.163
36.4152 97.7231 46.8239
36.9526 59.9701 86.3525
46.4798 98.3287 142.928
46.7043 89.3873 134.573
35.3156 110.581 68.3706
45.3585 80.2812 42.828
43.5651 58.3974 124.301
61.1012 70.7567 136.819
51.7759 147.094 99.4465
59.3495 32.7358 118.224
50.1263 148.541 68.4503
79.4537 159.257 88.441
57.6622 71.6206 52.5609
66.3258 77.68 150.004
51.6026 67.5127 106.363
58.5355 147.152 109.346
46.8953 66.9518 86.5685
52.6563 126.618 53.4995
58.5573 161.483 82.0173
30.8854 79.7752 69.8246
69.902 38.8248 127.495
77.8862 44.375 57.8585
71.865 127.009 89.6195
37.0616 88.9312 58.4269
86.3875 67.2696 92.2163
54.5191 103.69 85.9555
27.3546 98.0881 66.7784
72.7458 51.531 33.2771
58.7184 20.9738 79.1788
55.2003 38.9884 64.2014
55.5424 93.6759 141.125
72.2248 112.06 106.676
60.1086 142.523 75.0108
37.8299 70.7802 84.4746
55.8621 121.022 130.918
50.5829 61.0159 102.31
58.3501 144.222 44.4974
26.06 90.407 65.4962
81.8179 123.734 75.1437
44.1469 35.4231 114.892
58.5631 109.606 68.177
48.4217 72.2085 111.603
52.1035 103.092 45.4372
57.558 135.398 93.5433
44.2869 87.2236 89.0501
55.653 94.4962 114.146
41.5392 68.2661 86.2298
51.4842 42.233 89.5227
25.764 67.0101 109.299
37.5827 125.184 116.221
34.127 66.7109 94.1414
31.6092 51.5265 60.2503
79.2875 35.8637 79.7607
65.9102 35.9667 66.9549
50.5015 91.5699 129.768
33.3076 55.9133 54.8708
68.9297 103.494 129.576
37.7248 138.678 76.5133
48.6945 94.0502 76.7724
94.3454 113.056 93.5063
52.8213 117.152 118.692
62.9347 109.306 101.086
66.9845 51.9274 143.875
52.8413 139.914 95.1819
50.3001 54.7851 83.6162
78.7791 116.542 88.517
86.4617 67.3997 119.413
64.4243 30.6559 109.022
49.199 70.9661 43.9211
68.4286 63.7346 38.9117
67.3632 135.19 69.176
33.4528 71.9175 74.212
76.1354 95.0759 65.6068
39.6459 41.0373 122.013
80.7178 121.487 93.5568
60.6885 61.6492 91.9839
55.2547 108.328 124.026
68.6842 78.5681 77.6798
55.9029 71.7556 134.768
56.3388 97.7529 144.886
46.9256 126.419 96.7879
25.8126 77.7343 98.4562
40.4535 71.155 111.646
60.4893 68.8952 87.894
40.8096 115.743 62.7136
68.8102 55.0977 110.041
57.9879 35.6144 98.0692
54.6659 95.2035 149.77
70.0809 33.6865 59.2685
65.4736 72.4625 132.105
60.3018 147.695 104.066
67.9021 75.3254 56.9515
58.3521 93.4839 93.5074
51.1184 61.9423 116.884
28.1814 46.8971 73.848
35.3756 44.9817 91.8505
77.5234 135.319 91.4103
55.3859 67.9451 31.3256
56.7814 124.863 114.912
53.8527 86.6821 137.861
47.1006 37.2262 65.8024
38.0991 73.9611 132.266
71.8152 101.578 104.176
24.9326 62.6435 84.7409
61.6763 102.406 145.854
42.1178 59.1764 72.3745
54.365 50.1814 113.679
54.1677 130.525 80.0778
72.252 60.4324 51.2893
78.5158 125.339 80.8786
78.9034 150.85 109.307
62.8229 95.2259 65.3135
70.4147 54.0334 64.9313
47.9131 66.6769 140.086
47.8491 84.7123 137.024
47.7811 57.1387 137.677
60.1632 138.314 98.2068
79.3073 130.925 68.6715
52.0699 81.342 70.7324
46.0382 62.6867 137.023
68.5606 104.172 121.726
34.8382 110.762 81.7603
58.8719 41.2734 113.261
59.8215 116.043 71.4379
48.8892 142.837 67.7193
24.1462 62.3677 99.8465
32.4373 130.151 62.8736
63.3067 82.7661 100.545
53.5562 38.108 103.552
69.3479 119.014 75.8258
84.9061 53.859 139.552
29.9082 70.2632 86.3428
79.0025 155.368 104.559
20.5977 102.167 72.4111
50.931 90.6299 141.465
52.1216 140.464 112.932
73.9173 137.205 97.7103
65.4118 135.078 60.4849
58.7673 111.319 118.39
34.2206 100.295 53.7565
89.7259 108.683 90.1348
70.4234 79.7755 32.2188
40.8833 94.6717 117.513
40.2687 74.4588 100.378
21.8536 87.5979 98.0542
66.6259 101.046 105.954
48.9007 107.086 33.8164
71.2362 82.0348 131.189
48.2324 124.02 101.325
55.9526 85.6135 103.741
27.4532 77.9212 74.5241
67.5869 43.9518 117.852
53.8789 72.6784 44.9887
80.5206 134.572 80.2742
60.8948 77.4571 150.096
35.7298 106.992 92.506
52.6342 135.969 100.988
34.847 76.4633 85.5902
54.7039 117.815 42.5986
51.3389 103.142 142.545
42.9564 59.2054 134.247
23.685 82.775 72.0982
50.7218 49.239 54.1927
29.7307 119.01 79.4099
53.1969 55.0581 90.7963
33.0028 123.673 83.3172
54.4525 113.423 129.05
55.3317 32.3456 103.379
26.9906 72.5034 102.783
29.6441 88.0292 68.7487
63.6975 132.973 99.3623
31.1687 56.7769 72.5619
68.2157 68.5342 69.9167
74.2981 98.9738 60.0557
71.1075 116.949 82.6584
33.9957 85.7373 70.886
27.2467 93.98 70.8744
81.6966 104.761 80.2373
34.757 37.2138 83.8133
69.4088 80.4328 123.578
75.8436 55.7478 104.849
31.3256 59.163 99.9073
33.6987 52.362 116.309
39.2716 92.303 64.5377
21.9617 79.5454 86.2623
59.9587 120.529 123.146
60.3599 49.8597 51.8588
63.0206 51.9363 119.329
71.6565 106.983 140.349
48.8137 116.594 100.002
57.7228 93.1536 130.408
46.468 61.048 90.6916
62.7299 87.2582 48.3105
54.8498 105.888 131.117
46.7223 40.9687 52.9667
74.7314 96.038 79.7267
76.8242 86.5621 24.0414
28.781 67.7967 60.0111
66.2711 114.48 31.2402
70.6727 119.311 42.1622
49.5648 39.7924 116.707
60.6576 140.455 90.839
38.625 92.6996 73.6218
79.5399 37.9361 60.8516
23.2753 79.601 64.9531
41.6163 131.739 79.0436
45.5267 110.641 123.26
56.7558 63.9567 124.461
35.7268 64.7663 70.9473
52.2175 30.821 86.2794
28.0327 92.36 101.455
65.9672 59.9093 114.711
48.0359 72.3845 57.4362
53.3835 33.4491 98.0285
77.1867 36.886 51.3863
53.2888 35.921 128.144
42.7901 85.467 131.608
47.31 93.2184 140.396
55.146 106.098 118.64
54.7164 28.3969 110.741
76.8309 86.0914 110.547
21.4926 71.3637 83.9567
36.7488 89.2267 70.8716
58.601 71.9947 74.7174
35.8041 64.2725 81.9045
60.4578 60.1578 83.3785
48.0689 94.0173 70.995
35.7812 78.8934 131.023
47.8823 31.8458 55.5383
41.1731 50.5342 87.7519
54.7051 122.468 87.816
55.5288 36.786 54.9322
72.4637 100.241 115.941
43.3548 82.8933 60.5162
52.0177 30.18 54.4149
48.2437 82.8232 48.3937
62.2838 136.202 72.4766
73.0784 143.645 101.984
59.8896 129.715 119.54
65.5273 145.191 110.122
58.5091 46.2617 113.618
53.9711 66.9053 141.599
29.839 73.2779 105.97
28.4417 112.577 75.3781
27.5496 79.4194 59.0048
71.2822 132.845 127.171
80.458 47.729 113.833
71.1176 70.3989 37.0088
89.4508 119.392 67.4162
34.0267 80.0714 114.763
74.9713 64.0725 112.595
35.8583 114.897 92.2701
59.5645 95.624 104.714
65.2347 79.3385 118.52
74.1557 76.1529 63.7299
46.5265 124.33 132.699
67.3216 36.9223 134.765
75.6669 75.7176 113.912
53.1962 96.9098 80.4286
54.2524 35.9512 111.927
72.9897 147.078 113.763
33.031 66.2199 74.3342
43.6512 108.635 43.6475
60.9807 127.6 103.877
38.0091 95.2501 97.7295
65.2037 143.671 60.185
46.4689 48.2625 51.6611
36.5472 81.7107 43.0731
80.3818 80.2018 110.452
63.0365 140.895 121.632
66.967 91.8463 67.8283
56.4355 104.604 144.464
40.7833 104.748 99.4598
38.7924 104.548 76.1878
34.4514 65.3677 89.0763
41.001 79.6103 71.0224
43.9229 100.657 68.8304
36.5779 68.5029 76.8001
48.1177 58.2496 78.0819
71.0943 123.688 82.295
28.8945 79.6224 85.8508
27.4613 72.4609 91.5902
39.3503 58.2613 108.355
51.9189 137.462 78.8044
42.6377 30.8152 59.7304
68.7762 70.5853 140.637
63.1477 99.2738 59.8477
39.5469 67.7662 79.8782
32.4896 107.384 78.7686
46.8804 46.8408 119.727
31.1715 114.652 53.2714
69.2845 74.9412 63.7992
34.0925 90.2609 118.655
42.4491 98.3805 93.3606
47.5022 60.9665 108.178
32.4873 118.583 56.2492
51.9114 84.0374 60.7003
47.0395 62.7997 46.3311
29.4733 86.7473 115.782
54.302 80.0555 110.252
60.5748 70.0268 71.1462
68.2379 113.289 106.356
53.8461 130.72 109.475
29.8719 52.7474 79.9314
38.3181 60.9595 100.822
50.6781 35.1412 91.1378
62.061 92.6134 134.426
40.7519 78.4157 131.706
60.4838 85.8173 138.799
51.7931 126.229 113.229
46.9575 135.054 74.8648
82.7445 60.3193 112.891
60.694 147.387 80.0949
45.2482 131.861 82.8821
42.5889 78.7043 47.3631
74.0787 104.396 126.576
62.8865 110.047 94.2228
40.7744 100.669 63.6315
35.8938 85.2173 55.3202
61.7711 116.648 109.926
67.5152 147.418 63.7266
35.6476 106.276 65.1084
31.5189 58.9925 65.5463
26.5228 107.911 70.8339
55.3758 137.263 75.0121
45.2492 39.1063 104.029
29.2537 110.181 83.2652
36.4872 32.346 91.987
39.0307 59.5972 113.726
64.9418 88.8414 111.939
55.2631 64.0002 115.945
69.3282 16.9486 97.838
51.8038 121.329 96.2091
58.7372 29.0062 55.3769
57.2224 73.5917 129.25
34.9129 116.691 73.0447
86.3225 104.066 61.333
63.9367 74.9105 92.3736
80.3706 147.014 102.778
34.9183 98.5874 84.2436
73.9436 59.7946 96.6771
65.7864 115.235 80.0561
44.3444 69.9927 125.78
61.9805 55.6474 94.6608
23.0712 97.864 68.0867
53.622 101.521 123.082
73.1177 85.2094 73.9462
74.3951 106.251 145.189
50.6057 139.523 107.147
45.5409 62.637 104.874
63.0476 39.0369 122.411
33.0816 77.1474 78.0626
30.8487 123.405 66.8118
51.0378 75.3078 132.799
35.7333 103.334 79.8084
57.786 144.493 93.5762
79.3024 132.495 116.521
74.023 69.7899 62.3706
45.9598 93.8912 101.738
54.2503 130.844 97.3534
36.0494 79.2236 49.5271
68.3539 31.6652 104.213
46.5269 27.3883 63.4919
57.935 65.458 76.9055
43.5112 81.4147 124.277
66.0657 35.0312 96.6989
77.0476 136.482 71.205
33.2471 124.367 71.5686
55.099 54.0096 139.662
78.3513 126.024 64.2183
60.0101 62.4061 114.34
45.3047 114.217 77.9468
77.1909 90.5838 116.156
35.0049 131.275 73.233
53.3104 83.8 122.836
48.1742 119.464 127.995
57.637 135.006 81.0038
73.9302 149.227 107.357
69.599 107.319 77.8756
48.2089 36.2179 85.2767
47.463 108.735 128.064
42.6724 30.1145 101.513
61.9159 103.41 88.6845
60.7078 116.081 35.8206
59.4317 64.3855 97.0111
51.2763 63.7036 41.5804
45.0135 67.4191 130.947
63.2305 66.4764 132.478
52.6802 62.0374 62.2232
36.4282 54.3047 97.9254
38.4423 120.162 79.1487
35.097 109.093 53.226
33.0748 101.494 89.4006
58.4478 59.5226 142.932
30.7817 112.573 59.2052
68.6897 83.3326 115.529
34.9691 56.019 91.1057
76.6582 122.561 73.325
40.3368 80.0836 110.611
42.2608 61.5087 139.063
46.4941 92.0542 46.9331
54.5071 136.014 67.3281
42.4723 126.802 57.6092
65.3309 53.7712 114.486
66.1662 112.345 42.7506
48.7364 38.3192 95.0986
60.3644 132.491 87.1103
30.8651 60.1239 91.3109
62.5 73.0173 66.3119
73.0602 78.3053 38.4624
52.9494 60.9512 142.75
45.2597 53.4578 75.6512
55.7764 132.453 104.742
47.1475 98.7226 137.554
60.7919 117.271 96.8935
41.2038 27.6185 96.1429
51.5661 48.9939 125.115
37.5234 97.3162 91.4712
70.8137 107.08 67.7256
30.333 51.2873 100.605
54.7959 60.445 91.4816
43.4093 39.1679 86.1809
70.5693 95.06 66.4377
80.0284 54.5996 140.317
45.6198 51.5905 85.4005
57.6228 84.1439 53.2295
56.1837 64.4819 66.1838
72.0612 57.7515 29.148
53.16 61.9208 130.432
63.4466 78.6238 37.0359
51.309 99.4981 146.494
45.4271 40.1027 99.4573
45.5347 112.581 105.862
48.8664 101.109 102.796
84.1709 87.2399 122.701
85.3128 136.617 70.1568
34.7409 45.4883 103.288
58.0592 139.292 69.1508
50.9726 59.6068 45.8896
27.3582 78.3951 107.161
40.1187 68.3547 45.6147
60.1635 147.938 97.8192
63.4884 81.1803 84.0462
61.9123 77.9896 57.9734
73.042 110.214 92.0902
60.0067 54.0436 82.6485
38.5287 49.1633 125.651
49.9455 141.08 101.2
20.8657 87.0906 90.7673
27.327 60.0372 102.313
56.0704 141.323 79.3014
63.0456 113.127 105.945
60.9681 101.887 105.842
45.6343 100.515 88.8019
50.6785 125.217 90.5899
50.3257 96.8287 94.7863
55.208 80.9327 134.885
42.0706 107.431 35.0057
52.0714 53.7803 99.4297
54.6281 125.008 96.0876
70.7816 129.978 64.3898
44.5117 70.311 66.4326
54.7926 85.2596 72.8412
54.9595 134.224 54.7802
59.4764 130.79 70.9492
52.0765 117.812 88.0956
49.9932 31.44 95.1085
60.4653 106.329 118.432
27.3375 100.561 97.7708
49.2227 63.6363 71.4492
46.7844 34.1909 61.0758
57.9654 44.7654 87.7102
63.7715 124.947 61.4257
65.8272 128.347 65.3796
41.5983 30.3102 91.4127
56.141 138.68 90.0687
56.9257 66.1446 38.8358
59.3682 30.1908 97.2043
48.3384 47.2337 72.6946
66.025 142.04 79.6107
60.9642 110.078 129.303
29.4632 88.1493 107.417
57.8796 109.74 136.607
34.2664 113.857 86.4585
20.7497 90.7419 81.665
71.3817 53.8346 126.549
42.4096 74.9338 41.3246
86.8099 53.7102 43.9597
43.8295 106.233 72.149
58.3411 128.223 109.767
56.2505 50.5066 133.382
66.9969 54.275 93.1058
43.1273 98.1048 103.329
82.0519 57.6463 83.3796
61.2934 146.903 69.7181
60.2185 119.195 60.9562
37.4089 48.552 118.949
51.1201 59.8836 121.411
50.6961 88.0512 97.9837
79.7184 148.564 78.813
78.1721 119.192 60.9226
48.514 68.1562 66.0676
45.327 108.761 110.572
82.3005 65.4865 49.8982
64.6027 65.5479 113.575
81.4901 104.387 109.623
30.9469 98.869 57.479
50.2065 47.3131 114.601
37.6074 123.475 63.3514
48.8106 47.0446 78.3851
47.1395 71.8856 130.716
63.3605 40.8779 75.1622
69.6444 129.296 120.352
69.4294 109.355 55.0803
63.1738 18.5757 92.1861
51.2696 117.452 133.51
57.9318 42.4652 52.2022
70.3491 155.611 77.1232
73.7027 104.816 95.661
62.3071 72.0141 56.1219
47.2431 43.8358 91.2727
71.7392 80.0524 117.629
74.0542 69.9247 138.218
37.4961 52.1892 104.057
69.1564 68.0233 78.986
62.8141 76.9599 76.912
75.0272 93.0778 110.301
63.4988 40.7443 114.152
76.2596 62.8778 101.824
70.7077 134.876 93.1077
35.6197 54.5379 69.2377
44.0493 116.096 89.9589
73.5661 83.2732 48.6977
47.4439 48.6824 106.094
64.3523 120.256 46.0682
68.3158 82.9651 97.8092
70.723 33.8353 95.5752
60.8255 142.608 116.308
44.3276 99.9731 99.5655
79.476 140.612 76.0666
92.7982 94.431 59.469
69.2395 74.3347 71.8408
50.325 111.674 37.9924
73.9739 48.4201 133.16
67.0528 80.3058 140.494
69.1672 44.512 137.785
62.3267 47.3924 88.5685
30.4731 81.1606 107.889
63.608 95.6368 109.377
73.4317 55.3461 110.71
38.8765 68.9204 122.255
36.3292 64.9538 111.275
57.3215 50.7422 117.21
46.2599 105.867 83.3618
43.3795 87.7305 114.802
53.8319 92.4296 134.01
63.4 124.5 78.8499
50.6693 63.1571 139.338
55.6751 49.1064 59.3971
68.9768 36.9309 104.302
31.1271 88.07 101.427
50.7851 39.7447 68.4958
59.855 138.071 77.7543
81.6043 92.5224 35.9741
50.6468 69.6217 82.9636
65.0287 115.949 61.6127
67.9271 113.317 70.471
57.071 96.647 68.1308
63.8078 68.7013 90.9678
59.0453 72.1277 26.8819
47.5144 78.0512 121.761
69.0785 59.6175 142.406
46.9 100.694 72.9505
94.7044 118.43 68.5987
78.0293 127.262 119.629
89.7188 100.237 73.1682
52.1078 61.5973 77.1453
86.5411 82.749 74.4832
53.6808 97.7346 88.7492
56.7571 132.213 75.0265
37.1556 57.4296 117.96
38.8963 87.9939 128.151
45.6751 61.5026 129.877
55.7523 58.6597 136.412
59.0647 65.0042 135.484
48.9339 30.4186 69.707
87.3096 120.713 85.679
72.2798 158.485 95.5585
84.1156 100.099 103.317
53.7727 79.7207 76.7747
68.4539 135.542 104.878
45.7195 72.6357 136.384
29.254 61.4477 107.417
70.0732 83.6634 136.294
62.3948 85.3118 55.7288
68.3718 48.0074 123.628
57.9006 109.598 102.013
81.8337 92.3128 124.673
67.4837 59.1375 148.726
56.2967 118.756 75.4916
53.8501 41.9235 114.996
75.8857 116.693 107.031
53.6185 140.043 85.4246
79.5474 72.9477 72.1745
64.2587 94.5799 117.249
67.935 88.464 134.636
42.3033 133.948 68.0505
76.5125 85.2647 89.2587
35.51 70.7225 115.064
23.939 56.5883 81.1745
42.6895 94.4541 43.7247
61.7174 53.3037 36.2741
65.281 138.301 94.524
52.6101 71.6602 58.7932
64.4717 115.64 124.045
42.6166 76.7065 127.615
68.1463 82.8403 74.7233
55.1685 85.5379 97.4321
54.6278 63.9721 100.899
52.8525 129.597 85.4006
69.824 64.6953 27.7133
73.0919 70.6953 29.7596
65.1568 87.3716 95.6588
69.8051 141.648 63.3461
43.4891 121.318 104.606
59.2983 36.4223 104.9
61.8379 94.5187 128.823
53.4138 60.9599 83.135
74.0754 61.4942 64.2485
50.9165 46.6654 120.053
76.3746 130.305 58.3652
48.3392 38.8301 72.0408
69.202 101.231 65.2388
56.9308 100.517 41.1087
44.7003 135.009 90.0954
85.1441 59.7833 106.687
68.0522 146.775 92.5039
41.5188 113.745 94.8323
65.9524 133.568 94.0555
75.8946 106.554 136.675
69.0373 88.2601 89.0105
42.6955 142.006 91.5256
66.6562 91.4565 50.4205
52.8008 86.6953 90.5632
54.1796 116.215 124.146
60.0557 70.052 149.475
52.1043 76.9566 67.6023
76.5215 158.453 84.0092
46.6163 115.107 117.257
83.3829 95.6428 117.939
63.5116 56.2107 51.8092
54.67 143.744 88.7236
25.6876 56.482 89.5314
65.2313 79.7021 106.737
49.9223 41.7201 79.6568
61.1959 105.927 112.36
55.2993 147.355 84.7028
59.6249 66.1874 51.8978
63.3713 74.5847 86.2512
66.4138 118.175 107.465
42.5574 124.364 98.4697
73.8114 75.7764 79.2811
64.86 49.1774 51.352
71.3009 26.849 95.8059
67.7267 129.591 101.554
25.4272 107.131 83.852
23.9514 93.5879 86.9962
43.024 129.348 95.057
57.8138 99.4002 138.719
37.1336 73.6048 104.88
44.9673 87.0193 126.742
61.5421 119.782 78.8213
55.6636 83.8359 147.776
75.827 46.3794 89.8091
66.3287 29.3715 83.7049
77.2541 70.5537 146.97
92.266 118.83 88.1095
70.1375 131.757 110.73
57.0497 117.176 81.1318
59.7166 48.9363 39.5277
49.0059 135.364 64.7051
61.7473 90.0394 62.9011
67.9099 39.3633 60.96
87.0309 67.6196 147.549
45.8727 76.1197 101.777
67.3617 128.764 128.321
70.6698 53.0226 103.427
45.0473 44.4842 93.649
41.8307 65.5566 49.6011
54.9346 47.4119 76.4352
44.4456 129.803 76.5556
63.0057 74.0503 47.1293
57.1872 57.5257 39.9753
76.5027 87.0057 139.429
29.708 80.9274 77.3714
75.205 61.7453 26.5567
74.1935 148.12 94.1707
70.5777 93.8372 113.906
60.7643 152.533 64.3315
67.4306 139.314 114.283
86.0573 69.0027 112.382
49.648 67.8548 118.285
57.3998 27.4474 69.7911
51.4971 121.333 82.2011
66.5537 53.5265 126.31
58.7329 139.834 103.346
84.7689 141.283 87.0522
25.5191 63.7285 79.3932
70.9232 71.5099 122.701
70.2339 77.213 51.0164
60.6242 111.882 41.0348
53.576 95.9893 125.68
42.8696 51.8694 128.455
46.028 43.6894 84.353
76.3343 104.412 110.747
58.7663 80.6301 97.9575
79.7136 104.378 142.182
40.344 100.043 97.3226
52.3032 90.757 58.7507
73.488 66.4039 123.975
50.6681 128.653 96.6011
57.9186 78.1801 115.379
69.8939 50.7046 138.056
78.0321 124.946 86.9287
67.1039 104.896 39.9738
75.787 75.3121 151.697
38.9838 26.6794 83.2473
59.466 26.4032 75.9729
62.9151 137.83 111.501
69.1132 120.377 68.2811
92.8173 74.6456 146.149
57.2164 45.9116 64.1233
55.7828 128.28 126.823
61.8506 125.752 86.4459
62.7084 82.2975 141.224
55.3764 60.0279 46.7485
49.2609 44.0169 98.5437
82.7723 36.8303 107.441
74.4602 110.342 79.5934
54.1518 74.0116 114.558
83.7083 76.2704 50.1492
58.1744 100.866 133.322
46.2858 93.7423 126.422
56.6441 63.7493 43.2871
51.7804 73.1003 128.797
78.0421 152.054 86.0805
53.1471 76.3332 94.9419
50.7804 143.355 78.6468
33.2853 69.4336 55.0984
58.7185 99.1345 87.5759
21.2083 85.5231 78.3406
41.6507 32.6624 107.169
34.1715 112.172 56.2511
69.4325 146.02 98.6094
59.9645 122.216 71.8562
35.3408 63.457 115.726
54.214 71.726 74.457
79.2773 107.945 119.725
61.9037 127.12 68.7315
86.3321 100.131 131.304
85.7678 47.8837 138.428
