ply
format ascii 1.0
comment Created by Open3D
element vertex 286
property double x
property double y
property double z
end_header
54.7565 61.6332 51.5533
37.2544 61.1541 85.2509
45.9 66.8085 68.0847
38.4146 50.6318 82.6117
67.1924 66.6926 155.102
27.9688 163.911 39.3479
33.3209 63.7366 149.003
44.6243 46.7102 137.998
41.3245 60.7159 60.2819
22.4057 56.2923 95.516
48.4037 32.6069 102.407
72.0899 74.9741 138.477
51.3664 60.199 57.8976
60.9982 69.3331 57.0055
47.1836 168.889 46.1781
58.0979 54.6499 112.153
63.033 60.0475 54.1464
52.436 29.8456 122.202
49.9592 147.797 28.8361
48.7378 45.4388 68.1902
58.3833 57.3331 104.033
24.4216 154.73 52.4067
57.1024 35.25 152.553
41.4323 169.625 22.5117
53.9923 65.7172 128.042
60.053 75.7989 72.7334
41.6105 149.708 65.7184
26.2417 147.128 39.4965
24.648 169.162 60.1461
52.2184 48.1674 58.8824
39.6307 54.5069 67.1825
41.5114 158.561 27.4535
40.8641 64.5912 137.52
23.4771 171.189 50.4049
60.6053 42.6157 153.454
53.9128 69.4905 68.9058
69.4648 55.9099 155.393
35.8683 167.641 57.567
33.5029 140.313 54.4951
29.5832 140.87 41.6872
27.0932 167.715 45.8801
48.1898 159.74 71.3621
30.9287 152.227 44.8329
71.6798 82.7519 63.1603
45.543 56.7786 119.652
47.1882 49.1664 106.961
49.2459 51.8986 87.2802
45.5605 51.2792 115.404
33.8794 46.0801 88.206
45.7418 59.7754 80.2957
50.9847 56.922 113.139
22.9066 166.453 38.734
41.2843 49.1294 122.093
66.7298 58.177 62.1765
53.1596 41.1122 108.18
27.9115 168.559 33.5632
32.1162 174.062 43.115
45.3647 42.5141 110.67
48.7117 29.1265 140.811
52.5082 56.7593 123.779
50.8233 31.1993 131.088
38.9632 141.556 55.4954
47.4886 57.797 127.321
57.135 60.5265 116.357
67.4881 46.7179 151.279
36.4573 50.4617 75.1004
37.2412 166.335 40.9875
39.2549 61.2221 70.7235
60.6201 30.2685 109.28
45.4609 63.2739 143.116
52.8575 37.2139 125.561
48.6343 36.5414 147.655
34.7617 154.322 66.289
48.6933 156.844 38.6004
39.4031 43.545 131.655
41.0821 52.9659 128.955
42.9467 40.3027 142.727
61.4408 67.5214 126.469
43.4001 171.384 31.9499
51.6765 45.2784 127.028
71.4938 52.6661 165.101
55.2798 60.3033 79.8044
32.1412 160.175 53.325
35.2726 158.929 60.5518
50.8776 40.8718 94.2028
43.544 147.09 48.4366
53.9709 42.7088 153.828
30.0587 57.0457 90.3515
59.9574 30.0738 123.418
56.5969 37.9993 116.759
55.0084 66.8434 136.79
57.9627 40.9675 140.862
27.1126 144.117 52.9205
44.7163 136.123 38.7568
60.9557 50.1613 155.422
53.8089 155.661 67.206
33.4912 147.662 40.5925
42.4653 37.6621 134.664
54.0757 148.242 57.8807
44.7619 54.8713 134.601
67.0976 27.4961 120.541
49.0199 38.7551 132.216
28.8268 142.157 34.8499
54.3714 173.172 46.2751
47.9521 30.8948 91.5165
63.5443 33.4832 115.932
46.5974 43.4798 119.824
54.9897 64.1897 143.561
51.6642 40.349 141.413
41.4897 143.537 60.7992
54.4671 50.5708 81.9003
27.9029 178.338 50.7782
58.9597 38.2153 132.21
29.5542 150.454 32.2886
71.9492 75.8607 59.6899
58.381 52.6468 51.9217
41.7855 171.099 58.4834
47.9032 144.05 60.3951
57.1982 46.7186 146.172
53.0848 56.3114 133.969
50.6694 154.899 27.8534
62.1023 74.1449 65.219
62.4086 66.1814 137.166
63.2408 69.1209 145.131
29.8481 159.774 35.8575
57.9451 70.1365 78.8401
46.1024 39.6315 98.1164
35.7694 140.711 39.4833
33.2028 169.422 29.1749
45.1398 67.258 77.5066
31.8854 58.6623 99.1979
50.2973 149.838 48.074
46.0964 163.412 34.4584
65.5996 51.174 100.561
57.131 51.0189 126.728
39.4969 138.514 48.7968
59.6149 30.1005 146.906
65.1079 19.0388 97.3182
63.1125 42.1847 118.607
28.7255 174.809 33.1134
48.6575 160.841 44.8862
74.262 70.6865 129.614
79.4137 71.9904 147.35
64.1232 51.1971 118.991
54.3558 51.1174 73.3351
70.2273 74.3204 70.5262
38.5925 158.406 39.5658
43.9776 152.676 29.3407
66.1247 44.9422 159.845
25.9869 173.187 39.7984
56.0936 34.339 143.719
55.0505 45.7642 117.593
53.8635 55.166 63.7173
44.6941 144.046 30.8519
30.8842 139.959 47.7307
36.7878 165.483 67.2871
59.1067 25.2681 86.0562
77.9424 64.3499 152.971
46.2353 48.6657 129.002
68.5726 31.4264 101.501
73.6547 42.7198 159.412
57.766 57.4364 146.116
53.2753 162.754 62.3862
40.3473 141.8 42.2052
41.1466 56.1683 148.156
36.5799 147.37 55.0595
48.9026 170.481 63.9679
30.3929 148.203 59.52
29.8614 153.044 63.7104
68.7515 36.7089 83.4256
74.6265 45.8912 155.502
66.2891 38.0233 133.113
30.4151 174.734 61.0887
37.1738 147.422 28.6821
58.8571 52.3273 67.8446
38.1413 164 25.483
25.7058 153.357 60.3726
59.2934 59.7417 127.042
59.1118 21.7598 97.7507
36.3806 147.74 62.9209
53.3271 24.4878 91.8162
33.302 150.975 51.9239
65.1739 26.8909 85.3797
43.6408 152.995 38.2537
37.3343 152.813 35.6531
41.2734 164.772 63.0909
41.8689 164.794 69.7327
72.1644 25.7548 100.346
72.3595 62.2835 75.8546
54.014 144.462 51.266
51.6181 56.6349 140.765
40.5699 155.735 71.4828
64.3507 44.2698 128.804
29.1963 159.045 59.6619
67.6416 42.2687 101.255
57.4631 41.8664 84.9699
51.5755 72.3124 75.8371
47.785 166.561 59.4158
56.0854 51.9953 148.561
48.0648 147.091 54.0793
55.3632 32.7497 81.0386
49.7853 145.462 35.4347
59.3817 56.8751 137.882
48.9591 165.036 69.0236
46.8826 152.603 70.8318
37.9968 157.959 54.8585
37.0977 179.379 59.7638
78.1774 61.4685 144.778
56.8919 52.0595 118.17
32.3534 164.209 64.131
64.5067 35.8802 126.021
45.8231 141.66 51.8073
61.9045 58.0366 152.289
26.2751 148.195 46.5086
53.5844 151.281 63.0043
45.122 52.869 74.0495
38.2775 153.48 60.2643
51.9301 48.2361 135.291
65.466 57.5397 105.947
49.5296 67.5748 60.2491
70.0608 58.2307 126.892
74.0078 32.4649 119.238
33.9361 169.657 36.2799
61.5582 45.4487 137.074
61.3375 45.8623 105.272
40.0669 159.458 49.0718
67.5131 67.3205 132.173
35.193 160.83 70.0418
62.5339 59.9971 121.659
54.2882 157.864 56.4906
50.246 37.5897 84.2326
71.9513 58.2573 112.291
42.8054 150.373 55.6473
37.1545 152.25 46.1161
67.3406 22.8379 91.1999
49.4635 48.8933 148.29
66.5323 56.9669 72.4454
70.7752 47.3163 95.7846
33.5372 154.938 38.4365
62.4723 64.0307 74.6103
78.1635 78.3772 65.4991
28.9207 150.308 50.928
51.378 45.6949 120.552
67.6226 58.6259 120.282
63.7184 65.0665 119.169
50.7221 166.607 53.709
70.8431 50.8695 105.131
72.8179 44.5478 90.6397
60.5512 36.2733 99.3347
48.3506 39.8075 115.979
74.9498 53.493 151.362
74.2663 37.797 87.3615
71.1682 71.4669 77.2579
39.5306 168.573 50.8887
68.3234 68.4782 60.7117
43.5725 149.92 42.7655
71.1153 31.6775 108.529
42.8694 161.584 44.2919
42.0496 160.377 58.1081
76.2342 66.8925 62.1046
38.9136 153.335 41.4687
65.7062 72.2182 76.0823
62.9417 50.2304 110.261
55.7284 63.5006 65.4318
74.3637 48.1527 63.4809
68.3257 52.2528 134.874
54.3145 152.581 47.6505
73.5509 60.3933 119.935
57.195 46.013 129.874
62.5289 51.4442 94.8389
52.551 162.672 35.9356
43.1951 169.813 65.9707
43.0744 156.272 43.6506
36.1414 142.653 47.7563
72.5198 30.51 91.4122
56.9207 159.73 28.2338
63.5776 53.4383 137.602
67.4194 43.562 122.589
61.7994 42.0503 89.9306
57.9098 166.516 53.5014
70.5487 35.3003 142.524
58.5723 166.752 35.8611
66.9385 46.1715 86.8907
69.301 50.5296 144.008
71.8658 37.7985 125.014
63.7696 33.9065 140.142
