ply
format ascii 1.0
comment Created by Open3D
element vertex 231
property double x
property double y
property double z
end_header
66.4101 90.3263 65.1333
61.365 63.4297 35.2147
42.9224 57.0408 98.0123
23.6795 41.0265 79.6222
28.5847 32.1052 72.6488
59.3411 91.6755 48.9492
24.9808 57.2167 77.4573
26.1781 45.1267 104.712
41.8106 71.6594 37.6069
49.4804 78.8603 78.3752
52.936 60.9436 82.3833
52.2037 61.9798 36.1054
62.7445 87.5725 44.2591
23.1898 54.83 68.9215
39.4903 28.7316 94.6733
27.4885 51.8274 98.1595
56.3762 69.7901 35.0985
47.277 71.4302 36.6516
44.1697 58.8953 48.2163
19.3569 45.812 82.0854
44.292 87.573 64.7712
38.1252 73.4489 41.6295
64.8139 64.3086 69.4827
33.8686 46.6904 62.0653
47.9324 52.5421 47.2038
64.9424 90.2395 51.142
68.5296 81.8287 62.3281
65.434 63.7239 42.9833
44.8616 25.7731 87.6853
60.7938 92.4758 60.8797
51.1377 58.0608 41.7548
45.1583 27.6194 81.2373
41.7562 84.0883 60.2169
34.6139 24.3397 87.9979
54.0684 88.656 66.0387
21.9288 51.6748 98.9542
46.0365 32.0816 94.5603
37.7193 30.6893 77.7606
46.6559 91.9943 59.5188
19.4712 53.3284 90.9427
37.6273 66.1218 41.1919
59.1527 88.8292 65.036
52.1472 83.1074 41.6997
60.6337 78.5693 73.9556
50.8006 35.2178 77.9059
19.1596 45.8487 73.3088
29.9944 40.5237 67.1894
50.7127 92.1157 63.094
40.8208 79.9658 41.5159
59.3283 94.0065 55.0868
33.7773 50.096 97.8331
50.1073 67.236 41.9927
50.8667 54.4949 88.1087
24.1404 49.3812 74.5965
33.236 61.5677 50.1944
35.9942 84.2721 62.4314
26.223 54.4287 86.8092
31.6175 66.9412 55.0662
46.3111 65.2018 50.5759
68.4932 68.7074 58.093
25.4135 62.6025 60.6028
31.8062 65.4624 46.0599
42.1839 48.5324 93.6894
26.8138 50.8159 63.4952
33.5576 35.1076 76.8424
48.0664 31.188 85.7731
56.4647 77.7426 36.6045
68.9275 69.7709 40.8706
55.276 79.1445 74.8236
21.1565 51.715 81.5366
35.5372 43.7924 101.364
50.8116 35.4751 89.2754
25.4341 75.8969 71.9314
72.3307 76.0778 60.6976
31.2824 47.0042 104.483
47.1862 86.4268 53.5388
55.4082 94.3141 60.5395
35.3562 70.3038 51.7805
38.2246 66.3813 87.6557
26.7217 69.3121 76.45
63.6387 84.0993 38.602
17.323 50.4303 85.9719
34.7679 77.0469 69.1438
41.4668 43.7777 63.1445
25.6145 43.3549 68.1583
42.2535 84.9207 53.6709
50.5354 92.7339 54.4005
29.6459 64.8256 80.4587
38.5967 72.8256 78.1333
52.0731 50.304 74.1731
40.3961 59.6223 42.3643
54.031 90.8619 50.3556
32.1434 56.6851 96.1389
33.5958 81.9756 58.52
40.8448 46.8542 100.517
50.299 58.1949 58.9758
69.7892 82.6254 56.0444
52.4658 58.3568 65.0282
51.8396 73.7481 34.8123
55.5444 74.9916 78.7625
30.8332 58.6521 74.5143
37.0148 40.5977 62.387
39.5999 24.979 86.7766
39.2468 68.6468 81.698
51.3212 81.5257 35.0632
44.2957 63.6052 89.7595
46.1817 82.5024 41.1404
49.5838 86.3698 65.1911
29.4205 68.5888 64.6445
29.695 57.7801 54.0879
47.4346 37.4637 95.1794
33.5497 76.9735 59.3622
42.2526 39.5323 99.7652
48.6385 91.3248 47.7841
70.5567 73.928 45.6358
45.8983 57.5129 91.2096
61.1479 78.7982 37.5608
66.7085 89.0865 56.5267
36.4696 26.4874 81.814
45.0322 44.139 97.2351
38.9221 57.6019 48.7272
38.0125 58.3152 59.3377
49.1121 67.5719 82.0504
27.9354 62.598 89.3789
63.6258 82.2007 64.5887
64.3093 65.1129 49.8234
55.7401 69.3343 76.664
46.502 83.8721 74.6214
33.1248 70.945 45.272
63.6756 66.914 77.3166
42.3327 34.7377 74.5739
56.6142 60.1576 69.9704
54.9084 51.3155 83.4239
35.5689 60.3063 89.0477
70.2339 82.2433 40.509
28.4843 53.6971 71.1437
36.0516 61.6208 44.3112
69.9777 70.0321 50.0482
52.7918 89.3482 40.6463
42.403 79.8663 72.4862
34.876 57.6527 52.4255
52.4643 45.1504 71.831
65.0598 72.3783 71.4289
35.1437 35.7616 68.2404
61.7578 56.422 49.9544
43.7578 66.0052 38.3256
65.1131 70.4636 34.9966
66.697 83.236 44.1454
55.0051 60.0407 51.2756
26.1634 63.666 85.1308
47.0294 77.7669 37.607
48.4208 44.865 86.3338
28.9448 66.6494 69.3716
51.8306 42.3056 80.0223
38.8401 57.9651 91.5893
55.4675 57.871 75.3973
38.2436 80.6689 69.1693
44.8669 62.1238 38.1916
46.4746 63.1962 85.0603
33.1019 72.5758 71.7085
22.742 58.2571 88.6767
31.4247 53.9562 88.9184
60.6618 73.2542 76.9084
37.8134 85.0212 53.1501
30.9252 56.441 85.1114
26.3508 53.09 91.9262
57.0185 46.4415 76.7815
71.4637 74.5542 53.3801
64.4988 75.1166 58.6922
32.6028 73.3363 56.4889
42.9614 67.4842 86.2797
66.7341 78.7092 37.0621
44.3773 85.5847 48.5526
63.7291 58.265 75.6161
44.0068 54.9533 54.0925
35.2061 66.5333 77.1818
57.9246 84.2341 37.5125
37.4004 54.1087 53.7372
59.5899 78.6021 60.6684
36.1457 78.3945 44.9484
49.8032 39.9163 84.7363
37.9448 75.9617 73.1601
62.6088 62.0101 63.3974
56.8824 87.3143 44.3873
31.609 52.1616 63.1087
44.5202 69.2791 83.6558
49.2807 44.2451 92.1949
62.382 69.5324 62.6399
39.1928 37.419 69.6117
59.5787 65.8229 80.6747
34.7586 70.0502 62.4646
36.136 31.8462 98.5137
37.8539 48.3376 56.6347
59.2523 58.4281 55.1355
32.6265 65.367 86.756
38.5352 75.9719 63.4512
45.0803 81.6517 66.395
44.0566 55.439 59.5651
61.4455 58.2368 81.309
47.4759 56.6602 38.0522
55.1953 55.5304 44.1651
47.4762 41.6108 66.5306
34.7835 80.227 53.0304
47.0796 44.6565 62.7218
42.5488 38.7074 69.4126
51.2808 55.3436 73.1493
70.2888 77.979 47.8833
63.1838 55.0979 41.5623
42.7632 50.1614 61.2209
56.5687 60.5737 36.902
52.4433 41.5605 88.3643
34.6012 78.6243 49.7499
50.3293 59.2391 53.9621
51.8783 83.3236 72.8141
33.7357 58.6699 60.4569
48.3401 40.0113 71.4093
50.4282 47.1874 64.6902
68.9069 61.5612 60.2313
46.9993 39.2679 89.5148
30.5845 50.2741 72.8708
60.0709 56.5501 64.2578
50.0115 73.0979 81.5573
35.5318 52.1429 103.515
50.2492 62.3252 90.0462
42.3603 74.4839 80.5408
36.7244 67.4659 71.7447
33.4994 72.052 66.6948
49.4241 35.9698 82.9139
43.0269 40.4286 65.8827
58.8561 83.0429 66.5705
44.1575 45.0244 92.2923
