ply
format ascii 1.0
comment Created by Open3D
element vertex 508
property double x
property double y
property double z
end_header
60.2267 116.81 99.2864
24.2335 72.0194 64.7931
41.3449 105.915 82.0607
52.4927 111.836 79.5117
19.0079 79.5792 61.8358
46.9504 113.94 173.19
67.3713 114.242 88.8959
48.972 18.5819 70.9246
19.3079 55.49 42.7687
48.7097 98.6371 144.55
56.3207 123.951 79.3436
20.4815 49.207 49.346
38.3457 87.8053 18.9994
30.892 67.3203 78.3917
28.4239 89.189 68.3325
38.86 28.6522 82.8246
35.128 25.7581 90.2249
26.8559 72.8978 78.082
33.1174 27.5089 79.7427
34.5288 135.191 153.721
36.9629 55.8366 87.1669
46.1686 98.1642 164.413
55.032 124.926 147.652
37.4977 78.0403 20.9114
63.5754 109.722 173.942
25.1353 80.4149 66.5554
44.4718 52.4209 88.3639
46.6461 75.7027 94.2956
62.1545 88.3093 153.613
43.6769 80.4786 105.011
40.6492 121.687 149.152
20.3246 84.8471 45.768
36.1867 65.9634 86.3662
21.8521 63.5682 53.7513
60.965 94.1724 169.25
38.4942 21.2177 57.2825
60.2377 21.2887 60.6015
34.1994 118.127 153.236
66.5244 110.261 97.463
19.3507 88.1046 55.2548
57.5996 99.7502 177.628
44.0563 23.648 92.1035
33.7816 61.2275 81.6347
46.1902 107.332 90.2106
36.7448 89.4514 73.6949
59.3821 133.639 168.793
55.0272 14.9188 70.8902
36.7414 73.7802 93.3605
58.0529 89.8674 163.442
41.7783 75.2015 79.3737
52.4765 23.3917 52.6716
25.4198 59.4686 68.267
47.5754 119.361 151.292
48.2074 119.301 139.068
33.9124 40.2044 83.737
43.3634 44.7167 91.8362
23.6108 37.2474 46.2629
44.459 145.53 158.378
38.2111 130.847 143.6
63.5795 116.929 161.403
47.2162 82.7149 93.6886
79.6762 119.668 174.628
23.7832 80.5303 25.8434
39.0777 32.001 69.2092
41.7778 109.994 144.226
41.3722 66.8358 93.8961
42.4214 129.56 164.393
39.9463 32.1001 45.333
28.1664 101.073 59.1151
34.3693 72.7633 82.5684
69.5609 105.539 178.432
30.6428 47.0833 62.404
37.2407 49.9754 92.0137
58.6671 109.568 133.859
61.0931 117.825 133.379
17.1394 77.4268 55.7884
20.5398 91.5938 42.4399
50.2367 117.158 70.8381
33.1604 137.89 164.007
37.9824 50.3881 54.2949
42.1939 98.0492 157.745
56.8927 92.1277 148.904
44.3218 70.4003 99.6241
40.4038 69.84 25.1041
62.5359 69.1805 93.7806
52.5758 118.004 180.022
36.5785 35.63 80.6541
52.8989 129.904 141.849
24.306 75.2622 38.4597
34.7479 40.5234 74.4765
35.0559 28.9584 52.6445
53.8214 72.0238 103.329
30.2984 54.4031 77.0378
58.8652 105.62 182.038
25.3443 59.2086 43.7544
52.7316 128.493 172.421
30.9605 43.3117 88.0929
28.5512 84.0208 41.5768
43.7942 29.073 96.4362
37.4981 31.055 92.5427
63.7502 94.6823 175.568
69.6006 93.7013 173.083
36.4949 45.5602 86.1761
42.9593 42.1196 43.3141
41.3604 20.8361 71.9434
65.6987 129.357 171.573
29.2193 81.8867 53.281
45.8448 42.1824 83.1275
62.481 126.253 132.885
50.2678 33.3421 91.5278
25.1341 41.672 57.6548
22.8531 70.2759 40.111
30.468 79.3969 32.8535
41.757 27.8034 52.3159
66.2823 117.255 181.86
30.4781 76.2652 48.3569
53.1809 87.7172 28.616
35.4084 113.966 159.716
37.9299 76.569 65.8756
29.2416 69.9887 44.3604
38.3466 121.846 160.234
30.5996 81.4556 14.445
16.9227 93.012 57.0059
60.5568 105.149 166.035
64.4769 101.894 181.274
39.3997 61.1233 90.2412
31.6793 49.1507 55.4026
37.9558 106.477 156.759
38.0306 107.847 43.0963
30.4764 68.2943 35.0384
45.2795 34.7782 39.6488
32.0529 33.9687 74.6596
30.5379 46.6969 40.1806
53.3031 20.1594 61.1343
52.8754 72.5743 77.9558
48.116 138.84 146.539
68.0228 117.766 172.647
49.3098 58.1673 60.6872
46.1938 129.368 150.832
62.0496 59.2059 89.2332
50.4477 69.9015 37.2642
54.634 35.8197 42.7067
48.3894 111.36 150.575
44.4055 112.701 138.757
72.527 92.8817 166.154
29.5289 75.4054 21.2323
41.9306 118.403 143.79
68.3747 88.2701 159.529
52.6626 42.6931 89.6898
65.4931 100.989 160.437
15.1282 81.8546 39.3694
40.8139 29.7912 76.6377
46.8319 136.566 161.022
37.4985 93.4904 25.7394
20.3357 96.8026 46.5141
48.3339 42.7433 38.1064
40.2374 101.197 150.368
53.7459 117.581 134.405
54.4091 80.1486 27.2111
50.3116 22.7146 77.8502
42.2844 70.3882 38.3029
56.6947 50.6709 85.5633
50.5665 104.512 81.4078
36.6572 61.1434 67.5243
44.7251 59.0734 93.0689
55.5621 25.773 83.9454
54.3582 133.17 162.254
40.729 100.959 46.1929
21.6711 81.2965 54.1086
63.766 148.601 159.243
53.5816 30.9486 52.7689
47.4087 32.9689 52.9719
55.7862 123.735 134.09
55.3693 59.86 67.4763
56.0485 88.4559 156.69
36.5702 76.0197 55.6934
28.5358 73.9108 58.1947
62.2096 119.868 89.0443
27.5475 92.0723 57.8183
30.6709 66.7155 69.0504
24.5845 49.8166 66.2099
56.2318 97.5332 155.939
71.6755 127.534 174.499
49.4566 41.955 95.4527
67.5537 100.654 138.981
42.2439 104.423 164.684
41.4671 67.4528 69.9389
55.7625 93.7738 173.032
41.8036 27.8225 66.5332
53.0439 85.9545 56.7812
42.9979 89.1896 48.4921
49.8779 85.1565 75.5756
56.5074 53.6186 59.6811
49.7331 91.2917 152.889
41.3458 55.4848 65.0789
60.4585 102.803 136.637
35.992 84.4375 79.815
40.3986 78.4377 42.3718
56.0363 136.484 142.332
55.2542 94.6766 74.8468
50.2006 113.1 135.569
32.6239 80.2935 70.1015
43.3965 58.3862 84.3665
36.0062 102.215 37.5024
49.9291 61.6462 89.7819
29.8477 88.153 24.7554
56.2937 62.8985 38.0095
36.2458 88.67 51.5211
52.0295 107.735 179.539
56.801 109.069 153.477
18.9338 80.148 35.2187
65.5151 125.642 180.604
35.0037 89.3949 64.6308
48.5709 128.857 162.372
43.4559 36.8168 48.5168
40.9878 114.54 167.28
29.7122 33.6336 46.5601
46.594 115.438 162.315
24.3819 59.7557 60.259
35.6425 61.2594 74.567
49.1488 84.545 65.6624
64.6871 93.2796 144.25
34.5039 92.4913 33.0354
54.0932 105.488 135.221
43.7932 73.8535 65.2898
49.6338 93.3828 161.593
44.2407 76.618 27.2621
49.6193 121.891 159
42.5827 63.2244 62.5003
38.844 72.4224 72.7204
28.7977 68.3624 50.8768
33.2488 77.3655 76.6147
71.4913 108.452 139.068
49.0707 58.8072 40.7674
63.2113 69.7089 74.4761
41.6262 134.632 151.272
36.9118 44.6856 42.8539
29.2993 92.6067 49.7493
54.9371 92.5658 42.4955
43.8208 122.197 165.8
64.101 92.6367 163.216
73.1364 99.4832 142.664
28.8094 85.5996 59.9707
58.846 124.493 179.957
81.7753 110.948 177.271
35.3554 80.1653 86.3349
38.9493 20.6587 78.3104
39.3012 83.8497 91.9628
55.6213 79.6954 76.9377
60.7839 76.0933 76.7591
29.7318 97.0152 38.5495
43.6264 54.4606 76.0832
33.518 56.4619 39.9835
30.8565 34.3105 57.2978
28.5846 98.0595 53.1187
46.9548 120.664 89.0069
63.0051 107.341 141.149
51.4326 83.9424 45.4537
43.2492 83.3813 79.7486
30.8659 78.7351 82.0462
40.5246 36.879 90.0037
34.8765 69.7832 52.1188
18.8503 87.1521 29.1952
56.6514 86.2077 106.43
35.3608 46.3572 73.8527
49.4209 66.7565 95.1918
42.057 39.8851 73.9278
63.1871 114.724 154.405
40.8038 58.7587 55.0277
66.505 111.091 133.721
43.7022 50.9429 68.1456
65.3121 108.727 159.79
41.6587 100.851 34.709
47.6691 45.4556 71.5905
33.1874 51.4993 72.1866
49.4166 106.843 138.092
34.0667 72.3426 23.402
28.174 89.4443 37.7919
56.2268 44.699 44.325
46.373 21.1982 63.0868
35.5918 30.9059 60.9218
61.4066 111.919 184.488
56.6332 114.211 145.003
51.8292 38.9433 76.958
65.6561 67.9998 86.3117
28.6373 102.544 43.9419
48.1442 100.382 171.241
53.6678 45.8329 69.1636
40.4444 83.219 53.7724
44.9966 23.922 53.3731
39.0238 78.8693 74.0282
56.9024 96.4804 57.4933
24.6695 73.223 50.36
48.9824 71.4505 44.2879
54.344 61.459 96.6311
53.7079 77.5268 34.3397
62.7774 122.506 169.078
47.2952 78.2688 39.3834
67.5861 122.626 142.348
58.3891 29.4985 62.3459
47.2333 72.5762 31.7453
34.7229 72.9326 44.0381
45.8539 105.851 39.756
36.441 74.587 31.6652
51.1547 48.9399 78.902
18.526 88.704 35.0463
49.1051 64.1787 82.1902
35.781 37.5239 65.6011
48.8253 63.8535 64.3215
67.4841 76.5126 97.0872
21.569 95.2585 37.2118
26.5189 89.2114 44.3192
60.324 96.3038 139.747
31.1252 70.6104 29.5802
42.604 41.1185 32.2485
21.1928 76.9891 48.7616
60.5356 63.7791 61.318
53.0528 92.7891 166.851
64.1792 130.494 140.789
38.4623 84.1 62.6877
56.4291 138.786 157.09
49.65 68.7927 84.8093
38.1728 66.4091 63.3475
56.8438 66.629 73.1628
71.9291 123.675 179.718
65.383 60.2912 73.9753
46.686 48.9287 51.7559
44.3317 99.7108 62.0694
27.6603 63.2263 39.9993
44.5408 48.8352 76.1933
61.5768 100.162 156.667
50.3252 92.564 82.308
36.1358 99.8068 54.8632
42.172 78.5496 33.1086
75.2491 95.1287 160.558
40.0499 45.3891 77.1237
61.7646 130.304 175.963
49.4987 30.2663 45.3376
68.3788 143.513 157.787
28.2799 60.4774 73.9027
45.1844 125.534 142.289
37.6026 45.0438 60.0681
38.2306 109.847 150.15
49.5977 30.2801 70.9727
46.8252 35.7195 78.9708
38.7597 134.607 160.364
52.936 76.2836 49.1423
62.7325 125.961 162.555
50.1647 106.564 148.002
56.3121 72.348 27.0987
47.0144 29.9725 81.7739
46.9712 76.1945 82.2932
53.4149 117.344 165.073
46.0853 89.0472 30.6842
60.8358 136.872 149.222
59.0223 19.6999 69.8643
29.4401 40.5642 60.2581
54.1074 94.5214 142.614
56.2693 63.8151 88.7851
38.8647 43.1564 49.7608
48.4729 56.821 68.4643
30.0419 65.663 63.3456
60.3139 88.6776 81.8368
72.0595 81.0184 88.8177
71.7016 113.498 180.017
48.7997 90.5261 50.9456
50.1812 96.5207 57.4177
70.3181 95.1297 146.447
45.9459 66.0993 75.8628
22.675 91.0924 62.6063
27.7607 51.3712 43.5756
72.0918 138.919 159.982
75.2058 101.532 173.437
61.5927 40.4258 82.4988
70.6956 98.0183 179.234
24.429 87.861 50.8431
45.8537 74.1126 72.0419
42.323 79.2847 59.6615
80.5136 129.141 173.408
74.333 94.3805 152.751
35.9479 66.0044 37.1066
52.5637 109.388 160.262
47.2727 47.6973 45.1131
26.2752 87.5187 30.3199
54.5848 66.459 66.46
63.2148 25.077 67.2023
35.5785 81.4623 37.9853
74.0527 133.806 171.659
54.3081 35.3057 59.6008
37.8922 67.0483 56.643
61.9804 86.5376 73.4765
77.0494 144.897 161.476
58.6945 101.909 85.0509
26.9845 45.6533 71.4887
42.7926 39.7746 60.5383
44.9897 85.5833 38.8864
78.7303 118.29 165.361
57.9961 54.3063 77.2661
37.8981 97.5094 60.5819
42.0367 53.2362 33.6086
57.0111 91.0512 35.2483
47.4228 55.9816 53.7862
53.8784 69.7366 57.8843
62.5662 135.825 161.133
44.0068 36.0906 95.4199
51.2073 85.5588 36.6125
51.3258 78.8426 71.4523
58.2759 43.1017 74.3116
43.3864 103.243 144.04
76.501 111.05 181.533
51.1518 26.6868 62.9741
25.3653 94.6276 27.9941
52.1744 48.2614 48.525
55.6651 59.7733 76.0151
58.6194 69.7219 43.1861
71.3449 142.007 151.142
33.6849 39.2374 37.2047
41.7943 87.2621 88.72
47.2955 31.5554 62.2493
24.0901 95.4269 49.9066
47.6496 80.5249 53.1452
34.8703 96.395 47.955
67.6534 136.934 144.372
47.6931 96.5747 44.0156
54.3789 43.7864 81.9006
57.1529 57.3378 43.5598
62.0312 121.543 147.23
40.1566 84.2298 31.7428
45.1092 81.3999 46.613
51.7998 103.363 155.292
30.8523 58.1644 58.2283
59.5978 88.8174 96.2643
63.5618 111.395 145.847
52.533 75.7905 85.3829
50.7121 51.5764 63.7831
73.8951 132.572 165.27
61.3192 74.331 69.4929
57.8448 114.874 164.908
67.0516 49.8116 73.4989
54.1284 98.7321 138.59
36.348 86.7138 57.9464
44.1747 44.3171 56.0162
58.1307 87.8443 64.3475
58.4511 131.074 155.802
38.5163 93.0982 55.6707
43.5668 61.2311 73.5042
58.7795 116.742 180.026
30.5641 47.8642 48.4534
50.1764 109.594 168.507
59.3238 37.2401 51.5985
47.49 91.627 40.9971
82.34 105.475 168.529
68.0838 122.116 155.133
48.7114 49.0645 39.4955
30.8764 41.648 45.1835
35.8784 73.5903 38.0766
31.1511 99.345 32.6492
72.665 113.996 159.078
59.1949 23.8127 75.7929
44.6318 66.3777 52.2719
71.855 107.475 167.488
52.9829 59.4309 52.5798
26.12 53.6704 56.4609
71.296 146.251 168.75
48.6956 40.5416 61.3458
67.1307 136.144 152.113
60.8019 33.2348 58.2406
41.4836 84.7661 68.9492
48.624 87.101 89.652
41.2577 93.5384 41.0417
53.8845 97.0228 66.5945
67.25 132.54 166.376
44.954 59.529 78.636
77.8803 99.3678 166.324
42.2288 62.3707 33.6173
67.7659 118.894 166.171
34.1483 73.5476 61.9762
38.9585 48.9648 69.4894
46.3156 44.249 66.0816
52.2277 50.7905 93.6145
57.5635 121.304 154.926
72.3828 116.019 136.882
63.8289 83.3919 92.8906
35.4815 56.0902 74.0046
68.355 125.925 136.103
42.2811 73.9876 53.2342
65.8333 74.558 78.6861
69.7841 92.5956 77.6537
52.98 84.7776 84.6994
64.3652 59.3107 82.1354
51.2438 73.7068 66.1523
50.8117 62.846 77.2924
53.1028 65.6862 44.1156
50.4724 55.3511 75.365
70.7795 110.554 150.131
61.8504 48.5007 70.1271
47.0461 97.8149 51.9277
37.2646 56.2397 33.5723
67.3954 129.3 158.274
35.9598 64.4649 47.2442
53.2584 52.2704 52.1299
43.3697 120.942 84.9054
74.7845 121.728 134.566
65.0612 91.0076 85.4361
55.6452 95.3084 48.8785
73.9258 125.18 158.807
68.1903 89.7095 151.27
59.1379 47.3782 62.6432
