ply
format ascii 1.0
comment Created by Open3D
element vertex 135
property double x
property double y
property double z
end_header
29.54 25.1278 57.9729
14.2122 43.7735 66.0002
14.922 51.6201 35.6184
29.4066 70.5431 41.2593
32.2031 40.168 42.2641
27.6944 71.9245 74.3915
31.3398 48.4106 73.1154
15.8876 71.2768 66.9624
24.1498 21.5892 62.3228
16.9488 22.5336 63.4801
13.12 63.7257 44.4062
13.594 58.7601 58.7047
14.1026 57.436 69.4787
13.9037 46.3542 75.5299
33.2856 45.9551 64.1327
32.1365 45.9779 39.6272
25.8812 45.0354 77.5329
14.7689 62.4484 35.3664
29.4645 26.3236 50.6237
28.312 77.0602 56.1479
31.8033 52.9475 48.1141
13.2063 71.7029 48.2379
30.9927 48.2627 54.7497
17.27 78.1991 40.562
15.7551 33.3853 42.5092
17.9914 41.0294 33.0943
24.7951 63.7861 72.9028
22.4907 20.1047 53.0663
30.9294 32.5368 60.3077
12.8362 37.3079 72.1944
25.0394 38.2843 79.9469
15.6715 26.66 41.0349
31.4853 37.9217 53.6867
13.591 36.7103 63.0113
14.1703 30.1766 69.3807
25.0006 80.9833 52.371
27.8602 78.2247 40.3748
29.6916 58.957 69.8848
28.5824 72.2856 33.9453
14.9238 21.9324 51.7446
20.5313 44.6031 44.5659
13.9407 64.0384 68.8674
21.6638 25.8243 69.8439
13.1335 69.4078 38.8782
27.4528 29.2988 31.7391
19.9844 50.9343 39.8868
14.4428 78.5433 48.8961
18.7966 81.0543 58.1273
18.8878 59.2245 40.7044
23.672 40.8667 22.4241
13.9869 67.6795 59.734
30.8735 32.9465 48.0411
13.9617 50.9254 68.8958
22.809 80.0518 45.5009
33.0472 55.8912 64.1054
14.9957 64.3222 52.679
14.2856 50.6877 60.4338
24.6615 30.7775 25.2793
29.5761 29.489 39.2251
17.0344 26.7501 33.5776
27.0739 44.8916 64.8392
21.821 25.7843 29.4498
32.5222 42.3158 31.5316
20.316 52.1486 82.3246
30.3055 56.4252 38.1575
32.5856 58.9009 42.5467
18.1721 37.313 75.7221
16.951 48.3535 28.8337
30.7959 38.6985 69.2123
29.2837 75.4835 47.193
30.5401 70.121 57.8337
30.4198 46.4863 27.0196
31.0954 53.9066 31.6368
23.9067 23.6304 36.8308
29.1993 63.3162 36.4597
14.5834 60.0093 26.5067
17.86 44.8814 21.5485
27.4225 52.7931 64.0366
27.7986 62.9276 28.4737
26.5956 29.8442 69.3892
25.6637 22.8672 42.1896
25.6362 75.5084 63.7525
12.83 28.9671 62.189
33.7135 38.614 58.7517
28.9283 34.4442 29.3824
18.0028 53.8671 74.6049
14.7274 36.3112 36.2314
22.1941 50.9099 23.363
26.5026 53.3917 22.5446
23.2596 72.008 27.3691
16.1192 39.3686 25.7299
30.4437 35.6308 35.8169
17.8748 57.0314 24.0056
19.0677 80.6416 51.5659
34.5606 44.1409 48.6691
31.3095 63.7961 59.3732
28.4504 39.9043 27.2757
23.8674 31.0863 73.9914
30.3644 64.6837 48.543
15.2345 34.0295 51.2169
22.2572 76.0843 32.7084
18.436 21.5165 42.7683
19.0752 45.866 53.3214
37.7584 59.4067 49.3915
26.7523 52.5824 73.7039
19.2562 59.7293 76.6857
18.833 42.471 39.0529
28.4646 72.4704 67.7142
19.2932 31.2849 74.2299
14.5717 27.5625 49.2753
30.102 31.3799 66.1753
20.109 47.7209 77.2754
28.6473 55.2331 26.924
17.6495 65.9623 74.1679
30.3005 56.8233 56.9083
30.1025 66.9829 17.4154
20.3246 37.5341 48.1365
21.9156 53.399 45.4509
15.6194 54.9151 50.3251
21.4941 64.2626 24.014
34.0675 58.9778 53.0174
31.4688 70.2495 49.9232
29.8591 28.9658 44.4091
26.6842 21.5736 47.5464
15.7394 40.4691 57.8834
16.4634 76.6 61.6681
20.2563 41.2772 51.4499
13.1221 68.0483 29.5392
15.0716 27.2091 56.0719
30.3204 66.2853 65.7204
30.7532 50.179 36.7941
16.1094 56.1031 31.2579
14.4911 34.5071 29.8005
31.9904 36.8751 31.2547
19.7209 50.5056 55.4629
