ply
format ascii 1.0
comment Created by Open3D
element vertex 207
property double x
property double y
property double z
end_header
57.2112 88.1703 41.8712
75.2038 57.0354 59.914
55.5084 101.095 49.9188
71.9889 87.8641 46.8895
78.6248 115.078 85.0882
56.8104 52.1879 63.1695
57.1498 81.7101 28.6979
55.2457 49.9001 51.8297
76.8929 59.1189 133.057
55.8947 110.373 50.1008
57.8451 41.7951 115.236
69.0363 62.7626 134.051
72.5573 99.0932 33.4777
70.0277 110.453 36.9871
68.0146 75.9808 37.1406
80.6552 55.6595 105.706
60.4388 112.239 40.9869
57.8862 63.9466 65.1763
74.1056 76.752 63.6943
78.6064 121.824 52.2638
60.909 63.9167 19.3029
75.5599 99.3576 46.9191
78.1013 25.149 70.9452
62.831 39.6573 100.71
71.5617 88.1208 35.3084
56.5884 96.0416 35.9485
74.9556 70.2298 131.59
81.5642 66.4517 132.147
71.0206 76.7845 48.1224
89.6392 119.01 84.99
49.7906 29.1704 59.8035
81.3819 107.755 66.5235
72.3444 84.7075 56.9365
56.0801 97.8284 59.3468
91.0541 45.3486 92.5038
77.0993 58.7615 71.4242
57.0503 69.0719 31.4373
76.1895 100.824 57.9778
77.9388 109.906 51.4361
81.1909 68.1536 81.4613
77.1685 90.7432 74.702
56.7467 86.6226 56.599
92.409 24.1426 67.3436
93.5681 114.458 92.4859
56.5464 64.3154 52.7707
74.4129 75.4888 124.67
60.8313 75.3166 20.0109
51.4669 35.4793 47.8193
58.7843 69.1045 79.0776
72.2187 122.844 71.1035
56.3841 62.991 40.6324
76.6803 119.801 78.9207
83.7517 117.419 58.9811
105.676 38.0932 92.2977
81.9089 32.0691 78.5814
96.8454 50.5895 106.36
62.455 40.8673 45.3813
73.6562 40.6739 79.9536
108.916 65.7193 121.514
83.2138 98.0985 76.3876
106.659 57.1057 92.2245
56.5253 50.2424 74.3107
69.2512 36.8926 30.2233
57.8912 74.0565 69.8995
105.467 79.7759 118.635
58.9112 60.0235 74.9767
75.0827 70.4398 71.4813
48.7482 36.4543 100.302
92.0343 94.2032 107.905
69.1558 122.976 57.1752
94.6103 54.1618 80.1316
87.5497 57.2364 127.077
74.3437 46.8934 50.5704
60.5262 53.5399 22.0906
104.595 48.3538 80.923
82.113 83.1392 83.0496
87.0304 35.4984 61.7644
71.4414 57.0953 50.5537
104.917 104.397 94.0159
68.2776 49.2676 26.6956
101.926 55.3852 84.8125
81.502 88.2033 104.841
76.2377 78.3794 76.7217
72.9434 43.1859 40.0159
54.9764 71.4364 89.0115
92.6563 45.1321 70.0446
80.2925 126.19 67.0135
57.7599 104.688 38.0228
108.094 66.1149 105.604
59.1613 60.7905 85.5616
53.6914 44.3903 38.3993
49.526 35.971 85.2308
88.3079 109.444 73.6591
87.6276 57.765 80.3119
96.1573 87.5147 114.77
67.5916 63.4033 29.1418
62.4548 31.2998 68.9836
55.5711 38.5652 30.4914
78.2347 55.7509 117.488
57.1676 36.7512 108.757
62.7889 100.398 28.8423
77.3919 43.6531 58.483
82.0752 39.554 83.8723
105.599 53.2172 115.505
56.9473 114.267 63.3846
99.4382 114.169 81.3095
88.7668 78.0752 119.961
67.6034 70.2892 22.5313
53.843 55.4894 30.4658
66.3201 83.5108 106.185
72.5857 68.1212 51.4072
84.4583 19.5894 56.9052
47.2061 41.6083 110.689
56.6523 84.9443 70.0053
87.0939 85.5983 112.336
70.0808 113.538 82.9134
59.3287 91.5434 95.1049
109.945 63.1739 112.814
57.0691 77.5143 48.8335
75.2743 93.792 66.0478
75.4565 32.9021 43.0924
73.0131 105.691 88.0739
84.3582 51.2112 71.9955
94.0915 65.7463 129.716
65.5258 53.9994 131.553
53.5562 45.3397 88.7544
48.7073 33.8426 74.2315
111.113 52.9348 97.9886
55.5745 28.2699 91.425
104.894 32.5573 81.4108
110.287 46.1063 89.8933
44.6695 50.1116 114.162
58.4029 76.5493 61.8425
102.06 40.1528 71.8919
61.9956 27.9002 34.2109
82.4738 78.8058 116.509
62.7624 87.6925 21.5152
49.4337 79.4519 84.6522
91.1156 100.023 101.479
53.4466 40.3752 61.6237
46.3992 94.2781 75.4546
98.818 107.232 99.7879
101.057 27.7056 73.5265
102.113 94.5173 109.469
92.4095 94.2983 86.4798
108.553 45.36 103.377
99.9849 58.5842 124.942
69.3037 59.3232 39.3118
99.2753 71.0395 124.486
52.9665 95.4293 68.5152
52.8082 48.5929 96.195
97.1221 104.222 82.5638
107.961 100.369 104.382
47.4938 51.8049 104.916
61.8201 34.3462 52.4237
96.6275 34.0881 65.3446
83.5125 74.2202 126.401
88.0226 124.414 74.7499
52.0995 95.1751 85.7508
105.042 93.928 93.6633
66.4728 105.31 85.3405
62.4442 65.6639 129.444
53.1483 25.2685 72.1869
54.3909 66.8214 94.2575
52.2157 47.7322 122.139
54.7715 46.574 81.21
54.9294 62.3081 129.031
68.5032 70.1646 129.034
71.6281 46.7542 92.6886
62.6987 46.7117 120.49
101.199 81.7268 98.7608
85.808 103.387 93.7137
110.261 87.6543 102.471
71.4098 24.9978 59.3544
62.3755 42.6791 24.705
70.3713 22.0835 38.8576
95.2023 34.1672 86.0223
93.7845 73.5732 94.0134
72.6187 79.8615 116.03
50.6398 106.78 66.7844
74.8182 52.1016 123.345
58.5354 23.1945 50.2141
111.493 85.706 110.667
91.189 116.849 71.7279
57.832 86.9144 103.476
78.8172 25.4483 49.1831
63.9454 118.276 69.4212
106.891 40.6492 78.2442
89.8496 68.5835 89.5029
74.7561 92.3864 93.9511
68.2579 49.4041 124.008
52.1738 60.371 100.806
45.1195 86.1369 84.5086
68.1347 94.6051 88.6512
45.115 80.0315 94.6749
87.5958 65.0075 132.044
59.8388 107.561 78.3673
64.3048 77.5263 116.016
64.106 114.291 78.7538
80.9089 107.582 90.6051
55.7448 71.848 116.829
46.3044 67.9789 104.906
52.7137 105.034 77.1915
63.6561 74.0701 124.822
80.4275 100.545 94.0352
54.1312 53.9947 127.542
54.1687 81.9323 109.948
