ply
format ascii 1.0
comment Created by Open3D
element vertex 313
property double x
property double y
property double z
end_header
69.2321 72.364 61.6855
73.3027 79.7182 122.074
43.0585 115.314 50.5891
63.1929 65.354 47.1907
55.1656 82.3839 65.1042
82.7719 64.5573 97.0974
81.9668 61.2014 128.615
64.1468 52.539 113.916
41.2256 98.9224 34.3569
81.4057 56.0625 101.204
75.1566 88.3237 96.6488
32.8627 98.5865 31.0703
57.6524 69.6351 143.849
69.9918 56.0966 50.1554
76.6641 48.2319 126.686
40.5488 116.823 75.8418
74.6504 57.777 66.4168
86.8214 35.3741 138.538
46.7502 117.565 94.245
36.6842 110.321 40.4705
31.411 121.853 55.0984
64.1652 97.4151 123.858
60.5566 56.8954 49.7196
64.2178 100.665 75.1731
54.7735 96.0474 57.9846
77.4546 61.9895 107.603
67.9295 46.4372 125.082
72.1163 35.5446 127.383
73.6221 33.9723 142.131
76.3273 111.659 110.717
88.759 69.3817 108.901
81.6279 77.8835 115.974
85.1437 39.1899 127.934
59.6835 103.259 45.3987
51.6418 41.8681 76.6227
54.6474 24.7449 131.786
68.8367 118.166 104.339
61.7842 49.8204 103.267
76.6112 90.5578 113.664
54.7243 108.347 63.4986
42.9967 31.5587 113.764
79.8042 100.388 111.539
71.4895 65.3599 98.0598
74.5313 116.105 92.9892
33.2156 124.261 81.7997
74.5824 72.8569 126.866
48.2539 30.0901 124.493
64.6655 82.772 105.946
36.6398 87.5824 34.4057
80.9508 50.5037 92.6433
59.3276 42.4462 80.617
73.7751 86.73 71.8859
65.4856 84.3715 67.0643
50.2538 42.0689 87.9065
77.5262 73.0991 101.925
96.3255 60.5141 148.848
37.6499 115.789 68.1582
87.4342 65.8871 115.384
80.7467 84.4607 121.06
52.225 73.9748 60.6445
48.5703 88.6979 95.2884
75.4851 62.4265 118.723
57.1763 110.025 82.6328
59.0679 92.0072 65.8664
50.8473 85.8482 42.2058
79.9023 80.2845 133.881
78.5265 61.4137 76.4926
70.2124 77.078 110.39
73.9046 100.231 115.586
77.946 79.4554 70.8174
79.1979 30.7379 134.53
75.7256 68.3959 81.7149
75.7899 51.9163 144.286
69.6023 104.99 77.7702
80.4572 113.931 83.2527
59.3131 109.237 72.9077
71.3164 58.4755 74.5816
72.1649 40.7086 97.286
28.639 73.9521 41.1711
89.8367 44.8533 138.786
51.1912 114.368 55.7875
78.9292 61.8979 58.506
67.8596 101.15 111.995
69.0765 91.4321 113.063
51.5121 92.9559 115.486
47.5815 108.625 115.373
77.1204 60.5728 143.063
70.4034 56.3456 118.416
62.0067 68.591 70.9468
58.8925 88.5342 99.7474
53.5324 114.27 70.8447
70.6058 61.6471 57.9151
58.5217 67.2948 134.478
77.6162 88.2115 79.916
25.0887 122.805 85.901
84.0885 75.5069 85.6137
46.46 51.4334 126.904
78.9538 42.9267 142.28
67.3906 45.4164 80.1698
64.3337 29.2677 128.534
91.4527 76.8469 116.223
72.1749 54.744 111.343
73.5996 67.7521 52.6163
75.8224 95.0582 89.321
68.1053 61.3917 124.025
54.793 45.951 65.5562
60.4182 76.4062 125.798
68.5239 92.8194 69.6417
53.374 52.9579 110.528
68.436 98.0357 89.8927
34.6565 85.2275 47.1774
66.3994 74.7426 77.7963
41.3708 120.601 56.4927
62.5702 115.164 99.8383
15.4648 72.4191 39.7034
75.3093 50.0355 104.542
50.1639 80.3744 101.709
32.5835 107.292 57.8451
56.8844 106.82 55.0173
50.0515 47.0537 95.984
43.9176 37.6925 101.553
54.8037 90.8619 49.5931
34.9565 124.495 63.8709
69.6942 83.1363 136.499
39.9575 41.0328 89.776
56.5222 98.842 100.334
34.0428 126.513 73.8534
62.2003 76.7111 62.8918
65.2524 66.3668 78.4298
42.4275 44.609 63.0388
76.7066 36.4922 87.9913
77.7739 76.4214 93.7604
61.9899 47.5903 145.016
62.7584 78.5831 87.0112
54.5128 65.7486 108.708
67.7298 73.2773 143.162
40.7038 115.136 112.613
55.9338 88.8343 88.5605
53.0428 101.86 119.172
59.6407 60.0727 73.5125
77.9164 72.2148 64.8491
88.9601 51.1418 69.035
56.0442 31.2377 139.524
66.6571 59.3625 94.5769
67.6854 104.316 103.536
52.0643 79.4813 90.7183
81.5516 82.636 79.7438
81.8966 72.2084 136.95
69.2266 46.6507 144.308
45.3976 92.2332 36.5597
36.8553 92.6212 40.5712
37.4873 113.923 93.968
55.0462 109.433 93.0321
24.9554 86.2374 42.9442
64.2419 90.3783 53.1473
39.9631 111.097 60.3024
61.6463 77.4255 135.344
30.5563 34.7387 104.731
65.579 60.6251 144.222
62.8997 43.0564 97.6706
70.0122 45.4031 102.317
53.6136 75.1129 79.6191
65.7474 71.9755 104.81
74.6376 55.5794 82.7087
62.9855 52.883 83.2012
64.8793 30.1525 137.865
61.8347 65.8558 126.612
67.9586 45.8425 88.6503
64.2906 83.7258 97.0919
79.4052 76.1527 78.0864
52.22 101.762 49.09
53.4631 71.6492 124.65
75.4613 68.5361 89.9825
44.0842 63.4277 84.7029
46.647 32.5324 133.901
67.9484 83.1476 79.2048
57.5598 81.0784 74.1836
71.4728 66.7868 68.6415
58.3272 58.0911 125.444
54.3372 85.0063 106.894
63.2673 64.2504 57.1407
90.1935 60.6852 143.413
66.6084 73.5034 96.8022
63.3245 54.4497 121.498
31.4411 63.9946 46.0417
61.6326 91.6233 93.9645
42.8904 105.629 55.0218
59.28 100.008 68.0046
48.7565 97.3395 39.4348
45.8351 114.653 68.9659
53.2487 64.3505 126.037
84.7892 67.1734 83.0487
45.4724 90.098 123.431
67.7261 66.3562 86.8533
71.0375 30.0854 94.7054
27.7888 95.6846 54.4375
67.0846 70.6792 129.911
78.9259 70.4579 112.034
41.982 104.452 106.079
46.2418 74.6375 96.1855
58.4098 32.8675 122.128
48.804 70.9518 102.173
59.8555 99.6795 53.3652
46.4331 119.03 82.3478
46.7664 69.5492 133.41
58.4181 53.5686 61.1481
73.204 100.592 96.5167
48.5533 114.676 61.9092
60.3792 91.917 118.423
52.6984 55.2768 100.348
71.2885 78.8478 66.3877
66.6395 53.0069 64.8507
38.0704 120.195 86.2982
74.2547 49.1813 86.0386
78.2219 46.9974 98.7916
87.1834 52.8182 142.804
23.7169 31.0778 95.2154
72.0504 95.366 76.9282
57.3252 71.352 90.2234
53.8641 51.392 118.651
52.2704 82.502 120.431
76.5679 66.2897 69.8356
75.943 81.748 112.854
45.9339 81.8819 56.082
72.0446 70.8244 118.424
33.0752 111.218 83.869
67.2455 37.896 153.673
67.1383 39.606 145.163
39.3263 108.046 48.3313
64.1805 38.2159 91.428
22.395 66.9421 43.4007
37.0558 134.702 72.0644
69.1054 51.094 76.6049
52.8339 92.5321 105.655
57.4812 46.5904 94.8134
59.1426 82.0524 54.9113
73.9938 59.9753 92.4884
52.9514 54.8811 126.165
43.3741 108.706 97.4429
51.3937 88.3658 58.2507
58.9943 97.6459 111.124
56.2518 65.0355 118.781
40.1779 38.7987 124.675
61.2567 49.8617 68.4768
41.8448 42.5415 72.4269
65.2241 62.95 65.1711
57.8682 72.3071 97.6198
59.7349 86.3008 110.949
64.3844 96.4035 62.4837
38.5058 39.0076 107.795
81.8589 71.0605 73.7319
51.8633 53.5018 55.5156
59.1267 69.3689 63.4446
70.5231 108.117 91.0279
40.8252 99.6195 92.3965
54.5372 62.4414 58.2598
55.5778 75.9372 107.381
36.1451 43.3602 77.1539
48.9587 53.0934 70.8225
49.5195 84.896 49.7006
63.937 52.8174 90.9115
72.1897 54.435 133.172
41.286 75.3664 53.4154
51.9033 57.6918 87.3917
56.8667 45.624 87.3995
58.4453 56.477 146.354
52.2837 115.318 88.4718
65.3404 82.7207 126.805
58.253 90.5436 127.345
45.2957 108.018 78.3458
66.4819 52.1192 107.77
50.962 108.698 103.879
47.665 77.448 129.643
79.2738 61.6398 88.0052
55.8563 64.9297 83.6929
63.1334 66.3984 114.278
43.9525 86.7812 103.236
61.4425 82.19 119.025
49.1957 39.8925 138.535
24.8288 80.3526 50.7504
34.5911 105.819 89.5109
72.1554 80.7501 100.674
54.493 99.5147 110.224
63.3103 64.6662 102.33
59.1279 74.2957 116.787
53.069 67.4956 72.5468
71.1745 85.1112 112.145
55.3955 97.4804 92.8456
42.2133 41.2938 81.8332
45.8119 42.8412 108.677
44.7516 44.6581 132.596
40.857 87.0644 89.6384
14.4819 108.651 52.2232
48.5546 58.0316 133.807
46.6184 44.0969 101.389
29.2573 47.8716 62.1626
68.75 95.8104 80.4535
49.291 98.2741 100.437
61.4593 108.803 108.866
46.6249 75.7121 109.906
50.7002 101.641 107.004
58.5529 62.3485 93.2845
54.7759 61.7303 67.1947
38.0815 74.869 127.771
42.8524 98.667 113.078
46.2572 85.892 111.875
35.1139 79.4656 53.3129
41.8576 52.5646 66.6163
47.4642 44.1593 70.6572
47.7459 59.3289 105.198
72.8373 81.5895 86.7488
45.6111 53.3558 81.5577
43.0229 99.6626 46.4981
