ply
format ascii 1.0
comment Created by Open3D
element vertex 225
property double x
property double y
property double z
end_header
55.0039 52.429 136.027
44.3078 32.6811 100.302
32.6189 49.3091 106.049
30.2025 40.2299 102.246
60.7609 26.2234 135.049
44.3567 34.2035 92.0587
28.0508 113.548 41.5881
49.0709 25.6447 132.04
46.8543 42.4813 123.683
39.4451 52.9201 110.25
38.8783 44.0312 108.828
63.6137 65.2557 124.684
49.3505 76.2018 95.2958
35.8933 74.0638 105.653
43.0456 56.8727 116.522
48.6399 76.0942 104.109
44.4952 24.5394 122.963
51.9274 41.0749 90.1415
43.1014 57.9867 84.3484
47.9203 67.5742 100.48
54.7629 38.9922 110.675
48.6365 50.971 121.321
40.6756 30.5919 86.4489
54.8888 45.1512 98.8178
45.674 33.7208 126.141
50.8806 36.1071 103.217
49.7732 24.2357 113.534
36.9945 20.0785 115.674
58.8209 50.4236 111.921
47.262 36.2499 132.239
35.4519 117.871 59.4105
58.0874 25.2868 126.397
55.8738 29.3174 138.256
56.7476 46.3475 106.249
48.171 38.1083 83.7765
49.2727 65.2484 79.6932
32.4748 61.2256 98.4344
55.4269 27.9646 119.082
31.0969 106.08 63.6277
39.141 32.6749 120.833
40.1387 52.0188 89.72
53.8955 61.2943 133.791
35.8048 26.0138 120.083
59.2118 75.8086 137.996
71.9077 50.9797 145.627
51.861 69.6988 126.8
33.0036 35.5083 91.5772
29.3702 107.299 48.5015
42.5029 42.5358 114.539
38.3206 46.504 94.0289
58.0801 98.5024 110.23
52.281 46.4768 129.26
56.2716 68.7362 135.685
67.5195 34.6596 132.211
51.7311 55.5645 128.833
64.3138 56.4622 144.149
26.3577 38.4301 87.8106
30.9838 116.161 48.6504
42.3781 107.48 78.5668
45.4662 88.529 113.315
48.79 32.535 108.655
41.6863 35.4463 79.9351
53.3085 65.5149 108.489
52.2728 21.1083 125.094
53.372 75.1158 78.0761
43.1091 54.2603 98.4009
35.1433 35.1344 111.412
65.6388 34.7759 139.874
48.5031 82.0594 109.297
27.6279 34.5114 81.2817
46.4852 88.007 121.742
62.4365 50.3218 117.875
45.1597 49.3085 67.4991
26.7606 23.4188 102.783
37.1655 105.784 73.3144
31.7562 22.2653 110.415
37.8574 36.1315 75.2398
42.9342 126.944 56.414
39.3164 75.1016 70.6095
49.0725 39.3661 95.4593
62.638 30.7381 125.218
59.8027 40.753 142.496
26.4337 42.908 95.1686
43.7058 57.526 77.0739
69.0535 41.3676 142.455
43.7223 42.395 71.4605
46.1747 77.7781 33.5547
32.6537 66.3476 103.186
51.6463 60.2522 67.6631
47.6352 39.2275 76.5474
34.5517 112.566 36.7559
74.3895 48.7721 138.76
38.6014 22.2538 108.412
40.1786 24.393 99.9321
36.2349 94.2312 66.346
65.7706 55.1193 122.018
57.5492 90.7884 124.628
28.8446 43.6345 83.3034
54.6448 33.4209 115.223
39.684 62.1393 99.6887
33.4251 101.909 68.8641
57.0056 65.7347 117.842
61.3892 61.508 83.9737
32.9459 34.3232 104.417
31.567 39.8704 75.1997
32.3689 113.322 66.8432
71.52 48.9448 131.787
32.2115 48.2536 97.3714
46.0034 64.2029 118.263
33.8375 69.6036 111.778
50.7894 84.3635 126.758
39.4074 68.5195 102.44
74.4178 86.1091 131.932
32.3626 100.211 48.7567
64.1064 70.312 142.779
40.8583 97.4109 24.6411
34.2511 60.3485 109.139
66.7219 80.8921 100.595
57.7997 57.6211 92.7923
34.8903 105.162 55.1769
54.4444 68.2823 71.6319
35.3257 25.9361 94.1751
42.2918 79.8149 110.066
38.7584 50.2866 78.1561
40.3772 62.5849 114.808
70.8051 40.5395 133.717
58.9746 70.2513 102.023
49.1839 76.5928 126.158
58.6126 60.4308 113.917
31.28 46.64 78.8329
36.6477 43.5797 70.8576
55.4855 82.1869 100.943
41.4525 37.2986 116.533
23.2293 34.0829 97.2107
56.6381 85.9681 92.1499
60.6217 84.5751 134.774
32.2567 99.305 62.9616
71.8072 77.0962 143.785
54.843 46.9614 92.0441
62.8769 49.249 143.191
51.4803 60.4704 123.889
30.9667 111.152 58.6299
29.8433 45.8823 88.5195
28.0741 29.2985 106.392
47.9368 89.3568 73.4211
42.8756 76.7375 121.664
33.0394 104.976 33.6116
29.9551 100.295 41.7131
62.0019 71.5455 120.775
34.4492 34.6831 82.8782
66.6477 42.7376 126.689
44.2779 19.5975 115.543
33.7758 94.564 53.1579
29.5385 106.552 38.3688
37.1578 89.1055 62.4811
40.9954 82.0228 119.605
53.9232 51.4097 69.237
28.5018 24.787 97.0138
51.2646 92.7531 108.976
46.3735 56.5959 92.9044
54.6099 57.6407 106.819
66.206 59.6529 128.023
60.8464 40.8644 116.09
74.5335 67.4304 144.003
42.7341 63.7151 93.3671
58.1707 90.093 100.994
39.8679 70.4551 118.073
53.8509 43.9118 83.6355
36.3743 118.142 41.1067
67.5041 62.9318 145.983
33.996 20.4065 101.911
59.4677 97.5805 119.463
60.8977 65.848 89.6868
50.1762 46.2441 72.5801
64.3364 95.0052 127.546
36.2857 93.4738 42.6088
47.1533 88.0199 60.273
36.7836 78.7818 113.322
44.1948 24.4468 107.74
34.0303 112.973 53.133
42.992 99.5601 72.1369
54.0109 38.5683 138.868
59.5907 74.8788 115.112
57.1252 72.1526 108.683
52.8993 76.9388 86.6347
45.3107 70.1393 122.43
68.1164 52.8228 128.256
38.4457 97.9112 48.6661
41.8541 118.07 75.0576
66.7936 77.6549 119.978
76.1218 68.179 137.551
73.2656 57.1685 132.631
73.264 61.8683 135.853
66.5896 81.5348 139.327
55.2307 46.1427 138.683
56.3649 79.4317 129.449
43.7422 100.322 81.5193
64.5852 73.382 96.6348
64.4008 36.4923 125.075
31.9727 93.7534 59.4094
53.9855 40.7292 102.951
41.8215 92.2388 70.7803
41.8684 93.5434 50.0357
47.6237 106.525 84.1547
57.5215 55.0955 78.94
35.1641 115 76.0276
37.4464 50.7388 98.6009
36.5837 94.4878 31.7515
63.3685 78.4658 108.005
51.2116 68.3373 88.3095
53.3593 34.3503 134.133
36.4181 56.0113 99.587
54.1929 47.0768 76.5076
59.1808 60.4138 69.8956
68.3909 71.3202 127.144
49.6555 39.9585 137.381
63.3975 44.2205 121.88
55.4822 55.2884 100.684
65.723 90.192 132.681
45.2723 119.715 68.1051
50.722 67.5429 93.9228
44.3733 67.3527 103.928
48.8043 30.8931 137.279
54.1196 90.1366 117.195
41.7657 83.3669 37.014
