ply
format ascii 1.0
comment Created by Open3D
element vertex 551
property double x
property double y
property double z
end_header
122.532 79.0369 50.5067
122.514 49.3856 89.2465
96.2442 85.2398 35.5495
84.225 43.9083 336.95
64.7802 91.4748 340.178
147.136 63.1649 82.306
147.236 62.5348 95.0832
100.273 38.56 318.066
30.5111 88.7295 344.191
142.09 42.5974 61.9111
41.468 67.2421 307.223
108.37 89.4748 55.0559
138.929 63.569 286.335
135.416 32.9089 58.084
104.216 77.6929 30.6556
54.0836 110.765 356.699
114.764 153.543 306.359
119.705 57.0073 34.3577
112.904 111.688 106.353
135.867 60.4218 299.981
64.5676 67.9389 37.8543
112.252 76.9193 105.069
112.644 75.0183 94.4523
62.1705 174.635 310.793
147.209 71.1253 99.54
118.795 31.739 40.3813
138.839 54.4422 49.782
146.343 49.6035 67.4096
78.3308 87.5391 332.085
120.41 38.9132 280.24
115.276 37.4169 62.8379
71.5052 79.9827 341.797
72.8787 54.0716 35.9585
139.848 39.4494 69.55
104.404 44.9685 28.8178
142.432 38.6576 80.6757
72.6384 116.03 83.0199
114.302 63.1085 81.1936
138.991 71.7136 61.9446
143.664 86.033 96.6739
66.1422 154.428 305.506
129.448 90.9411 69.9499
126.681 82.2427 58.7225
93.1665 92.0043 43.0857
91.3883 90.6422 114.282
115.832 100.997 265.128
82.4916 63.8302 55.8164
92.7057 36.0104 284.734
131.866 36.463 42.9508
143.484 83.5791 72.6617
143.896 81.7255 104.507
98.8473 69.1883 64.6465
104.774 61.5612 27.4739
134.064 37.5157 87.6326
94.8927 77.5878 26.7168
122.482 39.5008 36.8675
82.3347 43.7592 43.5227
108.221 48.1438 62.0685
96.7322 87.2491 106.903
117.072 76.1646 115.776
124.378 30.3067 53.4551
141.526 77.9459 112.284
149.195 59.2653 69.6024
127.363 58.1946 106.961
73.3793 70.4437 29.5604
92.6995 55.8771 30.9039
103.712 75.6487 255.166
85.8017 104.855 59.5272
130.908 61.9531 86.9956
93.3155 159.222 321.507
141.33 48.7191 54.893
114.499 32.6881 54.2557
97.5818 60.7779 59.697
144.522 55.2737 59.3301
111.785 69.9981 31.8216
142.613 129.237 283.818
71.8589 60.7078 31.2549
30.0725 89.3122 330.507
83.2009 63.0742 26.396
111.684 84.9297 118.56
75.4487 84.7817 37.8466
103.609 69.8062 27.1597
101.701 38.6239 33.2671
100.563 93.1823 121.524
90.0468 48.3932 53.015
111.502 30.1191 45.9552
62.891 107.374 83.1065
34.8234 83.5129 361.756
90.2715 118.197 315.768
33.5331 79.1112 349.292
70.8681 75.4586 66.5764
85.1485 101.459 51.2111
126.056 95.0826 256.688
84.3791 91.7005 105.306
145.339 86.3736 81.7624
118.719 87.3113 55.092
93.5968 69.0654 25.928
84.6103 96.342 43.4896
75.1752 147.685 306.492
65.6512 72.6574 283.422
83.4174 117.885 84.5043
44.629 111.857 367.541
50.8933 59.367 336.327
105.386 32.6489 40.2943
112.287 84.8708 46.6474
145.257 77.471 95.4263
105.35 83.7172 110.047
120.48 48.6002 34.5978
86.5443 73.4521 267.967
80.8338 119.463 321.646
82.1995 56.0876 26.3294
120.919 57.5738 95.2001
73.4835 95.8338 47.7537
143.256 47.4799 77.6545
123.027 72.8791 44.8704
91.2962 88.5978 98.2602
101.812 41.3044 273.16
95.644 114.9 109.287
72.7271 180.353 306.66
66.7455 134.064 313.346
119.498 64.7836 102.648
70.5724 112.099 73.4337
129.798 33.5123 72.5905
112.448 164.535 302.2
110.871 50.8278 29.2607
138.192 63.3456 53.1573
143.714 102.431 292.945
56.8682 114.766 343.491
125.813 64.7216 42.0171
68.8815 71.5608 353.761
62.2591 92.4782 50.9821
136.597 33.5237 75.4657
131.508 66.0157 113.994
113.546 106.607 86.5192
114.307 90.6616 257.741
143.62 66.7558 108.568
72.5716 78.4502 33.0349
90.8683 41.0822 30.002
97.664 104.568 67.5346
128.921 115.004 272.722
71.8594 126.737 309.264
88.3263 92.2432 281.236
105.945 49.4159 265.478
85.1723 61.2472 268.403
95.5131 61.2967 24.5403
111.354 112.995 303.883
77.4256 55.7355 277.323
56.8727 79.2478 53.0377
127.376 74.5019 118.734
77.3857 66.3531 276.338
112.978 41.0055 32.4606
70.1676 92.9966 290.157
76.1265 109.993 100.265
92.4518 101.656 56.8077
55.0717 50.5978 324.087
127.239 33.1887 63.2083
82.3961 99.6315 111.968
105.956 81.6249 100.08
44.2364 134.687 356.359
130.822 84.1425 252.166
82.7816 78.3573 30.5984
145.875 54.6163 76.4205
110.399 66.9925 252.694
112.603 102.424 120.656
99.2727 100.182 59.6628
137.172 91.218 103.228
94.0495 97.4203 50.2747
74.0283 43.2372 286.383
112.731 93.8843 311.064
84.1209 49.509 29.5249
23.2348 118.43 357.453
124.169 50.6184 264.312
93.9448 163.507 298.234
83.4736 181.266 303.988
106.996 57.431 64.316
137.235 57.2662 104.801
94.1031 170.507 320.561
69.9697 62.2874 51.023
29.298 89.0487 354.454
119.517 69.363 37.8582
122.938 103.999 101.606
81.1038 82.0139 74.102
130.172 46.5522 38.6262
54.0591 62.4506 347.701
103.139 79.0407 75.2324
98.4063 81.6796 96.3347
69.5084 116.289 306.64
110.154 64.3794 69.8455
101.156 99.1034 275.32
77.0295 75.8534 275.382
144.219 111.691 288.435
82.4062 86.6154 276.813
83.1118 63.2768 346.049
135.603 76.4376 118.433
85.5823 86.3699 32.3152
59.3554 37.8852 304.564
115.143 92.5989 122.988
24.2068 107.58 351.877
95.3805 103.792 312.16
102.798 107.48 118.718
91.0032 146.31 319.717
94.1409 107.6 115.322
130.221 96.2024 77.0462
70.2254 82.6759 282.732
103.944 36.8944 50.8251
68.9274 82.7688 72.7784
68.8203 170.84 321.158
106.848 126.22 310.124
72.7194 50.9249 347.15
100.497 33.1482 303.746
113.301 66.6767 88.0905
85.4733 114.617 104.622
142.565 84.1362 272.169
97.7649 82.9176 84.7435
108.302 71.6264 76.6271
121.315 81.4204 252.429
99.2518 52.4567 58.2788
118.898 44.2863 306.63
101.527 90.9365 46.3528
120.29 68.6708 111.887
104.457 147.406 310.953
82.9856 31.2856 303.685
146.926 75.5506 75.9261
143.304 54.8073 89.7145
124.834 90.5406 62.1949
116.009 107.545 94.5945
91.3131 83.7343 81.4019
143.457 64.3291 60.1759
97.8575 74.3886 330.015
55.7873 97.8547 358.617
122.735 110.147 274.57
106.872 175.861 301.659
112.83 77.8327 254.627
26.2935 97.3475 354.064
60.3052 73.3094 46.0217
79.7178 90.5462 39.8084
68.9558 52.9254 285.122
127.841 42.1722 91.9497
84.9309 33.8832 320.306
140.524 72.5505 266.992
79.9455 108.333 64.8573
58.6682 62.4391 291.448
43.2297 73.579 359.206
78.9303 43.7517 35.0297
60.2548 142.922 313.308
136.434 92.8532 95.6314
92.4879 82.3757 73.5626
103.204 53.4437 27.7117
87.9851 108.362 109.266
133.187 74.4202 56.465
68.653 83.9395 41.9
132.444 54.3873 43.3981
122.002 97.0673 71.3673
119.912 137.295 303.889
38.9036 146.013 339.985
54.4494 75.8127 292.027
132.628 68.5102 317.907
136.069 88.6241 76.3282
110.063 141.445 308.522
61.9119 81.734 42.4529
131.961 87.8049 117.284
75.6421 40.1396 325.339
73.9966 36.3493 296.426
86.1901 78.8083 335.238
133.165 63.1115 46.9618
102.672 109.075 80.7004
103.997 117.334 102.083
102.702 157.041 316.066
135.76 47.182 44.5431
34.4498 97.4476 327.204
103.13 78.0924 90.1006
86.4324 100.166 290.208
118.103 58.0963 86.926
50.0699 44.6651 306.795
113.216 61.0951 31.2367
85.9542 114.132 77.0475
96.1244 46.3364 27.4647
124.978 45.0282 272.116
144.819 90.4024 295.987
88.6827 43.0246 278.775
115.145 97.5723 67.5375
114.074 47.1356 69.9651
136.176 127.788 293.924
84.3616 70.5105 27.2901
37.6969 64.5976 318.259
49.7192 123.38 359.561
29.2264 89.3647 370.887
101.19 115.105 86.0611
87.2707 50.3083 274.296
60.0596 121.817 313.948
124.797 58.1188 258.189
117.022 55.4506 77.8798
142.42 95.7414 278.514
70.1841 104.865 62.4222
110.217 79.5532 37.8755
96.6569 51.2696 267.841
106.693 98.2482 125.12
142.361 73.2523 279.476
93.6239 99.9069 118.117
107.725 103.818 305.185
87.0417 57.5255 55.2385
84.1302 128.456 305.258
36.3895 93.4658 314.628
124.789 92.9715 119.278
104.19 113.549 111.347
33.7298 71.8785 339.004
142.186 99.2449 305.663
65.7217 112.669 331.778
57.9244 90.9224 66.7886
87.0059 87.594 92.0809
76.4857 102.634 58.5514
102.522 34.727 286.693
131.788 97.2698 310.228
147.336 86.558 302.433
142.879 45.0221 86.6439
94.5696 180.544 305.816
63.868 68.5256 51.9711
104.348 43.5832 55.8427
126.822 57.4772 41.3245
58.669 126.685 343.481
109.605 36.5575 278.783
54.4339 45.4306 296.699
67.3621 62.8067 283.25
69.9498 113.577 94.0743
142.728 88.6301 90.0071
91.2589 103.855 65.4274
65.2765 94.3851 83.9869
114.452 46.3572 267.888
97.8841 131.22 315.459
123.306 40.3121 79.7901
95.1899 32.2126 294.743
126.518 107.906 265.902
78.2044 70.9868 341.73
103.598 99.5501 68.3336
116.452 147.536 284.923
133.058 84.4851 64.3709
131.468 69.5392 51.34
61.6809 85.1458 348.739
107.965 103.822 273.274
23.8313 128.063 349.485
69.7832 36.2102 306.548
106.462 172.295 293.038
91.6848 33.4753 311.499
143.765 117.114 280.798
84.8043 108.987 297.72
98.9808 118.623 95.6879
107.633 76.5115 83.4213
130.019 95.07 85.2909
118.437 93.4665 61.9192
137.648 94.3094 87.8608
83.3704 87.8591 85.0525
94.5741 74.3111 262.263
103.876 88.6964 261.101
64.3958 46.4098 322.712
81.6959 157.579 319.256
28.6155 122.492 333.073
95.7138 112.707 78.8239
50.621 70.0077 297.784
75.7227 59.7579 353.005
98.9711 66.6592 256.851
112.732 107.508 113.36
94.9459 50.1464 334.985
51.1915 72.9993 365.459
54.6587 92.0058 294.658
109.739 37.06 296.312
46.0047 52.5438 308.535
89.488 75.6625 63.9774
86.7836 52.7616 345.302
116.201 57.6803 255.339
123.089 96.3216 97.871
110.594 112.125 278.98
63.301 62.2041 356.595
80.7657 91.8027 95.6915
124.791 87.1234 315.276
92.5422 119.006 101.732
60.0314 48.8437 290.662
134.816 107.652 304.306
91.295 117.96 91.024
61.533 75.2586 60.6707
143.903 55.9485 100.481
137.623 39.5514 50.8384
139.072 80.9769 258.047
121.866 43.3886 293.057
121.699 116.848 300.498
147.376 73.9614 87.5647
24.657 104.933 363.52
138.154 86.4176 109.51
92.5959 132.971 300.528
130.633 50.067 283.92
142.661 73.9424 293.745
58.9997 98.5777 73.1315
119.753 102.055 91.4312
126.748 68.9748 251.36
78.102 134.336 308.908
51.641 58.4064 298.169
134.36 50.8541 93.9795
123.909 83.1826 122.751
33.405 82.4987 318.724
39.1597 125.996 363.792
133.539 56.8268 266.805
130.507 96.2163 100.502
56.2244 42.8414 315.373
134.954 63.8363 262.328
81.5206 130.685 321.195
61.4542 109.88 308.437
93.7963 41.1316 325.971
93.2161 109.227 72.8359
114.756 73.4914 325.054
128.011 99.3153 91.5404
62.9983 101.495 338.071
93.9495 58.939 260.618
100.106 113.834 309.099
24.4197 117.196 343.386
70.0142 99.2149 96.6854
143.13 87.9663 309.352
133.117 82.0794 319.56
97.754 95.192 317.094
137.657 61.446 275.62
137.375 82.0906 68.169
50.6256 147.221 340.899
66.1283 124.98 330.791
100.777 110.412 286.748
109.479 38.0706 307.046
42.6541 60.5969 328.964
135.703 92.9308 63.2351
48.11 124.384 321.084
127.798 52.2313 100.808
96.6672 60.113 335.307
113.723 101.557 78.3745
35.1393 71.5482 325.342
80.2976 97.9303 325.237
55.8439 88.1561 58.5595
140.648 135.522 276.494
108.662 100.02 71.2824
57.3587 154.299 328.268
106.305 88.0466 317.497
105.552 128.832 293.069
133.869 143.25 288.368
42.5868 67.377 339.559
139.133 93.1132 80.4786
139.823 113.257 268.017
140.625 75.6908 314.058
33.2485 137.141 354.962
98.6533 90.116 266.6
108.96 105.834 79.1493
111.991 55.1399 323.584
62.4351 52.2361 338.361
141.029 46.946 94.5733
107.901 114.374 92.9864
127.792 51.8772 302.164
58.7245 80.3239 363.066
111.589 35.7002 288.236
104.211 172.144 315.539
119.605 99.9423 82.3496
42.7738 70.5301 349.475
32.541 103.365 341.922
50.8138 133.352 355.471
86.5031 104.882 318.172
78.6241 106.925 105.948
96.1345 86.4166 325.617
116.493 98.2308 113.065
75.3487 55.0029 49.6071
95.8171 119.246 297.161
49.1059 91.2179 371.038
43.239 80.062 301.516
130.569 131.545 299.012
127.193 50.1356 294.163
109.839 171.894 311.427
65.1465 38.3848 296.598
140.269 114.688 296.115
106.59 57.8897 254.915
80.402 72.377 60.5055
104.71 56.8847 326.325
84.0327 114.476 91.7674
116.569 68.0673 95.8037
45.3715 91.0483 304.206
126.108 157.239 296.9
64.0463 37.7285 313.948
107.309 110.415 86.9383
110.527 112.443 98.474
28.6362 134.107 340.476
31.5651 115.136 366.795
43.1652 56.1374 315.609
118.663 105.64 107.131
134.925 98.9282 262.078
74.1742 90.4686 85.0233
77.7113 33.3949 314.848
41.9823 81.783 372.253
121.28 63.0131 317.676
67.0435 140.395 326.99
84.0899 85.6683 78.58
106.222 97.3826 59.552
139.626 104.882 264.153
145.923 68.4728 68.8145
82.456 37.0878 288.789
55.4935 83.4808 291.286
84.403 108.456 71.1459
90.9181 85.7165 270.237
101.031 105.422 74.7368
34.7274 98.1208 372.78
141.162 92.3713 265.196
41.8036 137.951 323.848
124.842 56.5533 315
93.3406 117.088 83.9125
82.7996 161.906 298.486
83.9135 110.643 319.88
67.4433 103.818 93.0407
124.619 147.164 282.18
50.2228 105.19 318.287
88.5645 171.079 297.704
80.8898 117.474 97.8538
140.873 70.5994 71.738
122.21 98.2219 106.41
95.2672 39.3225 41.7555
121.55 77.6628 324.274
40.8103 141.613 329.767
124.449 97.5555 81.9331
81.4823 164.073 316.213
60.4363 85.0764 293.337
124.22 94.18 111.094
142.575 99.9091 267.473
143.536 81.1732 287.018
121.767 159.665 293.539
74.8766 48.0139 44.4055
75.168 156.692 320.253
73.9925 92.6351 97.2304
46.1361 148.482 320.81
123.669 135.572 289.627
121.058 100.334 116.64
114.118 55.4251 70.9346
137.288 106.107 270.8
79.3075 99.4968 290.743
43.2969 106.681 318.146
130.035 136.602 286.283
128.397 91.2741 105.6
141.044 90.1455 284.795
34.9947 76.277 315.102
119.499 156.023 295.857
110.466 166.108 318.555
150.917 108.612 266.763
80.1505 171.436 299.199
69.5066 156.792 319.457
121.591 149.789 284.702
90.1572 37.8509 41.0035
64.4269 104.286 302.551
23.2557 98.454 364.241
136.636 96.3276 270.143
124.986 158.224 289.805
33.6312 100.355 335.34
80.5657 105.879 321.439
44.6787 147.136 327.65
