ply
format ascii 1.0
comment Created by Open3D
element vertex 169
property double x
property double y
property double z
end_header
63.8159 96.0566 40.5638
68.6429 49.2094 56.3152
29.975 84.414 71.5904
56.8012 44.243 42.3564
71.3323 55.3566 56.3181
56.2947 83.4672 96.8067
36.2819 96.0904 45.5051
26.4372 76.948 71.8276
53.3926 57.1983 32.6136
47.3866 106.106 40.6157
59.0577 64.9158 98.8706
48.6967 44.4706 44.2698
38.0746 38.9565 82.7476
49.2815 63.5737 28.7834
49.2538 100.394 32.8923
26.3043 64.9678 85.2719
30.4301 78.474 95.7689
52.6538 117.96 68.9371
76.2172 61.0136 70.6246
48.7662 88.2958 103.961
55.08 94.3729 95.8627
45.0644 107.953 88.6631
44.804 79.2412 105.731
37.3158 104.185 49.4341
83.2506 73.7732 31.8824
63.9973 83.4407 39.4755
50.6 105.469 92.7375
32.5414 82.5544 87.8409
68.5347 44.3916 73.5546
40.6765 41.5752 53.1204
55.5497 114.823 77.3852
70.7779 68.557 67.996
59.6977 105.737 66.5566
56.0759 38.5286 47.7799
71.8665 91.9179 32.4418
36.4927 68.0949 99.104
28.5808 49.9854 67.7841
46.5758 21.8692 69.4415
30.9133 91.3846 49.6159
47.3742 55.939 37.8077
75.2837 69.3477 33.9946
48.5146 92.5878 30.8409
57.7758 105.8 85.1768
41.3488 88.4015 35.6099
47.558 114.177 82.4172
60.866 36.9934 55.9423
38.4003 58.2309 44.738
55.7999 111.47 28.494
55.3829 116.885 47.3726
53.4982 51.2702 38.2526
40.7274 58.5256 39.5437
26.641 66.4007 70.1504
24.5005 55.9585 80.4151
29.1513 87.1172 54.8719
82.0002 64.8588 38.7729
25.0967 68.0659 61.1835
43.8095 50.0365 45.9575
57.0916 116.922 61.611
73.3834 94.0848 18.3379
62.011 39.9265 71.1498
30.9005 96.3256 56.6321
66.6737 58.2464 32.8408
36.9488 46.7868 51.9849
27.1308 67.1254 52.4165
26.364 57.332 69.0622
82.4439 72.2722 48.5229
36.412 66.4874 38.8079
49.1606 32.6123 52.4842
62.7226 59.1389 90.7364
54.3469 64.81 81.9043
72.6285 80.4895 51.0232
71.0171 57.1248 46.4397
52.236 117.934 52.4995
70.3588 50.5687 78.3081
46.3264 113.002 52.8086
27.3793 75.7642 53.0831
27.358 62.0855 97.0707
41.0089 46.9547 93.9657
35.1647 102.812 57.3327
54.4656 69.6214 26.5098
43.4694 100.141 43.1321
46.3587 81.8108 32.0391
42.0638 72.2609 102.601
33.5668 38.0981 60.9229
72.7052 63.1914 81.0582
46.5292 32.7757 76.5947
40.7482 28.3081 70.8019
68.5396 40.6144 53.8787
66.7178 106.817 29.2809
67.6681 67.4048 28.2729
50.0079 40.1985 49.0786
63.8853 75.9927 22.9586
62.9387 39.2056 81.5667
59.2738 50.7856 104.389
65.0919 45.1513 44.804
61.2879 35.3339 63.5811
31.2259 41.9231 69.1399
77.3308 77.6952 21.9283
31.2207 52.7855 57.8841
32.5507 44.198 77.5657
49.3947 98.718 98.0357
31.3231 100.108 66.7637
72.7764 60.8138 61.5069
29.4942 72.2054 79.4544
53.6204 83.9442 26.6974
51.4656 112.201 32.2802
69.2102 50.2634 68.9923
63.3714 100.216 20.5171
31.1626 80.6588 48.1124
58.65 81.0442 52.3888
47.4552 28.3924 59.8855
49.2545 20.8518 62.1479
35.5852 86.283 43.1579
41.6397 94.9608 36.5561
44.6031 73.6314 30.2666
41.513 107.46 81.7296
28.8168 61.5102 56.5656
26.008 72.347 91.5057
79.5249 67.4909 50.649
64.4796 38.763 90.8834
53.9183 31.5138 80.8293
43.2994 52.4279 97.8266
37.9467 34.8426 56.4933
44.8987 33.2611 85.4648
33.2715 61.2299 50.104
31.9304 52.8441 89.5433
29.0172 90.822 67.1484
50.3941 25.7308 78.0582
26.7399 60.6134 62.616
67.5937 48.7551 90.9988
25.7306 75.8026 60.4347
44.5337 36.6248 52.6088
33.7154 45.8129 60.8619
31.6677 78.8347 78.796
38.503 96.3001 91.9318
53.462 73.6451 107.453
33.9329 34.2427 75.4096
76.1125 84.3273 33.0656
68.3531 82.3637 19.1353
71.1425 59.0654 69.3363
40.104 72.3539 37.4814
33.6566 73.9228 43.7027
32.6337 91.0449 84.6244
54.9864 39.3172 96.8134
56.6653 96.0968 62.7239
79.8097 81.0541 42.4411
37.6387 83.1932 35.43
48.2689 109.482 46.9145
33.656 89.6489 93.8045
37.1126 96.2734 79.6862
31.296 69.6279 46.2722
35.7005 104.068 77.0044
41.9184 32.2341 65.2239
28.3135 74.4514 85.4999
55.7358 92.8184 68.1601
28.1337 89.4156 74.2919
40.115 33.582 77.6984
59.0603 91.9198 23.3003
70.6548 52.8506 84.0339
37.1119 35.4642 70.0824
49.3372 69.5631 82.8973
53.0493 77.5233 65.508
28.1922 87.4768 61.0936
43.0361 62.0778 33.2294
41.7415 111.946 58.0165
33.6101 79.5884 40.717
48.7677 40.0771 98.4388
51.902 105.409 73.9229
38.0271 55.9967 96.6953
