ply
format ascii 1.0
comment Created by Open3D
element vertex 268
property double x
property double y
property double z
end_header
51.1011 91.2682 66.0211
83.8163 84.6919 89.9327
90.4882 64.3885 70.9335
68.554 94.982 38.3753
92.2831 59.4289 82.9321
66.5798 96.4797 25.6801
86.3139 45.3777 66.399
63.9132 75.8628 85.5873
64.2675 77.6053 43.6131
68.9509 78.6854 32.0068
72.743 25.5932 98.7964
64.5314 88.3463 49.1035
81.5656 45.1601 79.645
59.1113 93.5366 81.6354
95.3332 70.5609 75.6383
85.8652 55.2903 72.0554
66.0668 60.7809 109.563
56.634 84.4691 106.526
59.4521 43.0262 73.3255
67.7515 48.0591 116.124
79.5796 44.4338 92.6224
47.4274 72.086 123.577
68.6278 94.6216 86.3096
72.7069 95.347 30.5877
60.5845 43.6239 51.5647
71.6107 33.4864 108.555
70.694 60.0497 94.6802
73.9681 85.9588 99.3878
84.2176 51.4366 103.966
89.1732 47.7163 77.6265
53.9143 68.3353 70.1168
44.4139 24.4938 110.481
80.7995 78.0123 116.391
70.8915 38.6373 75.6624
80.2944 51.7843 75.736
63.5898 37.608 80.2367
110.802 80.9655 58.217
68.4086 40.7791 61.1442
64.7036 39.6944 110.041
56.8889 93.0106 25.5997
71.824 52.5266 91.6768
73.1527 62.1239 123.15
82.3237 64.3275 104.401
79.2023 49.8347 114.418
60.2317 47.3346 115.79
98.8373 81.1682 67.206
75.0749 41.736 82.5955
45.0788 15.5587 89.949
57.1678 47.3187 57.6769
79.2962 62.9057 94.5688
100.51 73.0938 64.2005
67.5315 45.6045 94.0139
79.3164 35.0375 101.044
89.9234 66.1762 89.6264
86.5108 42.9585 96.9299
80.4205 60.2885 115.719
46.9336 48.4687 127.831
83.4491 71.6248 91.4213
71.4038 75.8963 98.0369
68.57 46.148 66.901
64.4693 35.5806 68.8682
71.3215 41.7696 110.221
84.7572 37.4083 76.0589
81.9251 65.6988 81.1196
51.844 31.4317 69.1695
59.7892 16.8698 91.8498
70.2954 58.3661 52.0403
77.8904 78.9768 104.913
46.3969 95.6795 101.406
72.6004 37.76 96.511
74.0156 62.7346 41.6714
75.7272 46.6357 109.219
69.8633 82.9635 37.7624
99.8044 76.6161 45.4895
91.9473 74.1333 63.2369
77.6643 94.2973 91.7666
78.4767 80.2895 97.161
53.3051 18.4279 85.1449
54.758 58.2746 122.818
67.6442 59.799 44.1276
65.5191 81.3574 94.57
85.6088 73.7531 95.9165
62.8885 50.8406 50.113
68.1503 83.8898 112.401
61.4569 24.0448 85.8927
72.4685 62.5052 116.511
73.4547 36.9358 88.9517
77.42 39.2662 107.711
55.7872 33.1556 117.784
64.2217 35.9389 119.785
58.4964 78.3714 67.5949
72.0593 87.6424 91.2449
53.5929 30.4085 59.3826
53.4351 38.6936 118.691
64.1512 87.2206 74.6972
52.4988 62.1053 56.2493
64.4732 53.3174 100.698
65.734 78.6996 123.481
48.1922 68.6196 43.6325
108.642 75.4102 63.2476
44.3921 84.5186 61.0293
58.0009 28.3535 104.782
83.2938 51.4218 86.6951
62.6033 74.0336 35.6026
68.5472 48.2086 57.6961
63.7481 54.5978 54.9577
104.325 85.2814 61.3095
108.896 67.4111 64.9007
67.3757 20.26 88.8443
75.3753 43.816 71.1168
51.2268 80.2916 118.508
52.3014 75.6247 51.1392
61.4538 29.82 87.6631
64.3102 71.2108 125.081
65.0591 52.9112 62.9816
62.1346 49.3405 124.869
45.2862 18.095 109.891
107.393 80.3948 66.932
76.0955 67.2019 118.716
68.6628 67.4627 113.383
59.2429 58.6427 109.5
73.7465 50.1186 83.7637
69.1064 26.2478 107.805
92.2716 76.9265 54.1216
67.1693 33.467 95.8101
80.5949 35.8581 86.2615
77.5377 41.4074 101.052
66.8836 74.9884 108.374
70.5338 82.6523 105.504
77.1511 71.9578 87.4301
75.9817 55.5165 85.3238
72.4253 63.8722 101.958
78.4022 51.0911 93.9865
63.181 61.7426 57.9939
72.2674 90.4811 30.8301
103.045 70.3813 53.7289
60.23 23.0721 109.437
67.73 65.6617 121.524
73.4938 55.5965 112.299
64.4093 86.9484 21.1552
64.1087 52.322 72.1059
68.049 67.3759 53.0395
60.4649 59.6358 129.607
62.7644 84.6576 117.701
49.6276 77.7442 79.3363
62.929 53.9358 118.026
63.6521 31.2775 108.311
35.5914 19.0469 96.7302
53.447 68.6676 131.651
52.1501 23.6494 89.3716
47.1255 43.9874 51.7175
57.3397 83.2546 73.2
57.8739 40.0977 61.722
78.928 66.4168 109.85
60.5801 62.3351 122.496
62.831 46.9805 79.1596
51.6148 24.9025 107.506
45.8917 95.4107 92.5657
59.6947 28.1719 120.367
56.7952 35.52 70.3892
47.8468 31.376 110.732
58.9427 69.3332 104.788
90.4934 64.7242 96.67
53.5608 85.2171 85.0418
45.244 83.6288 75.1741
44.9785 34.6239 119.706
44.0225 34.9564 68.8381
56.2897 40.2853 85.0515
60.6236 69.6479 54.677
62.5582 57.2514 124.664
82.6662 56.8868 110.08
70.8697 78.4964 122.351
40.7701 24.0437 120.376
51.8272 64.6293 117.35
64.9467 34.013 102.098
62.7741 59.12 71.1547
56.8576 25.9848 81.8956
51.3426 26.6742 72.7626
61.1295 89.1882 90.4009
67.4375 73.5555 92.653
55.8894 46.1541 126.707
62.892 83.5672 101.472
45.5253 28.9153 67.2915
64.4782 59.7561 64.0329
58.5122 64.2461 47.7424
64.7496 89.8995 103.962
58.7492 28.6956 113.799
76.8311 51.3351 99.735
51.1468 42.2982 125.106
56.0348 73.0213 125.785
63.0336 66.79 105.966
51.8754 20.3796 96.8253
64.589 67.8764 97.4292
54.6684 95.052 92.1282
56.1974 67.537 122.435
52.8163 55.1105 49.2305
74.327 70.1782 105.69
70.4948 66.9377 94.5769
55.3313 62.5011 101.078
54.2803 86.9 117.242
68.6085 45.265 75.4987
75.9119 51.89 107.152
55.2014 82.0622 53.8248
103.919 78.0311 54.3656
59.7496 34.1621 93.3527
59.4861 71.6918 114.52
36.1839 96.0027 83.7395
50.8341 40.9623 58.4659
71.4537 34.0757 73.972
68.6418 67.1505 45.5029
57.638 52.268 109.209
77.1386 57.9513 103.645
62.1994 63.7754 115.891
54.873 33.6627 110.389
51.3808 52.9137 55.1771
44.1911 93.2658 108.572
46.8306 58.9713 126.491
60.6764 38.6269 115.481
60.9597 57.9805 77.5482
63.5575 52.0603 89.2958
50.8671 27.8563 81.7532
68.1465 65.5803 84.5712
64.7399 69.5809 65.7235
51.8954 51.982 125.681
52.0207 66.007 109.864
70.7223 47.0676 100.023
53.9524 58.1663 113.388
46.1499 22.4493 78.8692
47.9657 38.2482 110.295
72.9761 64.0214 86.7004
44.9488 85.9082 105.726
34.4144 88.2735 76.5147
54.0747 73.2806 117.303
44.6013 25.6738 101.337
48.707 43.6836 118.448
39.7132 44.2487 53.1561
65.8407 72.5871 47.6839
59.313 80.5675 124.125
61.2765 46.7912 107.054
49.4733 88.6421 110.074
63.0424 58.378 84.9874
82.3506 60.7212 76.6703
60.1478 90.307 112.845
47.2079 77.7968 109.993
42.8554 85.8524 112.215
66.6427 40.718 98.0125
51.4245 44.3402 109.423
63.2229 67.3133 90.3194
46.445 65.9528 128.236
60.9678 47.8375 64.9332
69.8414 85.0955 83.7621
54.7746 64.1044 128.422
49.8736 84.3584 98.6167
58.8853 72.9258 96.0466
55.6919 51.0554 100.812
66.5246 54.57 95.4432
56.8818 75.5643 77.5854
43.0018 22.5396 85.3944
51.7652 73.5558 104.792
46.4021 69.4086 57.2538
38.8577 28.7865 82.5645
58.0494 33.1234 80.9124
37.6154 89.1599 98.355
65.1414 16.7962 102.238
49.1003 48.3783 113.453
32.2982 56.3429 56.6117
42.0464 78.4959 117.178
41.7499 59.0439 108.212
