ply
format ascii 1.0
comment Created by Open3D
element vertex 249
property double x
property double y
property double z
end_header
111.49 65.5102 82.7103
78.1776 125.746 38.1531
133.529 65.8015 99.8055
37.1329 119.139 91.1357
52.8761 125.08 80.3342
27.8087 126.832 68.5508
111.001 67.5678 65.4973
86.4238 18.4589 121.112
117.733 74.8847 106.602
82.818 80.2593 64.7767
125.347 60.4985 130.547
42.9863 134.294 88.6855
129.628 69.6856 114.751
88.9569 25.7325 144.112
41.0347 47.8674 81.1782
64.7958 48.9175 92.5007
88.7909 114.365 35.8711
103.463 29.9885 145.196
88.2583 20.2272 133.625
107.457 23.4611 137.508
84.8099 76.4084 86.1195
126.841 73.7414 95.6161
47.0427 128.316 94.0045
102.982 72.3656 54.3587
56.3948 117.689 70.9682
55.9475 114.595 88.4491
89.6471 24.0755 115.534
44.6381 104.483 105.082
49.8012 88.102 118.43
125.454 68.2294 66.8662
102.105 71.0378 79.0546
32.5838 57.826 68.0056
53.0342 39.4077 94.0375
130.853 55.9549 106.183
112.33 76.5752 94.0861
97.6928 37.4141 151.53
60.7022 73.2056 133.226
79.0235 46.7448 152.904
57.3688 107.507 78.5087
36.377 104.023 70.2278
118.018 77.7891 65.9894
119.054 74.407 119.456
78.0958 38.9249 138.43
40.6993 104.574 80.7872
35.272 123.818 102.644
37.0598 122.694 44.0869
41.6618 138.327 81.2407
130.868 48.3545 123.161
52.8802 125.499 26.4766
75.4291 21.7594 121.781
111.11 64.6434 97.5693
29.0367 133.824 76.6419
77.4462 85.5205 50.6156
28.4284 132.195 87.3368
94.4979 104.624 44.9914
80.6704 86.5121 38.3717
36.6096 131.826 58.4017
61.7276 31.7744 88.3786
26.6168 103.649 59.8507
90.1192 63.6609 148.429
106.817 85.6368 56.1537
42.4813 44.2893 70.6586
51.4434 142.343 54.2677
101.998 99.468 36.0878
124.538 56.9694 88.2032
69.8839 132.827 35.6581
130.781 61.3513 120.689
131.006 66.2801 83.6267
73.277 69.4862 149.608
52.7689 114.597 107.315
69.3057 56.4374 151.653
99.1563 19.4153 128.809
81.2501 33.4817 104.631
85.1194 37.2459 151.37
91.6705 77.9407 54.208
74.3927 59.9819 129.414
117.555 66.3539 137.154
44.2194 102.405 93.0934
89.1453 50.3452 154.662
58.7004 139.411 41.6605
110.686 39.2649 145.41
105.699 93.4988 44.261
21.6663 115.438 62.0182
112.125 84.8444 45.4858
57.8508 101.964 55.3604
59.7627 104.024 35.5071
77.7434 27.5237 132.581
76.7226 22.0443 109.625
46.7256 51.7657 64.0316
118.573 34.7718 140.151
35.1452 60.2968 77.9569
50.1537 34.8333 83.303
63.6505 64.2743 145.38
25.9837 112.376 48.7003
42.5822 134.069 47.3488
61.1304 99.784 80.0346
120.763 71.5981 128.684
29.4095 121.511 56.7658
74.9004 46.3604 103.048
113.038 28.0059 130.665
122.142 59.7676 77.8382
48.0403 49.9274 94.3813
54.6551 98.2823 131.391
41.6324 86.6593 95.1155
71.1318 26.7509 99.4441
54.0889 84.6452 142.104
34.5621 88.3322 74.3481
96.1207 94.3465 29.9258
45.0298 87.7555 103.465
42.2282 107.13 116.8
109.503 74.0865 119.228
75.6748 49.2054 121.15
89.9725 32.8576 114.633
113.149 60.9606 126.557
72.089 82.7584 79.5255
51.0048 109.218 36.5939
49.5368 57.5507 73.7078
39.9013 59.7098 91.343
90.7622 103.681 28.3489
33.3902 71.4224 78.6732
88.2658 88.7335 30.4974
68.2918 37.337 89.6761
81.3182 57.2778 154.113
36.1146 115.891 83.3684
67.0525 94.7202 45.1614
101.207 80.0606 90.7867
73.4045 36.8028 94.719
95.6585 69.3455 136.641
41.9542 142.978 64.3864
40.75 123.231 30.6585
98.4184 73.329 65.629
36.6416 54.7833 59.3015
52.6685 120.701 95.4752
26.4393 76.9024 50.6557
49.8062 133.246 34.9102
64.289 30.517 105.812
82.0579 68.4456 140.466
40.6526 78.0633 68.2079
96.5312 75.9127 43.5807
31.2347 122.805 90.0751
49.0339 90.8721 130.344
69.5718 96.9864 69.1669
97.4114 70.6909 92.3478
74.73 49.3465 142.246
87.3956 79.7679 106.795
39.0247 94.1264 81.7268
65.219 79.089 146.402
78.7289 96.8963 29.1434
66.7098 127.58 28.1433
43.9779 127.182 106.944
32.9217 66.1326 53.2779
106.069 71.3198 133.162
123.807 74.2094 78.8592
71.0606 35.4571 114.876
43.5057 70.2638 61.3749
58.028 41.6624 77.8469
119.211 57.1722 140.637
89.3706 99.3542 54.4104
85.5758 44.5817 114.949
34.123 134.073 95.3284
117.11 54.1989 108.127
116.915 49.1322 141.376
120.065 74.2935 53.9726
100.949 77.8957 105.707
29.6314 71.6466 67.7062
55.4749 113.451 25.3125
71.0882 76.9863 139.014
65.5363 135.091 51.7324
56.9919 98.9037 109.673
105.019 82.4497 67.4159
76.8665 118.071 25.4255
111.998 75.2986 42.7184
67.5932 97.3822 33.7933
17.6733 103.522 48.6612
105.618 81.153 78.013
64.5363 119.097 23.2932
66.429 88.5939 63.8743
100.195 49.91 151.556
108.367 62.4218 145.288
74.1485 74.2464 124.464
96.3346 79.9632 35.0165
37.1813 85.043 85.3407
113.008 67.3715 54.4253
101.678 74.5993 115.755
103.894 87.7908 33.4034
57.4151 136.148 63.7004
107.753 79.1621 87.2587
40.724 64.8596 55.5222
39.1063 112.92 31.9361
58.5514 71.3677 115.5
49.1235 80.9201 111.447
96.5646 89.301 62.7253
29.6238 115.911 38.7609
34.5075 89.7075 52.0559
103.088 27.5555 122.211
72.7277 84.2356 100.637
48.62 62.2055 102.184
75.733 87.4615 87.695
76.0805 62.807 112.291
35.8877 73.4228 87.004
55.4233 96.394 72.6261
122.268 42.1252 129.72
99.6441 80.9356 80.1036
81.2806 90.5558 67.7663
71.0397 79.7448 109.59
68.2619 108.299 24.397
67.9534 73.5591 100.211
28.5198 83.4971 60.5991
95.4694 45.2459 122.704
68.5332 78.4287 131.322
89.7254 74.4393 122.185
48.5604 111.413 121.194
62.7505 51.3542 109.377
87.7879 71.8538 100.678
63.3382 110.539 62.5403
22.7005 92.234 52.1149
69.2124 110.532 57.904
49.1506 140.374 74.8298
50.762 62.1998 89.4167
113.326 37.1265 127.718
78.7348 114.457 51.4359
100.403 68.5984 104.278
25.8158 117.173 75.3371
102.947 60.055 116.899
41.2471 71.0242 96.719
41.5517 106.957 42.381
122.758 49.6997 137.846
78.5592 78.1975 111.871
66.9238 80.8119 137.31
47.0529 105.487 44.9615
46.2854 90.2782 74.3064
22.8907 98.0922 42.3479
109.826 51.9219 121.689
81.3203 72.4169 101.804
88.2462 83.5553 81.0071
31.126 114.36 77.5519
84.3739 74.6725 121.345
61.5303 87.0872 113.925
39.2539 99.9094 56.7046
62.2132 119.422 59.2944
87.6297 110.497 49.1398
58.0131 90.6094 106.026
97.4317 62.9097 114.42
45.0443 102.351 59.9188
42.1986 91.471 68.5275
74.1516 97.7067 64.258
28.3218 98.8493 43.851
48.6806 77.841 91.3904
92.7012 83.3114 80.4501
