ply
format ascii 1.0
comment Created by Open3D
element vertex 410
property double x
property double y
property double z
end_header
112.913 200.585 124.766
48.5249 76.5375 108.684
48.7536 134.881 92.3825
34.8866 206.997 85.2696
67.0266 89.2567 112.332
40.2645 214.995 95.2539
108.119 216.286 105.605
44.2284 156.419 95.053
86.8921 99.9178 56.502
92.779 82.9467 99.8779
91.8211 126.997 141.392
111.845 62.116 77.7787
116.618 167.143 106.317
96.5256 58.0951 94.9072
110.049 52.1806 73.814
76.3975 108.205 82.5714
95.5435 63.8615 102.397
32.4481 205.569 102.133
88.7775 84.0415 89.0172
89.3753 103.492 65.4086
101.875 81.8371 80.6957
80.6534 96.6195 90.7671
80.7384 101.159 52.7233
78.5467 108.765 73.128
45.6374 100.196 73.3999
46.097 96.8315 62.099
66.6977 74.3565 118.866
95.4268 73.5466 104.483
91.6378 90.8097 60.9371
49.5389 80.0109 84.5593
62.2837 64.4327 119.81
47.6805 186.563 155.851
116.433 171.233 133.508
61.9969 37.9538 95.4114
49.635 222.947 114.834
77.2709 117.811 111.317
30.9914 177.577 96.0193
69.1711 68.3536 118.322
107.974 138.601 139.1
45.2504 64.5819 106.174
33.2725 190.517 80.8802
110.843 205.577 85.0046
102.425 75.9535 92.8943
86.4034 172.875 165.743
84.2783 105.981 74.7537
86.8991 91.7002 51.1871
51.4908 168.597 160.402
110.536 45.1148 68.4518
60.7152 70.3325 37.5287
63.7023 111.098 82.948
32.1225 163.508 120.231
47.2439 95.0093 53.5932
72.5269 79.1751 113.44
49.9434 151.359 78.1815
102.244 63.0251 91.1026
76.8968 50.4097 46.2633
75.9954 103.729 55.6287
53.7153 214.351 134.339
92.7635 100.237 76.7166
114.189 140.941 124.6
58.9562 138.56 70.8571
70.5718 93.907 106.28
45.0793 97.8755 81.273
69.0433 47.9484 113.204
96.7326 93.9891 71.5882
59.6498 73.9616 118.782
80.4538 46.4941 36.8222
106.608 42.7481 62.0265
78.2732 106.766 62.2701
61.179 84.9099 116.38
73.3974 45.1226 100.795
41.1614 137.727 117.359
61.1387 107.665 94.3997
85.3714 84.6241 101.863
75.3162 180.795 166.66
41.1179 211.477 120.692
98.4502 139.392 151.86
71.1798 110.609 66.9163
46.8514 70.8318 103.015
97.2964 78.7085 92.0469
87.132 72.0812 112.519
74.4784 123.338 135.375
68.2698 165.285 166.677
102.747 46.8776 68.8789
91.3499 61.6507 108.417
109.747 85.5729 69.5264
60.0455 99.3388 46.4674
65.511 43.9325 105.676
104.659 68.3011 86.7767
95.3439 161.19 161.17
96.359 86.1817 51.3487
79.3954 96.1546 49.0175
45.4973 67.733 91.8806
40.1373 63.3924 75.9473
39.0252 72.8539 81.8982
102.668 36.2637 67.6149
50.2506 103.344 67.1508
63.4683 200.554 159.213
51.1957 203.021 150.066
115.919 187.004 109.974
91.5445 88.4295 32.1583
69.6374 102.292 50.4773
110.684 73.1136 78.027
61.4665 103.422 101.359
35.3104 155.397 121.29
52.4005 58.7053 56.722
83.8804 106.385 64.6605
63.9765 95.373 104.875
86.9904 95.8441 87.7656
47.9633 86.9146 82.1649
95.8881 42.498 80.1716
104.42 41.3869 53.3472
47.0759 49.6623 94.7539
69.1146 107.669 59.451
70.5807 54.3865 44.9272
77.8823 104.5 88.045
65.7056 106.025 53.3939
92.8349 54.1123 88.1101
58.8954 53.7351 111.585
90.803 56.9555 102.7
62.0731 179.846 164.62
59.2626 91.852 111.346
77.1781 36.8251 89.8508
69.1433 102.212 101.233
54.0642 42.9297 95.5745
98.9992 181.8 157.81
52.0741 214.747 72.1842
48.6703 102.45 85.6058
99.586 55.4693 83.5469
40.8541 59.5075 88.2582
57.6694 42.3204 100.241
86.7337 83.3415 108.928
101.197 84.7996 73.2517
54.2593 98.1014 49.5756
71.5199 38.7919 90.9447
88.8914 71.2528 26.7783
101.392 94.5202 76.753
78.5376 91.7172 44.1168
34.0881 176.565 143.437
46.6473 51.0478 72.6307
98.0684 44.8672 43.5595
81.0162 60.7316 25.6558
104.4 93.7127 54.6847
72.1545 98.3447 46.3082
71.6408 111.696 73.9861
100.282 35.1476 59.1533
98.4351 224.452 91.1248
70.6141 208.086 59.0972
97.4083 123.561 116.382
51.3213 44.0667 78.5378
41.3107 199.64 138.962
50.1722 82.3928 70.2143
94.1091 48.1534 39.2361
93.8981 90.8019 37.6056
56.6338 103.859 54.0024
68.113 33.7142 85.3771
57.4997 39.1782 89.0894
53.5862 95.4575 105.257
103.999 53.7387 79.758
50.4179 76.3243 96.7186
97.8584 84.8981 38.383
111.589 190.217 142.003
41.4085 78.8727 87.9952
82.8352 74.1301 26.8344
83.8301 86.2858 41.7898
114.619 159.474 83.6365
60.6731 38.0681 78.1324
100.171 87.7854 59.6219
47.5804 156.33 155.34
99.6036 88.492 45.1365
30.9822 192.895 125.18
39.4576 83.105 70.3787
52.6474 103.761 93.0875
54.8731 58.9927 110.962
84.878 90.9654 99.7988
88.3766 93.8096 67.2286
104.85 90.8546 63.3035
94.6923 226.914 111.596
86.7538 60.7055 43.2508
67.5506 105.375 96.559
73.1367 85.2315 35.0575
94.9556 152.383 67.691
84.664 53.347 112.897
76.1816 44.1117 94.4431
65.087 99.2311 44.7706
81.9351 45.2145 99.9535
78.7097 72.0728 117.469
45.8247 132.903 133.315
69.062 94.6293 40.7439
92.6271 33.1148 48.5067
103.372 48.2214 75.3468
78.975 84.1157 102.665
68.4527 110.206 88.4396
49.1297 84.2328 95.3638
83.7834 103.018 80.6838
80.6232 53.8975 41.0598
47.0639 94.5028 87.8017
75.1393 33.5826 82.0905
101.826 61.5618 84.0552
100.782 206.891 142.423
62.3151 47.8387 111.757
45.368 76.6845 92.0393
82.8939 43.9697 91.1973
92.5383 47.2298 88.7295
85.415 51.928 107.188
94.0568 83.4396 91.365
68.2862 55.4556 117.995
69.7874 78.5421 34.5099
69.3593 89.7725 37.5713
42.728 60.8597 97.5091
86.9392 48.2464 92.9455
92.7658 38.6419 45.806
88.6333 40.3435 38.4286
50.8917 107.683 73.1246
52.0931 53.7627 62.0277
45.1821 85.0741 52.9919
68.7251 57.6994 54.9303
89.3391 52.7773 32.9726
93.1216 51.5668 40.7616
75.0002 92.3211 98.0098
56.3223 62.5427 117.697
86.6885 93.4646 93.7655
76.1942 43.0682 49.2517
77.1282 85.1311 87.1946
79.0397 65.6917 38.1375
94.417 81.7273 33.0528
75.0603 57.6311 55.6227
65.1488 40.4229 100.883
113.2 141.605 94.1204
49.4049 77.3613 44.7776
49.6369 102.301 58.9918
56.4053 109.898 82.554
76.5541 43.2595 108.261
49.7056 64.8173 95.0293
84.0273 79.0062 37.3551
55.9702 196.583 56.3909
89.0178 82.0875 29.479
85.3726 64.0867 112.435
63.2493 113.106 74.8184
78.5881 78.2048 115.143
98.4535 67.0595 96.0565
69.3686 48.1347 66.736
96.4416 100.83 59.3759
83.5853 38.7815 40.173
70.3077 69.1404 36.7021
77.0751 51.553 53.1857
63.7789 87.0742 38.3392
60.4187 51.2541 65.6961
65.4048 166.928 53.7776
56.4377 50.6303 58.5377
75.4833 49.4115 114.753
51.9119 72.0026 48.5714
56.486 39.5256 83.5383
46.5465 90.3499 102.505
75.6531 65.0583 120.138
52.292 87.9766 110.362
59.5861 108.223 62.7573
100.66 48.3296 50.1558
86.6277 54.2343 38.013
78.955 35.5304 77.7935
80.1015 71.7355 36.5794
68.8898 38.3416 95.8381
64.8384 65.5604 41.1513
98.0059 47.0126 82.8537
80.9786 59.7901 48.4849
84.9238 228.775 106.293
81.7846 190.221 54.0121
79.8964 49.554 62.6344
99.3408 93.7535 44.4109
89.151 53.7015 94.6145
67.5132 81.5111 116.03
88.072 96.4318 77.2767
85.0389 83.0087 25.9109
57.2932 56.3597 52.2879
48.9771 67.9937 113.961
91.0945 96.5028 36.1842
67.0465 64.6249 50.8192
95.9031 40.9894 70.0456
48.3079 45.9951 86.4087
91.335 90.294 75.1111
98.1943 86.7098 66.5796
78.8749 56.8715 118.256
81.3388 90.4524 93.6858
102.988 42.4324 74.423
91.3634 66.8254 37.8846
82.7354 221.503 75.9241
49.57 56.5527 100.331
72.4526 47.9759 60.0074
73.2679 106.221 92.9239
66.2427 230.922 114.151
84.3578 52.1498 31.4714
56.2899 136.91 147.603
108.456 72.6452 88.2987
91.0402 65.1964 33.5457
58.2823 111.768 67.4734
46.9786 78.8472 50.844
110.403 51.639 80.6173
42.5858 66.1803 67.1823
58.4687 120.866 91.6385
96.9282 91.1405 53.6143
89.9598 84.0473 38.319
54.566 69.7221 43.1451
80.9069 47.536 94.1946
86.6331 37.4282 74.6415
60.8548 50.4028 106.365
48.4325 92.2799 97.9382
56.6228 108.999 89.3187
89.7925 42.2204 87.49
102.266 44.8327 59.658
46.0588 91.166 71.2327
63.299 45.0569 56.6207
94.3947 87.2991 77.1994
49.5118 106.658 78.7229
78.6152 35.8752 68.4726
49.1599 99.3712 96.7101
91.1112 196.286 157.308
87.7325 175.655 55.2653
78.4939 83.5817 108.197
88.7348 40.7858 62.564
68.8881 60.6673 43.331
43.9402 84.5057 59.1446
84.746 36.7392 88.035
100.253 218.47 126.799
51.2264 81.9686 107.75
71.3624 108.255 80.2984
95.3779 97.3117 43.9509
62.1143 77.289 35.9497
96.6234 35.7272 52.7024
88.9475 43.5292 50.5025
63.0483 37.6319 72.7256
84.4683 50.4254 102.946
89.1883 59.6996 32.8937
82.4208 226.403 124.737
76.928 55.5861 59.9009
83.2313 97.0419 82.6544
90.2894 76.1966 34.0284
73.7797 39.7181 70.4344
93.6102 227.659 93.0688
93.7158 122.524 96.4506
51.4575 58.8721 105.888
56.691 45.1258 68.0798
84.771 38.52 69.2605
98.703 96.9903 64.05
57.904 91.6654 41.9433
49.8264 89.9663 47.837
44.8443 92.6936 78.6563
70.5116 153.157 56.2749
55.6326 100.724 104.82
79.4155 212.428 148.182
64.1995 47.6424 62.2629
48.96 91.7702 91.999
54.2999 76.409 39.01
82.1351 61.3404 36.3801
72.5025 61.2459 39.296
76.7488 225.979 127.289
86.9747 61.5661 28.51
92.7158 204.621 65.1317
92.5644 86.1587 45.7992
56.516 52.0683 99.1037
78.6486 36.2715 61.7206
77.7259 83.3464 113.039
89.3149 37.798 79.5682
75.8611 155.623 54.5229
72.2614 51.5586 49.9123
88.6206 70.6658 31.6349
70.0302 40.0415 57.2761
52.6538 66.8028 60.1681
45.1299 83.0876 70.4872
43.8506 75.57 98.9069
99.2149 199.749 66.8256
74.127 65.4196 57.4938
95.92 40.2938 54.8228
53.8797 77.6389 117.68
71.3375 40.5367 104.843
67.4935 149.428 162.754
57.3468 44.4811 72.3992
104.954 185.651 69.0748
46.9457 142.47 145.686
53.0191 121.728 119.806
89.1267 45.5587 37.2932
57.2716 62.5713 49.8426
104.545 89.27 76.2481
47.0371 54.9079 66.1486
64.0366 53.8413 57.035
63.1764 59.9746 54.0536
59.9642 105.28 58.3159
56.4945 65.2316 56.7373
78.0486 90.8968 100.807
57.3733 69.9891 53.3916
79.6585 125.204 78.8424
76.4218 221.65 76.1041
53.2286 85.0021 41.3173
53.4156 75.3904 62.4538
44.7417 86.3293 64.8035
72.4229 61.8523 50.1457
51.0444 74.9624 56.9143
58.6426 64.7667 45.7853
85.3926 136.363 156.467
40.9884 85.9097 83.4247
91.3321 38.3778 68.6269
67.1928 39.6303 66.2829
90.6487 96.1862 42.2827
91.7344 86.2772 81.8531
73.7309 62.5422 45.8338
44.0714 184.127 68.9756
90.2937 54.301 98.9513
73.8123 39.431 62.53
46.5614 65.3794 59.1365
57.6374 119.634 116.691
46.7356 96.0454 105.287
