ply
format ascii 1.0
comment Created by Open3D
element vertex 740
property double x
property double y
property double z
end_header
92.6573 157.531 77.7881
80.5248 126.358 76.5963
50.5893 137.793 93.4237
103.609 101.513 179.163
76.5193 181.741 51.5172
103.094 148.614 197.843
55.3054 160.298 33.0297
85.5713 89.8301 222.423
93.9897 115.764 131.375
37.0501 91.2807 149.911
79.3933 135.248 98.2797
93.4229 137.733 73.3008
89.768 135.056 119.34
103.986 97.5436 161.115
92.6052 78.6628 135.656
100.634 100.469 149.628
103.765 137.574 164.056
103.865 127.375 154.409
102.559 152.471 173.461
77.7055 151.774 35.8523
42.0402 180.061 61.8689
48.2532 129.775 77.129
92.9089 54.6946 182.029
64.8551 141.98 208.912
37.9676 112.945 148.033
79.042 117.648 117.407
101.967 84.1748 192.507
105.094 104.811 204.303
65.2583 45.658 150.038
86.8081 134.786 59.0397
103.614 84.4961 164.204
39.7754 139.892 81.0676
99.7247 119.445 142.452
84.2744 163.205 194.968
83.9204 171.638 175.959
53.394 155.537 143.943
97.0931 151.344 203.717
76.6853 171.582 147.827
93.2036 165.886 166.123
100.457 151.946 161.669
100.107 130.792 140.877
93.408 145.098 86.296
102.771 137.381 145.691
103.993 97.8149 190.862
81.9629 174.084 44.5515
102.707 125.819 147.781
94.3462 143.893 64.9078
78.568 156.974 208.848
99.5788 78.1587 150.408
100.846 90.8729 158.131
92.1916 129.907 122.09
102.82 108.435 154.566
54.877 182.326 75.1142
98.8808 160.453 165.658
49.2918 152.187 38.0263
37.1771 103.487 142.665
47.7124 63.0237 175.408
67.0609 166.933 33.3442
102.066 153.516 193.54
104.087 129.105 166.706
45.1979 148.214 147.73
101.438 92.5067 165.681
86.5995 166.93 182.145
69.2738 186.095 63.4107
106.768 110.299 192.91
69.6037 134.291 225.136
41.8468 149.756 90.961
92.8793 120.216 227.673
88.863 168.422 173.319
36.4828 143.378 62.5066
79.0843 171.305 169.248
58.7886 162.515 151.439
71.1696 112.814 116.598
89.8499 147.845 96.1248
95.4938 145.62 208.003
98.2011 63.3445 173.942
81.1084 167.125 135.722
99.1138 160.851 58.9045
92.6464 60.351 154.222
99.7492 158.708 157.974
86.8181 146.1 218.231
105.456 95.7126 171.755
44.0157 90.1756 183.335
90.7743 167.404 55.291
84.636 115.912 228.901
52.9173 131.291 85.8625
67.0762 152.889 126.506
49.3344 84.3238 195.703
95.2776 155.793 68.7897
63.8199 153.733 31.2217
96.2879 143.882 130.808
86.6353 49.0072 185.124
57.6583 174.13 39.9359
42.3169 131.728 63.8529
104.812 113.93 169.097
106.09 110.053 180.629
55.7008 118.393 219.982
106.171 103.999 173.837
88.4115 68.5714 130.114
103.292 140.34 155.669
41.1322 141.938 155.586
96.8009 135.094 135.231
101.367 73.6897 158.843
80.8226 47.8968 191.7
51.1257 183.464 57.0161
40.6614 171.48 53.2878
93.0672 50.8321 169.899
102.205 80.3294 183.679
96.3535 164.565 149.047
104.522 88.2877 184.379
86.2578 70.8108 206.368
49.6594 166.921 41.8748
72.4755 65.4841 211.835
104.648 133.239 197.907
78.6005 62.8009 128.006
66.5066 46.9923 181.991
80.5469 102.235 118.432
63.5483 155.665 133.245
96.7484 84.3163 141.031
102.243 80.3166 174.984
97.1083 103.293 134.23
92.1184 54.8859 165.814
88.52 53.2677 152.882
90.527 166.435 80.0646
62.2849 133.601 218.975
88.8849 106.009 128.666
83.4262 125.247 117.289
88.3096 160.635 200.673
103.422 91.1107 190.159
94.8399 133.22 221.249
69.243 181.52 45.7206
63.7812 145.917 203.841
99.9486 105.753 142.534
99.0942 124.537 137.344
88.5959 48.768 163.918
71.2544 62.0188 126.576
68.2332 90.3005 227.353
92.3456 150.507 211.915
75.1267 46.1677 190.235
94.4952 82.336 204.44
106.839 118.871 181.941
89.6476 176.618 63.2604
81.7026 82.5864 218.304
72.8575 143.655 222.726
87.3988 165.53 135.936
46.9036 124.944 203.101
67.4497 146.089 122.725
105.806 121.591 169.048
94.6395 92.5089 137.395
94.1202 168.496 176.93
99.5 155.036 145.341
92.3645 165.444 188.106
45.9181 100.971 200.678
37.4413 118.053 164.526
100.132 132.237 201.164
81.0727 70.7151 211.061
97.6495 101.712 205.358
36.1837 166.32 59.3427
102.363 157.004 181.057
90.1336 141.182 123.423
87.1885 117.229 118.66
87.9544 169.583 165.6
86.0544 64.0756 205.083
91.8992 56.7165 189.964
40.942 174 73.767
91.4632 154.145 48.6511
88.4309 151.665 125.669
59.8449 65.0345 206.112
95.1372 72.2113 158.34
85.9169 156.519 205.934
51.4852 100.161 212.763
94.4615 107.776 137.894
102.04 134.501 209.646
98.0232 129.711 130.437
39.1202 161.278 79.08
87.6405 77.2316 206.064
91.7113 130.064 226.37
101.635 118.983 149.894
62.2133 75.4395 122.803
80.3862 42.5743 179.286
104.718 130.066 186.359
93.2993 65.327 150.082
40.2791 85.8824 162.573
66.5973 117.796 116.452
86.6455 163.63 90.0696
99.0472 85.8465 147.086
103.164 151.248 186.512
60.2892 127.721 69.2406
79.6338 70.1318 126.521
63.2645 169.416 169.108
101.772 125.637 212.306
100.327 68.481 189.937
75.2924 147.738 122.335
77.4151 169.061 36.3056
54.0809 185.228 66.3815
72.4417 123.246 114.655
107.512 125.046 189.559
75.3837 140.255 117.951
83.3519 148.478 99.5742
106.659 133.206 176.197
79.4664 87.8107 224.249
103.344 144.361 170.457
55.775 126.209 219.398
68.1821 127.111 85.4693
105.416 107.359 161.012
73.181 129.082 93.3278
88.1424 86.6095 212.69
104.085 125.587 196.554
37.0719 100.027 156.762
63.3159 44.7409 157.592
106.009 127.345 179.624
74.0614 167.656 138.957
69.6738 79.0596 219.276
62.1522 133.271 93.9146
48.24 94.9305 207.207
74.1631 155.388 200.586
79.134 56.9564 205.069
83.6717 54.7835 198.644
48.7266 134.863 126.993
57.0473 133.566 212.766
97.0248 165.146 182.903
94.4331 136.127 129.034
57.1562 102.404 223.629
101.596 107.072 214.773
65.1317 86.1363 118.674
72.1871 87.8666 117.423
77.7521 166.171 181.274
45.505 82.0244 189.468
72.1492 170.393 175.942
100.041 156.728 170.929
92.7789 155.976 202.399
40.8076 110.927 136.122
40.8992 136.14 143.474
74.7485 140.061 41.2776
88.554 86.4572 129.713
76.2765 164.227 132.143
65.0873 139.766 221.443
77.9622 170.074 175.891
94.2702 149.439 130.149
89.8406 56.916 198.751
65.9335 85.4156 222.578
63.9041 159.399 139.395
80.6807 53.3507 141.317
66.5232 55.8987 204.39
96.7863 136.707 212.31
44.3267 63.9598 167.338
97.1875 62.0477 181.524
102.455 108.774 219.202
101.352 102.008 212.269
96.3337 158.818 195.969
92.7427 95.5727 210.16
80.8385 100.642 232.357
99.0182 117.279 224.438
70.8044 105.652 118.819
96.6706 60.5404 191.875
91.8755 164.75 195.095
100.464 140.135 138.464
78.4498 149.386 218.729
101.48 146.403 157.367
61.7161 49.3064 141.8
94.9978 165.895 159.244
79.3749 63.9191 208.644
73.0188 156.257 129.745
85.9883 44.5658 170.855
43.6693 75.9664 134.734
64.8795 126.808 225.977
99.9542 112.079 143.566
45.5001 70.8749 139.7
68.0461 159.854 199.652
47.5984 132.983 58.7397
102.96 138.838 196.857
38.9128 93.2885 141.821
81.8083 144.921 120.741
58.7456 92.6272 116.74
53.089 109.327 217.712
103.898 122.85 174.331
76.2733 46.0825 151.535
76.7864 49.4027 143.497
96.2384 60.29 161.355
102.035 145.483 164.879
69.4939 162.627 192.11
90.0852 55.3303 160.221
96.4233 91.9562 206.505
98.9117 75.2017 170.693
100.399 127.723 219.812
82.931 88.3457 121.354
82.541 108.919 118.215
85.3433 50.6619 195.068
35.3285 117.144 151.911
54.4321 134.566 123.423
101.337 114.676 209.032
64.3477 66.0987 212.249
80.258 159.769 203.594
57.335 98.7024 117.016
106.377 141.957 188.038
101.357 116.083 156.335
99.2725 65.6369 184.964
74.1381 43.8785 183.22
93.2224 140.472 220.364
81.5077 158.417 128.843
85.5853 81.8156 125.397
90.9987 164.91 141.064
94.515 73.9059 152.322
100.312 96.0259 206.591
100.81 141.686 202.472
42.7681 74.3789 172.173
85.2954 60.4403 139.221
35.2421 162.249 71.4934
40.0264 151.915 83.4527
50.2027 66.8814 192.749
53.1016 98.9471 218.891
70.4456 99.2164 115.842
102.628 149.656 179.857
70.1184 171.208 145.067
89.4534 122.946 120.04
56.9163 145.643 33.3326
106.498 137.757 181.164
104.023 87.0359 172.531
98.9495 161.47 190.581
72.9735 171.043 161.499
105.209 133.205 191.644
56.3681 140.945 125.726
50.736 141.95 129.653
84.0169 175.796 58.4441
74.1836 78.3317 119.122
80.5796 155.513 125.064
88.8247 82.7546 205.182
75.3846 50.0042 196.759
47.9496 74.25 191.623
94.8406 103.943 222.663
81.2031 171.944 161.223
89.5338 94.6807 222.71
95.3296 78.8821 199.832
47.533 101.14 123
98.2894 154.569 151.417
78.7355 164.366 190.103
79.7117 47.1003 163.459
82.1121 48.0337 147.567
98.7348 97.8604 216.149
95.3028 55.9418 175.35
61.2686 103.234 116.342
102.355 72.6358 179.96
51.0802 89.2741 211.921
37.9191 130.626 155.576
100.331 122.453 132.081
97.916 69.1326 169.579
40.9811 98.7504 175.751
102.168 140.604 190.694
37.8012 98.7021 147.27
96.01 125.654 224.17
98.1412 153.338 189.171
39.6611 118.748 134.996
51.7399 123.907 213.884
36.7437 119.37 142.065
41.3967 71.5571 144.748
75.8758 83.7664 120.989
92.2162 155.384 131.824
77.5702 55.8662 135.125
47.5154 110.105 125.171
74.5921 73.1028 120.016
59.3926 113.236 225.165
94.3247 125.136 129.743
105.671 118.6 188.903
52.6153 151.15 137.507
56.8551 72.8317 210.68
51.0833 137.152 44.9032
91.6575 73.4266 201.183
99.4703 81.6831 161.998
87.9131 75.5584 130.663
61.2342 138.611 215.221
93.9924 117.183 124.98
94.7914 96.672 220.117
103.161 73.8759 185.146
51.2868 178.905 47.9542
42.8152 133.908 173.979
47.9787 105.297 209.984
101.511 104.481 200.245
72.9106 49.0186 139.378
88.1306 111.072 121.47
97.4484 110.175 132.693
71.5049 177.547 77.4689
57.8574 48.4239 153.513
100.275 147.756 142.95
81.8699 131.522 229.131
56.0664 78.6764 214.145
98.1571 164.732 172.38
48.5734 153.616 160.043
89.6693 100.326 228.571
62.2709 164.409 158.375
104.037 106.552 195.519
95.2656 79.8807 144.483
104.775 121.779 160.291
84.7058 152.604 213.511
99.7015 96.0273 195.336
44.0513 82.794 138.023
42.9097 100.581 128.776
84.5355 55.9189 143.678
80.5796 144.307 223.887
55.0118 149.497 201.263
37.3864 150.246 52.0748
80.3662 75.6075 122.206
97.1076 143.324 139.503
83.8497 139.261 118.845
88.1961 91.7976 125.997
92.0177 64.9267 140.201
47.0603 154.76 152.628
94.1228 139.833 215.264
86.8886 125.519 228.921
71.4372 93.4576 116.621
88.4907 170.505 148.658
41.3551 162.115 48.1584
66.0531 163.278 145.398
95.7699 89.1931 200.856
64.9629 181.194 73.6178
77.1134 79.2939 215.255
73.0394 135.229 115.031
33.1036 78.8365 156.709
56.9439 83.8917 123.801
91.2189 101.454 127.549
84.8043 132.597 90.9614
51.1996 71.5258 196.571
87.6721 161.651 131.859
69.2085 157.893 135.619
100.198 93.6232 145.186
92.8136 67.4514 200.791
72.8695 67.9645 124.022
41.0841 138.153 163.271
64.7704 163.979 153.262
79.2613 92.9131 119.545
80.9119 45.4726 185.806
99.4609 122.285 217.055
68.5157 106.773 233.708
55.0849 66.0643 185.839
87.1217 97.8342 125.576
88.8386 48.8888 177.726
75.4238 96.9202 231.568
60.0055 55.0069 191.082
78.1397 118.762 233.295
62.0056 107.38 228.382
87.1149 53.8693 190.89
100.019 78.2349 195.081
98.1512 152.461 134.856
67.5492 50.7912 193.887
76.5912 109.805 119.571
94.085 168.195 153.146
67.3057 100.532 232.777
46.5657 112.072 205.339
106.659 120.431 197.298
102.14 98.9406 200.577
39.9176 74.9448 149.592
59.3267 111.656 116.82
53.1308 139.376 202.162
88.0741 170.357 160.21
55.8135 68.0066 200.162
41.9079 107.21 130.587
42.7828 129.629 189.48
67.4287 47.8396 188.649
89.3624 61.5466 201.309
73.4177 159.474 192.108
95.1319 72.0582 145.597
80.1139 103.738 123.084
82.8742 79.7132 210.374
97.3567 62.0926 166.303
78.0315 161.189 197.781
50.2044 70.8321 185.711
95.8156 108.051 226.406
52.8339 72.0761 205.547
84.3405 167.438 143.861
79.3779 60.0598 133.25
82.9302 87.3922 214.6
86.2945 62.735 134.342
75.6582 102.951 234.705
43.5008 150.042 155.062
100.309 69.8238 175.796
105.418 144.088 181.625
64.3262 98.0055 115.705
105.003 92.012 180.388
75.3531 90.2418 228.275
47.6775 80.6663 202.902
103.883 134.126 154.898
92.0439 88.3492 206.756
39.9592 101.797 135.862
52.7354 161.255 176.452
82.7753 96.4224 230.865
48.9517 75.5988 199.997
99.3176 83.9135 199.584
65.3452 111.346 115.522
62.0589 123.483 120.646
90.6324 70.2098 138.889
68.4864 169.848 157.743
44.2184 138.34 137.293
59.129 116.979 115.769
45.9807 68.0782 171.76
42.4731 72.9705 164.408
61.4292 79.9675 215.335
87.8855 104.326 231.461
65.8855 164.098 178.016
99.7296 88.1649 129.941
48.7179 61.4584 141.29
75.2202 84.3594 220.946
97.5792 74.411 191.919
100.824 89.2126 198.421
46.9301 93.9463 197.77
37.1297 106.791 137.945
45.294 81.8614 175.392
83.3801 47.4455 152.444
60.6246 161.401 185.571
66.2797 133.712 122.381
73.4657 166.938 187.411
69.4644 171.081 169.59
49.1305 157.339 166.091
48.659 119.491 124.115
36.0645 124.264 146.39
80.4906 132.223 117.681
78.05 41.8046 174.312
102.805 116.989 203.334
77.6486 130.216 113.69
37.5598 95.4081 165.227
47.7223 76.9145 180.684
40.0727 76.648 156.869
83.1512 66.1178 129.707
95.4452 161.828 140.142
88.2714 137.403 223.987
60.5548 134.856 122.609
73.7321 70.3596 214.455
40.9882 125.83 148.7
46.8167 144.491 138.859
71.7806 45.0698 148.49
94.2899 112.849 226.835
94.7069 64.422 144.995
89.6174 56.7043 144.504
34.8809 111.371 156.888
69.7392 93.9912 231.955
82.9544 76.9658 126.691
77.5015 74.3497 215.224
72.2079 128.725 230.521
40.4042 78.4422 142.529
44.9356 64.9019 143.858
72.3985 167.9 181.703
67.2065 50.1209 137.646
81.7602 49.4444 158.634
56.0574 135.379 51.5947
39.6469 139.558 168.337
47.3678 139.832 200.346
52.0944 61.1578 182.781
65.3863 68.2935 123.223
77.0756 110.319 233.597
57.2543 91.1554 218.118
45.5623 154.771 171.955
56.9969 151.02 135.293
60.2389 146.464 123.692
89.8655 151.135 206.45
40.6315 131.121 180.73
105.229 140.506 173.399
77.4647 124.26 116.813
57.3537 50.6278 145.031
74.3888 101.065 121.074
89.9537 90.5155 213.685
57.1129 88.8891 121.499
97.7039 157.026 138.279
37.488 122.465 156.371
70.5679 131.754 117.457
69.7241 122.928 230.169
47.3902 60.4224 149.542
51.6642 73.4886 124.499
81.5238 93.5176 226.375
47.4848 145.374 193.8
67.7625 131.805 54.6607
96.0078 66.0358 161.137
66.7057 153.939 100.787
83.1481 122.092 230.611
38.2351 134.163 159.756
39.033 131.92 148.588
79.1075 138.667 225.625
46.2772 144.478 178.901
52.6327 160.745 160.831
69.3639 40.7732 172.372
48.9261 128.847 124.688
71.5215 84.7426 223.98
52.5211 109.903 119.416
66.4617 137.859 116.847
51.2059 124.998 207.417
65.2117 43.7444 177.187
53.4196 52.5144 148.637
34.1195 158.887 66.843
51.49 68.2452 127.135
61.8454 95.9145 228.198
95.8563 58.8493 170.723
59.4537 154.534 200.662
50.7892 160.184 92.2522
62.2076 170.26 161.491
98.7205 160.305 182.333
71.2463 113.028 230.15
44.8044 131.102 132.046
98.8545 71.8618 163.803
80.261 174.485 81.968
40.1882 139.889 149.909
42.6733 63.5243 151.69
74.956 52.7006 200.881
58.5959 159.165 142.599
65.9526 69.9767 215.518
85.8665 131.544 118.556
38.9257 83.9672 168.652
46.9648 86.4988 129.453
72.8924 52.9539 133.765
57.2085 70.5213 124.253
92.003 91.233 132.158
44.7987 65.8745 159.776
71.2675 43.4018 154.764
68.1263 147.992 213.372
68.877 46.5506 144.216
84.2348 108.308 233.137
96.502 102.742 217.234
65.4123 74.4114 217.739
69.7841 60.9083 208.676
37.244 111.626 170.126
39.337 87.6959 140.376
67.1774 51.7379 199.913
47.5289 57.5767 161.81
101.309 112.453 214.543
57.3132 49.0055 170.662
53.3019 158.629 184.092
59.0026 56.2641 196.181
66.6938 53.5666 130.336
52.397 104.365 118.652
39.0873 82.213 145.381
92.2879 86.4445 135.665
59.0202 92.0439 224.776
97.1916 66.7377 197.826
52.8033 125.876 120.662
44.0711 148.467 167.347
43.45 119.094 128.243
54.53 164.295 170.07
96.7069 97.1878 140.428
53.5835 117.253 120.572
54.4997 163.382 155.618
68.9889 144.771 217.241
48.4303 141.405 134.375
43.37 146.536 161.344
67.2384 117.226 229.401
71.3889 42.5817 159.269
81.3015 43.4837 167.514
59.629 163.929 179.519
57.4557 141.226 211.622
57.6067 148.936 130.024
77.5888 136.018 230.194
58.6515 166.089 174.429
47.6426 59.4287 155.34
56.0079 156.859 188.675
34.4676 157.29 57.8721
88.3701 166.061 154.605
55.7101 58.6483 135.476
68.2904 78.3299 118.626
42.7531 113.308 128.536
55.26 83.4811 216.578
61.4113 55.3483 185.414
55.3898 155.452 194.908
57.116 164.57 165.252
58.8131 145.371 206.934
51.0615 51.2407 160.196
100.47 122.287 231.068
90.7599 57.5398 149.014
73.7772 170.781 169.289
61.1141 44.5672 172.366
67.0642 43.508 167.061
61.2897 52.4766 132.992
69.2012 170.083 150.791
66.7807 128.857 114.897
76.0195 147.596 211.008
67.7619 172.643 163.484
48.3447 69.222 132.526
41.7525 84.7701 152.647
49.6779 156.142 179.306
52.911 141 208.593
50.7254 53.1204 154.829
37.9751 131.547 167.64
105.509 75.2866 169.03
48.3765 64.8258 135.391
89.8524 94.2034 216.148
84.8178 114.535 122.073
63.1258 107.655 117.284
51.2899 159.532 150.451
56.5683 61.6026 127.17
63.535 66.5406 128.338
39.2045 107.814 175.037
95.4442 122.146 125.81
37.6919 101.032 169.563
61.603 161.27 192.616
42.2741 141.231 183.345
48.7177 160.968 170.894
55.8479 61.3918 194.451
59.52 57.7074 129.495
55.0878 51.9318 174.885
36.755 110.101 144.309
60.0097 58.1253 201.036
102.956 124.927 202.894
53.6794 96.5554 121.408
64.9312 162.398 185.219
57.4658 55.8079 181.291
34.5366 134.28 179.907
68.5794 46.4548 163.343
42.4695 78.6493 181.054
48.1105 78.4944 130.535
47.2634 91.7678 126.048
52.3375 143.767 193.778
73.5206 55.1498 205.189
83.3369 164.693 186.359
43.6959 69.2063 151.363
39.443 124.312 137.87
37.7138 92.8536 134.949
51.9981 53.8518 170.184
43.9857 142.1 189.265
45.3061 149.386 176.638
42.395 96.7142 132.563
55.4726 64.7438 196.676
69.9858 153.385 201.824
60.2382 126.61 221.34
49.8031 153.317 188.483
42.2695 127.314 134.479
53.0703 56.4843 139.193
45.9722 124.584 125.739
72.4945 155.169 209.496
50.9432 54.5501 143.21
32.7825 131.749 175.729
44.7075 145.802 142.743
51.6249 36.9949 156.096
56.9127 48.6169 161.763
49.8031 55.9044 166.927
60.3632 83.5917 221.016
50.6796 113.032 228.324
52.9167 54.7016 178.261
42.1766 91.7535 128.033
59.4314 48.3439 165.704
48.6234 82.5747 125.345
73.8492 152.298 212.489
90.5784 154.563 105.691
65.0722 125.687 117.331
52.5991 83.8528 123.085
100.805 144.266 183.202
59.7535 80.9088 120.859
