ply
format ascii 1.0
comment Created by Open3D
element vertex 123
property double x
property double y
property double z
end_header
91.8794 52.4267 60.9969
34.929 41.7801 42.5443
93.096 68.9949 60.0497
92.45 56.7596 51.3336
42.7114 61.9258 28.8088
81.3798 48.7047 30.6289
75.9228 47.8804 82.3262
78.9837 31.8568 48.129
76.6297 41.0531 28.9456
63.8494 89.0535 67.4067
90.3966 67.4925 75.0126
69.5651 87.7157 53.0142
38.1493 84.7537 61.5848
90.1728 46.0024 52.1308
76.4087 86.3316 65.9509
93.3237 62.8756 66.3664
35.7506 71.5161 38.8307
52.1842 31.7748 70.0941
54.8678 80.2235 80.0896
49.3517 26.633 49.2656
89.9031 78.4244 64.0748
46.0342 83.0871 71.7505
77.2747 35.1909 69.063
33.2715 78.8555 48.4658
29.5109 68.4392 45.5967
81.2183 59.996 30.4271
83.2256 35.1194 55.7639
30.564 44.5622 56.8325
31.4244 56.2375 43.3662
84.4651 82.6812 58.7825
52.8196 87.9283 55.2936
71.8297 30.0386 55.1795
35.1262 61.6058 34.4791
40.0452 82.3405 44.8892
26.581 56.4348 59.4783
44.6062 87.549 53.8213
60.0789 63.236 89.23
84.9034 44.5701 72.559
55.7462 36.9904 78.0106
57.3481 28.3209 59.155
84.2494 41.0156 38.027
61.8481 24.2626 45.8495
31.0103 43.5269 67.6844
46.8194 77.9815 36.6355
53.559 86.4784 41.8937
39.3688 76.652 74.5738
88.0524 57.1239 41.0417
55.9622 88.3456 67.0246
70.569 62.1293 89.6209
80.4132 68.3572 84.0824
44.907 65.4784 85.6401
27.5383 59.0867 52.2423
47.3474 55.3207 24.5267
43.1406 38.198 70.9463
29.0554 51.5971 51.946
56.8669 54.251 87.9086
72.1688 82.7737 41.655
33.6478 74.3598 63.077
35.8449 51.2626 32.6611
59.7621 48.2984 21.2227
53.2014 68.6527 86.8354
60.2108 30.1439 31.3667
66.7289 74.3833 85.9307
65.3655 81.2609 80.0597
68.3808 45.1781 84.7362
66.8811 27.3065 55.7157
35.313 68.1242 73.3746
53.5402 44.9238 22.688
72.282 27.921 39.8888
34.305 52.8543 74.3048
81.2533 82.0496 49.3195
66.3137 26.514 37.8004
83.6458 76.284 44.642
56.5087 24.7062 38.7692
84.185 72.9298 77.8315
85.3351 69.5683 38.9207
87.6364 58.0474 81.4937
64.2834 62.1104 21.7589
49.0006 72.937 31.9617
42.3929 29.9947 54.9561
83.2558 40.1923 67.119
74.8521 39.2288 75.7934
86.762 47.8424 38.821
29.8239 70.3349 52.8908
63.8855 70.1633 26.3499
89.1039 72.5952 3.84186
56.9593 42.3767 85.083
78.3487 79.7953 77.7132
75.0875 14.6716 68.5515
49.009 30.0375 33.9129
87.7349 50.5342 79.3703
27.9588 50.1571 63.29
66.0845 29.9899 70.0474
36.6801 37.3301 64.212
77.6684 54.3146 86.6666
69.7852 79.0379 35.9671
70.8345 37.6537 25.9245
29.6435 43.4004 47.2229
44.2261 37.5197 29.7085
37.8521 57.3202 80.2442
65.2292 34.8861 27.2962
32.5326 56.6864 66.3366
88.9807 73.6904 52.9423
74.3209 62.5274 25.2222
77.1108 33.5394 37.2395
63.4847 55.1392 21.6202
57.9164 73.1861 84.7043
41.3847 42.9378 76.1128
47.7205 41.7137 25.4688
47.8775 42.7817 82.4667
30.6161 48.7545 43.6665
80.0994 69.2015 33.8697
40.7056 32.2411 62.2906
58.1365 63.0376 23.2294
72.8205 72.6994 31.0966
78.0663 84.2623 54.3833
56.3005 57.7514 63.3379
42.4811 72.2297 32.5679
85.3425 37.3552 43.0812
66.1512 34.8635 9.56325
65.2083 31.5951 4.00469
57.6443 71.1759 28.158
61.4362 35.8666 88.8839
