ply
format ascii 1.0
comment Created by Open3D
element vertex 320
property double x
property double y
property double z
end_header
26.6245 52.2204 100.023
20.0673 79.7687 88.0065
22.0979 91.1121 73.942
26.7363 62.6578 122.733
20.9143 87.789 84.27
121.621 93.751 70.8461
120.21 107.922 106.825
110.726 63.7389 142.696
30.1289 45.443 111.912
105.119 132.36 72.6202
124.81 95.3375 91.4839
32.3161 117.878 77.0116
120.774 62.16 98.2249
122.843 73.9247 80.3917
22.8728 63.0758 87.8793
60.744 139.948 65.511
113.899 122.829 77.1123
103.021 53.5274 147.195
24.5486 101.066 76.9249
54.6701 85.5013 72.7951
42.6224 111.491 37.4053
26.6751 101.656 60.8372
106.011 132.87 88.7449
44.6413 53.0984 53.9696
122.921 75.0609 115.66
114.722 53.1516 84.806
76.9295 144.413 62.2117
27.4763 107.503 99.9999
113.527 121.585 100.682
112.291 48.7799 119.194
124.717 92.1675 101.896
97.4076 139.293 61.5335
84.1907 37.3911 141.03
28.5311 55.068 118.724
124.05 91.761 111.052
21.549 87.9318 98.6602
85.066 104.965 73.5972
26.1693 93.5142 113.141
32.7799 51.032 128.833
94.78 133.976 55.148
25.7399 71.6697 119.41
91.8679 46.5704 149.444
83.4262 42.2027 147.72
23.8574 75.8614 70.8773
24.159 100.612 68.075
31.5665 105.922 50.4002
70.6241 137.646 52.5329
114.039 57.8622 131.127
63.5001 30.0311 134.619
124.232 77.0597 89.4279
24.6959 89.3405 62.0316
110.729 43.679 99.8542
90.3481 145.352 66.2636
30.9163 75.9575 53.2488
78.9576 147.486 78.8473
125.29 72.754 100.33
52.0012 34.7899 69.3087
118.729 62.1247 114.866
66.2523 44.1713 150.468
20.9039 76.3285 101.127
114.082 109.541 120.879
62.9646 23.0001 111.504
24.5856 85.0849 114.281
70.1907 145.028 69.5465
105.748 39.1222 108.328
121.136 81.019 125.236
32.1829 43.29 98.9237
22.6576 61.7521 99.4826
36.9994 104.041 40.8689
83.8578 25.3426 119.185
47.9704 81.7622 31.5903
81.1771 132.589 42.8636
96.5695 141.467 71.2637
119.002 113.301 84.3515
19.3199 69.2622 96.4507
33.0024 88.4814 45.7729
73.0794 24.9523 120.392
21.5607 67.9814 79.187
121.953 81.6136 69.6414
119.934 113.725 93.8094
102.828 121.629 50.9015
108.899 75.1166 149.246
82.1777 50.3033 46.0467
93.067 73.6791 22.3724
59.8585 137.038 51.2036
45.6009 30.6227 109.932
51.6458 136.069 72.0931
71.589 41.8992 49.7013
43.4349 31.0252 87.6423
120.998 93.9769 121.118
88.4499 142.689 75.566
90.4509 142.226 84.1609
41.0888 48.1508 56.1939
82.2661 148.481 67.6298
70.5767 55.7839 158.639
82.6621 23.2529 104.475
42.0305 31.4126 94.5232
28.0108 79.9257 124.046
117.11 65.4355 127.58
57.0041 44.7259 149.955
116.478 112.053 66.1936
114.967 82.8311 136.753
96.9336 57.8114 150.628
116.556 65.4658 72.5085
77.7262 132.916 48.5831
47.4859 70.5044 37.7739
72.1226 88.1639 28.1428
80.1558 52.8579 157.709
49.5105 135.856 63.7285
97.5442 90.0957 36.6783
112.277 105.817 131.464
65.3537 141.195 56.103
45.1478 130.578 91.9667
27.6206 103.844 109.666
81.7765 48.6856 151.683
43.3795 46.7302 140.63
49.5629 27.4827 118.355
38.2335 33.7347 101.493
90.4651 133.228 46.6289
122.946 66.9114 86.8458
28.3904 52.0936 85.7694
53.0939 71.1225 104.324
48.2909 29.8444 82.6986
31.8425 51.525 77.7633
54.0706 28.4232 76.5209
62.7146 141.026 89.9389
36.1013 68.7484 47.4482
92.2381 71.4841 156.585
26.3958 72.012 77.0656
92.3139 29.1602 109.407
68.5328 75.8083 29.7289
68.723 34.9436 59.0236
42.0086 43.0177 65.5179
49.649 108.297 31.464
89.1055 126.697 41.3276
116.642 96.9427 57.8597
33.6423 41.8588 87.8876
54.0051 88.2704 28.3189
102.003 46.4718 141.544
32.1529 61.7738 134.062
37.695 44.1247 128.355
74.5207 22.4081 95.6225
101.127 69.5255 155.473
84.867 58.851 41.2649
42.4803 94.258 36.625
43.7155 128.826 61.3684
42.9441 79.901 38.0095
61.8467 68.1002 30.8151
72.7639 142.466 95.1582
76.8626 74.3912 31.3723
37.9165 126.557 70.884
95.7357 137.712 102.444
63.5767 106.978 146.567
95.2586 43.3732 142.448
84.1266 127.879 125.82
110.813 47.0584 89.7535
115.714 66.9158 66.0577
47.8462 55.297 47.3522
77.6138 63.6086 35.2395
116.729 52.1589 103.543
83.1202 142.113 52.7164
68.3528 135.67 113.209
66.6852 46.189 44.4946
69.1661 56.2613 37.257
113.114 73.8115 141.644
52.5603 29.3946 130.058
68.8063 145.416 80.4359
105.325 48.6711 129.598
62.7239 27.8192 70.3144
52.2662 63.1243 34.6734
56.719 100.848 28.3552
34.1093 119.97 94.1517
110.088 121.544 60.4699
67.4411 61.8506 33.0075
114.377 95.0551 133.587
69.0513 20.5788 117.591
89.5055 103.281 148.988
96.8138 133.258 109.49
98.1026 114.534 134.798
67.9823 74.0135 163.911
103.728 129.676 56.4537
92.7553 33.5069 76.2831
80.4262 74.9118 165.006
55.9534 49.1119 46.0399
55.5699 23.1212 114.801
76.226 115.599 35.5257
103.972 117.309 128.078
85.7203 143.014 98.0779
74.463 31.9359 134.624
43.0131 37.3223 125.742
108.792 120.092 115.348
52.1333 81.6492 154.646
58.1008 80.3949 29.025
73.3111 32.1025 66.2549
46.1501 34.8625 120.843
86.2145 144.503 58.8229
59.2377 141.634 78.5671
70.4519 19.9759 102.652
104.955 40.8469 85.2826
87.5121 24.9546 96.5849
35.2434 84.9521 136.813
63.406 131.463 42.0312
90.2084 93.31 31.9209
39.3085 60.2153 47.2462
42.3555 41.6673 132.359
99.9761 38.7873 131.015
46.9183 59.2577 148.036
38.9899 120.393 107.173
60.8488 56.3486 36.5867
98.0149 34.0513 118.581
106.67 130.703 99.1554
34.9851 119.732 58.2647
62.4873 37.9151 53.5227
53.313 42.9326 56.3662
54.4826 21.9721 105.933
91.3897 120.734 41.5463
94.6725 140.396 92.0185
58.8403 42.5606 50.0853
77.8191 144.177 87.658
66.6977 115.29 31.6163
71.3974 24.9259 81.0985
76.1263 126.023 38.1756
77.8136 83.209 163.179
69.9028 135.335 45.238
86.7527 81.0735 32.046
59.77 21.3471 98.9629
31.3114 112.753 57.6045
36.6598 107.972 124.191
94.826 99.5856 52.695
66.6467 51.1103 155.19
81.9013 92.4991 29.7132
52.0194 94.2341 28.1195
40.1716 35.1084 114.038
48.9363 34.7191 134.223
110.638 54.4908 69.1002
65.4309 23.299 125.829
107.334 97.4909 142.475
105.164 89.3598 147.975
87.4195 36.4278 62.0134
63.0048 86.5081 158.486
64.8957 36.5402 143.517
32.3076 59.2372 66.3923
79.8293 24.7019 86.5681
67.2648 124.265 35.9361
42.8161 75.0944 148
87.8333 43.4832 52.8178
85.4882 70.578 157.887
46.3939 36.3608 69.9958
85.1337 131.056 119.912
49.4955 57.4224 41.5716
58.4649 25.2587 126.578
96.4966 85.0548 154.781
96.202 53.8101 50.4266
70.9016 97.482 154.668
112.366 70.5638 57.0058
105.241 71.8123 48.911
116.241 82.8837 56.9527
72.6219 51.3089 38.9773
52.6889 133.962 51.4074
90.2129 66.6591 162.14
97.4679 58.6016 155.786
84.0378 138.303 105.06
93.3113 44.1242 59.8586
51.7488 127.163 41.5057
40.1898 61.6602 143.856
50.6446 129.237 111.184
101.405 101.256 40.4311
61.9634 24.5078 82.4154
63.6301 128.098 123.562
107.505 50.9937 135.168
65.1566 64.6818 160.733
94.136 72.974 38.4854
40.0651 40.495 76.9242
53.8671 72.1775 32.0139
61.1766 33.3625 61.0248
105.656 63.0385 54.2911
51.6633 52.112 151.995
53.0935 136.561 95.6722
31.1766 54.6918 72.3546
104.659 54.0005 58.9352
64.8061 140.308 100.498
84.7415 104.229 31.6895
54.1124 67.6683 156.773
80.0043 137.202 111.258
30.7677 68.8406 58.4459
81.6588 59.6028 164.344
74.0274 104.225 28.7882
64.6686 92.4725 26.3873
73.4572 62.8914 163.008
49.1297 25.9775 96.3003
106.086 41.8569 123.727
91.6133 29.0872 89.8958
91.5543 112.67 37.5315
81.9286 111.27 145.398
80.3015 42.3297 50.6699
44.3689 128.123 50.0599
97.9999 97.0971 149.773
89.2829 84.1462 160.341
101.786 78.9352 43.4553
80.6295 96.6495 154.139
64.2799 22.1892 90.9513
50.3287 41.0751 142.363
98.2357 67.9076 43.2921
44.4118 90.1994 145.337
79.9946 120.759 40.1997
59.2306 107.693 28.3864
92.524 116.548 135.423
46.5425 45.4831 61.0466
83.7152 117.924 138.643
85.471 30.9666 71.2301
74.4539 40.717 149.937
100.832 44.2688 66.5443
80.2909 33.535 134.289
104.02 123.972 116.159
44.1299 121.287 42.521
91.729 38.7853 129.554
78.2424 88.3597 28.244
84.0117 83.4889 162.629
77.1985 123.857 132.05
57.8415 131.321 42.5486
