ply
format ascii 1.0
comment Created by Open3D
element vertex 176
property double x
property double y
property double z
end_header
115.405 73.4262 70.705
28.0067 94.9496 79.449
115.391 86.4222 75.3248
25.0219 62.8299 77.9332
112.823 77.4531 94.9171
24.7897 72.8189 91.7991
24.8619 61.5879 92.7886
102.662 50.8989 55.4265
98.962 115.107 72.5696
112.784 86.3313 63.9958
24.4285 85.8402 83.9416
28.789 52.9739 70.4609
116.311 77.9004 85.4749
110.735 63.9162 62.2414
109.94 65.4366 105.155
108.458 57.7645 99.5583
92.7163 31.5015 84.1071
105.533 43.6289 68.2576
107.905 98.8597 90.6416
24.0261 72.6161 77.0341
90.2746 30.33 69.8016
108.239 75.7402 55.546
108.817 50.8742 63.8611
31.53 86.0384 59.7944
116.736 63.9899 80.9139
105.264 40.3092 79.26
33.4138 102.647 71.9032
29.8067 54.2894 99.5598
108.987 102.035 78.9754
99.073 36.1818 82.2891
104.046 64.3948 50.9892
100.323 109.752 93.2806
93.574 120.182 70.1912
112.654 53.8455 84.7242
78.9695 122.692 54.7774
88.0257 47.5902 43.3198
103.836 74.1724 112.754
30.1435 95.16 91.6243
87.64 120.046 61.2902
99.766 37.6641 69.4784
74.439 39.6319 46.7042
85.4432 28.1163 79.7466
104.96 86.0738 51.6273
109.081 75.9284 106.226
94.3906 53.8057 45.4101
92.2281 54.5271 115.886
25.9832 53.976 80.9751
110.566 96.667 65.0305
107.271 49.2324 95.8964
92.4198 33.1021 91.878
86.5079 60.3279 122.684
88.1392 63.6052 39.0091
56.3153 28.6511 69.4182
35.8312 108.245 88.5354
56.3121 102.483 42.1385
84.8283 30.7693 62.3774
33.5872 62.3688 108.572
85.3402 45.3819 114.54
115.395 64.2018 96.383
42.1173 105.121 55.0122
90.7827 122.275 85.4171
84.3448 39.8944 108.47
104.021 40.2317 89.1912
32.7593 74.8662 53.8865
72.5285 25.8215 86.266
58.4891 110.229 46.033
53.4975 30.2195 99.4413
111.971 9.37064 125.246
97.139 41.3018 57.0628
105.647 2.85174 148.471
41.0559 112.808 67.1878
87.8238 38.2842 50.6094
113.966 94.3785 74.7202
53.5735 34.6395 107.983
89.909 36.4681 100.643
79.76 73.3565 127.102
108.146 84.6895 104.415
73.0573 53.0286 122.935
72.3463 31.2299 103.295
81.4046 114.511 47.4894
40.7843 52.7839 51.4401
35.0575 97.8745 59.1125
44.3212 32.6289 88.2691
30.5379 44.3683 88.1796
100.712 4.74419 154.449
75.2998 127.626 64.8811
76.9187 82.2934 127.367
100.406 8.24164 131.759
102.988 44.7995 100.904
49.305 29.6819 73.3576
35.3361 42.8339 71.4746
44.5498 112.612 97.6435
35.3075 40.4569 92.1589
67.0889 123.035 55.038
46.8238 41.9977 111.006
74.5237 27.9214 94.8008
98.8289 50.3797 106.965
51.0255 35.1247 60.1349
49.01 116.554 58.8318
65.3382 127.261 69.2364
95.9253 76.916 42.0492
54.3291 56.8929 39.5897
42.7125 51.7428 113.568
84.9142 126.801 69.1874
95.6234 108.013 53.6146
85.6601 49.7338 98.8897
56.6793 72.8244 36.7561
47.3737 63.8866 42.2366
40.6377 72.3035 45.8364
73.7613 114.062 45.8138
42.7236 37.7703 67.5054
38.9412 73.2297 113.209
35.7592 44.1052 103.82
64.2516 50.3124 39.5777
98.0783 103.121 105.258
42.4454 44.0489 58.1891
102.649 12.2543 120.254
2.0675 143.48 67.6783
3.52808 142.955 87.9007
33.8944 56.2928 59.4451
72.1887 33.5897 53.7757
42.1616 95.6501 109.322
48.9069 76.4133 40.001
70.9138 29.3765 62.7632
58.4226 118.237 52.5391
51.5757 73.4044 122.889
66.7591 99.1664 37.7371
39.7782 86.2197 48.0373
64.4512 39.0962 111.963
60.9582 40.7854 49.633
4.45985 144.919 102.835
55.5041 81.9555 123.721
78.5125 128.179 74.5909
72.7366 84.165 34.6439
78.8 69.8897 35.9952
60.9049 126.256 85.882
65.6249 47.046 120.226
89.0246 93.8426 116.802
51.4287 122.662 68.6352
61.0059 55.3504 123.878
52.1607 42.5931 113.656
2.11342 105.385 125.367
61.4269 65.6208 126.388
49.9655 54.3933 118.411
78.0282 97.998 38.294
48.3332 63.2289 109.768
88.9356 114.515 54.9079
53.9537 117.665 100.053
55.8234 26.1016 85.9503
79.2138 113.054 108.675
95.3626 86.2656 115.901
100.591 105.357 57.8728
49.5271 28.3407 83.0185
88.3574 116.264 99.3995
47.2611 120.825 84.9897
56.2692 94.4002 119.717
69.2514 94.8814 121.467
75.3315 126.401 84.1185
44.7731 86.495 44.0306
56.5153 85.8717 36.2048
69.7875 126.6 83.7524
98.059 79.2386 115.743
4.25523 145.534 82.2225
71.393 118.678 103.73
81.8203 105.179 113.479
97.5904 86.0728 44.3855
59.6297 46.9257 117.887
64.1264 118.972 49.8806
94.786 75.0599 73.1375
48.5227 35.2866 104.124
54.5194 50.8211 59.7198
61.4828 122.565 129.215
64.5222 30.3397 62.5464
85.4933 124.419 83.308
74.9945 95.6288 120.88
31.7024 111.387 74.6595
