ply
format ascii 1.0
comment Created by Open3D
element vertex 614
property double x
property double y
property double z
end_header
85.2394 53.2674 129.206
60.187 188.311 158.625
89.1397 150.885 176.346
90.8852 64.8895 146.845
27.1684 170.043 141.808
83.6239 76.6397 114.158
76.4378 107.835 107.65
83.3781 165.673 112.809
83.8268 51.9245 117.186
74.6112 94.4748 124.583
76.7566 94.5929 114.642
85.409 85.6216 81.8296
88.5594 60.086 152.656
44.2671 112.894 202.67
78.4943 68.0899 82.1497
85.0345 171.623 86.369
85.6992 113.414 86.5987
34.7194 134.13 80.816
80.6687 93.3269 54.883
37.5121 56.1968 104.591
34.2394 56.6572 127.625
84.5046 66.3001 112.405
78.3902 55.069 167.037
86.5814 61.7064 121.591
74.6337 125.121 106.276
28.4108 174.42 120.377
82.8522 86.121 68.1246
91.4436 107.894 184.096
86.1012 139.708 154.344
82.8339 56.8663 109.482
83.2255 82.3818 130.814
86.5232 67.0776 170.646
85.4332 174.734 108.733
88.3526 60.1628 135.713
81.0954 92.7791 198.514
76.9099 47.6836 157.122
80.1465 59.5265 95.6769
42.2347 164.5 186.025
90.0534 110.934 77.9122
84.7771 50.0162 144.22
87.0789 161.119 87.5179
85.4616 71.6569 121.147
87.0952 92.8 191.758
81.7431 107.379 100.178
87.1181 81.339 181.284
86.4013 143.209 74.8226
83.0425 65.4494 103.029
84.4065 145.413 191.128
38.9454 60.295 94.1097
73.6474 70.4 69.4353
73.626 41.5444 126.9
88.8154 108.614 193.469
27.8947 72.3732 127.367
73.1731 96.2615 48.681
77.1424 127.581 97.5405
85.3759 135.273 80.7269
85.9006 134.564 61.9117
90.4452 139.083 166.47
72.6012 42.5532 106.26
84.04 76.6476 84.3884
84.538 176.08 96.7245
83.0054 72.0406 94.6223
80.0583 86.0358 122.847
47.2925 42.7114 134.003
31.7047 123.73 180.536
92.2107 112.663 176.701
29.0676 95.9992 138.25
39.0212 54.7715 149.745
81.5081 100.011 104.055
31.5404 113.734 102.744
85.3628 120.551 80.3411
52.9237 93.971 51.0379
90.6196 125.107 172.3
83.4573 139.857 88.6978
78.4971 114.481 98.4766
82.6967 183.035 106.922
90.6387 98.6021 66.3163
70.4491 113.888 116.999
61.1806 90.4598 49.9847
37.3642 189.658 131.372
32.3717 119.936 167.958
44.6567 47.0909 145.86
79.0425 178.198 160.94
86.2831 165.113 95.967
28.8113 144.8 107.231
91.1347 85.8585 162.111
89.6669 153.219 155.982
78.0835 181.953 151.27
81.1754 108.69 52.0523
82.8354 177.248 132.093
56.6007 177.934 171.253
84.0005 146.867 130.758
83.7411 127.788 83.5642
86.3696 94.0531 82.749
27.5001 137.543 108.27
25.3463 172.013 129.002
81.0463 155.851 63.1053
85.191 114.4 158.707
37.2789 160.401 76.6476
32.5309 125.294 156.981
31.3357 156.979 93.8579
52.5684 186.84 158.107
84.9391 171.773 160.488
66.0252 127.394 209.259
28.9285 129.298 109.644
88.5556 158.74 132.474
29.0617 87.636 131.641
77.5323 94.5963 133.284
42.9868 191.764 123.973
57.5427 188.469 89.8824
52.3125 119.692 48.0621
89.5386 115.519 191.451
36.7434 189.373 145.469
69.4485 89.1592 51.2632
38.6377 74.3949 177.302
78.053 186.098 136.747
30.4085 66.1892 118.142
76.2337 149.337 199.465
78.8411 141.243 99.4834
32.0285 103.706 121.798
58.2753 112.695 44.9693
83.0157 122.211 53.9225
48.1155 180.767 87.0013
26.7522 157.341 141.103
84.0959 167.364 74.2798
37.3215 140.72 192.682
43.2025 80.522 69.9547
86.8264 152.784 86.9391
29.5541 136.301 99.018
86.1888 173.078 118.188
69.905 182.009 163.695
30.9172 133.285 164.93
34.9134 74.1398 97.5061
82.5139 107.588 199.247
33.82 58.142 115.712
33.8102 64.9034 106.382
63.8623 178.692 173.588
78.0962 136.55 49.3412
37.0604 141.339 73.4029
90.1485 94.0507 163.329
76.5519 86.8895 57.108
82.1164 128.967 91.159
79.3782 126.915 47.961
90.0931 109.602 168.13
39.1424 168.962 81.8051
90.2365 100.663 189.966
61.2969 38.3866 118.859
90.1637 134.916 174.122
90.4748 77.4187 154.701
81.0655 153.384 192.716
51.411 57.2641 84.0468
38.2929 50.5332 117.903
83.6714 72.9741 104.975
84.4662 164.948 124.623
32.8198 73.3203 106.75
91.2828 76.938 166.472
50.3741 190.098 149.298
43.9594 165.874 69.8347
70.2327 131.332 121.505
40.6717 178.041 93.9727
33.704 92.6659 105.456
30.0799 135.564 149.374
89.3328 86.1743 150.538
90.6354 117.724 170.623
71.2075 180.076 170.658
87.6659 159.522 75.614
34.5634 126.363 189.214
29.0824 147.291 97.3768
72.6799 185.576 155.727
88.6114 81.6546 140.921
86.5678 91.7043 63.0228
91.2473 104.261 72.7718
66.8761 190.094 94.3544
33.2458 96.5792 115.788
61.2879 195.293 114.275
83.6433 135.234 54.2902
82.5119 158.028 107.885
31.8125 67.1945 144.742
74.3415 140.596 110.545
86.736 126.407 73.5665
57.3273 176.893 73.7153
57.1326 100.759 45.7936
66.9142 123.781 43.8028
88.4626 165.134 139.485
91.6496 96.5477 181.173
26.3928 162.461 132.702
79.4491 79.4716 190.279
67.7617 175.189 183.147
26.2856 132.611 137.578
85.93 86.5147 91.8172
42.5856 89.9339 66.5292
68.5785 40.0697 144.629
39.8956 48.7325 129.524
39.8759 180.854 163.239
86.0218 132.325 69.0887
87.1565 74.7685 175.738
27.0236 178.33 135.305
36.6954 83.5683 85.8772
35.8911 99.0216 78.3375
58.7698 38.1769 130.72
73.5886 143.723 203.451
26.0858 147.044 133.18
49.3795 191.799 111.599
81.6764 120.189 92.1512
38.2312 87.3168 80.6219
90.194 155.631 146.717
36.6034 147.926 71.5641
74.0771 41.3341 137.999
54.5375 46.443 101.184
33.0446 81.9123 102.113
47.6251 157.639 60.8429
87.6904 119.601 68.9514
92.0432 99.4015 170.807
34.0101 168.799 103.31
50.4023 141.717 54.2071
28.5396 140.194 90.8318
30.1023 119.578 117.508
37.9768 98.9373 70.0623
89.9469 161.239 154.529
61.289 182.978 166.199
86.5518 63.0212 163.086
45.5498 184.269 95.0354
84.7739 99.1981 56.9789
83.861 93.2936 100.251
46.204 114.21 54.1954
80.362 177.926 84.2476
59.3428 194.045 108.213
35.4922 182.22 115.256
61.9531 197.385 133.253
71.3111 92.5327 203.441
35.0459 163.622 86.5635
79.3409 182.205 93.2318
87.1819 172.057 144.058
73.3895 105.29 46.7685
44.0016 145.896 61.4544
65.1924 81.3873 54.8001
72.2101 121.238 208.41
86.1839 117.385 58.8271
90.5153 132.524 181.386
87.4202 70.448 130.789
90.0016 142.519 182.571
30.2694 64.3423 124.813
30.9164 73.0453 154.313
32.5464 105.468 110.388
86.4864 137.207 191.931
77.588 172.225 73.1438
41.6272 158.076 67.8164
80.5876 77.9521 72.3888
91.8133 131.037 166.359
83.4839 95.6462 144.791
82.2499 139.485 142.427
88.2704 104.853 58.3583
84.2184 97.4542 94.3711
33.3319 118.164 187.877
77.2744 135.298 204.415
50.3445 108.329 50.0121
86.1018 120.821 161.462
29.7459 79.8916 129.965
33.843 72.5497 163.161
90.2787 126.015 189.336
74.4463 104.749 204.712
87.0455 161.952 171.376
74.7892 101.407 135.381
81.2238 165.926 179.571
83.3499 129.631 149.6
78.4169 62.6817 175.917
70.5833 191.762 141.058
53.8405 107.829 206.619
57.2261 138.198 49.8683
28.1789 81.5462 148.206
45.2797 66.1272 178.52
83.8373 81.504 97.0444
32.5811 145.796 84.9765
26.6556 162.81 147.716
59.1465 72.7936 191.529
76.7895 187.176 145.648
86.8827 166.751 164.697
29.9923 104.423 160.387
33.6004 85.7309 173.465
81.3477 50.8537 138.053
70.5203 185.526 90.5347
54.574 151.494 54.4737
52.5551 40.4402 122.75
41.4918 140.125 61.7177
31.0787 115.101 178.819
28.5243 74.8971 135.803
35.5152 93.3854 185.961
82.0585 152.836 122.435
58.5338 183.1 82.1593
38.593 172.065 88.2855
70.1476 193.418 113.049
41.1656 117.097 59.8155
47.981 82.3937 195.355
90.8025 74.8306 146.365
81.2002 153.033 102.839
38.6061 112.633 67.6158
73.7344 178.215 80.1157
38.6719 91.3183 74.6792
31.2374 110.589 153.163
56.2107 62.6736 76.0152
89.9723 107.498 65.8612
82.454 178.462 140.602
72.0848 105.219 118.825
73.2572 108.813 132.419
51.2344 168.642 190.293
32.9229 91.8055 177.92
89.7584 159.133 141.018
64.2947 59.0375 178.675
67.2207 182.026 80.8194
44.7186 44.5332 122.628
83.9672 160.928 68.5968
73.1401 59.009 85.9141
50.8434 70.3002 186.202
84.3086 54.2464 154.897
37.0184 64.7314 156.469
55.8189 195.942 143.855
70.7882 161.152 59.935
71.7573 75.1698 61.0924
30.2045 125.012 140.777
54.8686 192.22 101.672
53.9058 76.2935 61.6927
37.3235 123.284 196.145
29.8578 121.341 103.32
89.509 83.4398 172.062
59.9 170.324 183.607
78.4852 177.288 172.234
54.7453 161.02 57.6475
43.5774 184.787 101.269
37.9728 53.829 139.19
89.5339 154.478 165.758
62.784 163.234 59.8204
43.5145 146.592 198.843
31.2761 105.807 170.669
75.4421 85.6372 199.197
73.7129 167.287 65.0352
72.6823 65.0965 74.8581
58.8467 69.0929 64.8776
58.4151 39.1502 141.84
85.4235 102.449 88.3476
77.1122 45.7657 149.467
67.5675 99.9025 207.588
84.0776 145.244 59.1937
49.9545 196.366 120.989
72.2921 74.0082 191.106
71.0956 113.99 45.5564
85.8259 125.292 156.009
82.2713 176.19 149.06
40.5613 84.925 190.046
35.9765 91.0611 98.6757
89.6514 72.8242 138.398
56.2352 56.0794 175.43
37.3986 109.248 195.741
65.1224 195.297 138.216
75.366 171.582 182.963
77.057 161.284 193.919
33.6092 100.151 105.562
75.1265 47.0103 96.9927
90.2282 69.2186 158.124
87.266 170.121 133.89
50.7088 41.7731 112.274
29.5162 93.9151 149.228
29.1863 97.2848 155.802
59.6956 165.998 194.359
84.4099 170.018 151.194
52.7815 171.469 181.116
81.6672 148.454 91.7401
31.5084 113.795 112.646
81.2691 72.7821 183.898
39.2483 71.3608 84.7996
80.8264 86.7343 106.422
41.8936 120.109 201.217
30.8458 96.6983 170.67
48.9089 56.5179 171.432
36.1268 126.925 85.0567
82.7599 160.959 187.892
42.7898 47.7184 109.129
43.7933 189.962 149.735
29.8342 153 101.607
44.29 135.993 202.537
44.1976 171.586 182.358
41.1662 185.238 110.65
29.9727 152.384 111.968
31.7178 133.812 88.6682
56.1906 92.7346 204.194
88.77 147.874 140.858
75.2602 109.201 140.192
63.4771 192.419 100.733
89.0129 146.615 151.52
77.1055 186.57 99.5282
78.8329 47.3841 107.815
53.8318 85.4182 55.2673
29.3438 175.139 150.674
34.591 97.9641 98.4404
55.2863 168.895 64.6673
47.7373 189.933 105.65
30.0077 83.9943 157.284
48.7931 72.587 68.5477
47.1138 193.859 133.435
76.1366 80.4231 62.0274
31.6936 132.066 175.325
33.2272 104.938 94.1892
31.9377 113.148 141.241
85.6359 148.08 67.541
48.7726 179.743 165.997
32.28 87.1118 109.637
31.0718 63.4457 135.073
87.8967 94.1032 73.7887
88.2735 113.209 63.6687
47.8899 175.2 77.7897
85.6305 160.491 181.408
62.7564 196.63 121.218
37.1514 81.4361 182.767
52.2531 189.842 94.618
81.5159 182.027 123.515
29.4587 143.402 150.379
84.0363 135.31 198.334
32.1559 89.7798 122.102
28.2852 180.643 126.434
70.2576 120.027 136.129
78.8347 134.591 98.2004
61.6106 134.706 208.449
33.6386 105.392 184.087
44.6608 68.6913 79.1106
28.4826 168.235 114.834
87.9405 104.52 161.252
25.0276 136.487 127.385
33.7308 79.368 168.339
66.6015 186.967 157.153
50.6468 151.411 201.388
63.9375 65.7255 69.8342
62.3053 193.697 147.888
64.7949 102.825 44.2496
39.2346 97.6159 194.793
91.7284 119.907 184.712
38.3243 136.419 65.702
74.7745 190.847 131.425
73.9656 51.8861 88.8369
32.0511 109.721 178.219
26.0947 150.593 145.476
63.7641 141.584 207.572
52.8676 115.371 207.523
65.5301 40.4785 106.684
46.9441 48.083 99.461
79.9455 53.5248 99.1857
34.0331 186.674 124.662
39.9587 126.6 61.3716
71.203 194.527 125.55
83.6978 171.445 169.313
84.4001 88.6437 136.941
79.7603 113.786 152.028
56.8216 48.7468 86.0556
76.4313 153.761 56.8905
46.6048 90.8534 198.428
43.3634 192.021 139.384
36.7219 91.4452 90.5937
47.8702 124.328 52.8424
48.4629 49.4968 161.176
60.3606 40.09 149.837
28.687 129.275 94.7858
82.9756 155.759 114.818
45.0426 159.523 193.894
31.5939 150.738 90.0516
67.7982 164.237 196.405
39.9098 185.31 155.642
40.9987 114.435 73.2638
31.0925 111.661 124.141
84.971 84.764 187.496
84.4673 102.899 154.331
32.3139 152.433 173.206
41.8652 57.9434 160.69
51.3979 42.9882 145.684
74.1681 114.349 205.955
43.1938 60.9563 169.223
59.0509 44.421 93.4849
38.6674 176.936 103.826
36.6051 76.7988 90.6582
53.2511 63.8013 182.44
70.6957 157.644 198.04
35.5723 137.098 157.655
39.1265 66.8089 170.685
86.51 151.328 185.396
32.0127 141.696 156.144
65.9067 173.906 70.3113
33.6142 135.924 181.051
33.1556 143.68 180.753
31.8285 185.596 136.68
89.205 146.02 166.247
32.5373 160.697 99.1588
87.1372 92.1008 148.752
31.0747 105.667 145.844
63.798 66.6149 185.96
78.5393 172.885 176.404
33.4868 179.481 155.958
87.259 104.535 82.7824
80.3187 184.914 117.968
88.5883 159.934 162.525
27.6622 131.209 117.177
41.1072 107.239 63.6537
65.8805 152.86 201.524
26.5616 153.656 121.514
80.9724 118.075 201.308
76.3805 190.368 116.733
36.0602 149.662 183.707
56.3093 81.7156 198.355
88.5624 91.2455 173.882
28.893 160.255 112.187
49.9251 97.99 202.973
64.2151 51.5878 84.505
70.1733 168.344 190.917
35.0923 108.37 73.5764
36.2115 150.935 81.4593
77.0931 108.078 145.877
85.9087 125.903 197.168
28.3928 80.8749 139.82
34.1118 113.145 191.45
33.0102 86.6779 164.608
35.4563 108.573 79.4473
59.3904 45.1728 162.128
46.0137 134.271 54.6492
37.5281 172.222 168.541
30.285 160.539 105.955
32.7586 106.441 101.019
62.2098 148.143 205.39
45.8788 126.169 204.767
35.1603 102.865 84.745
28.5163 129.147 102.04
53.0985 141.915 206.559
34.708 98.5214 91.7941
31.0952 167.012 159.141
58.6685 125.695 45.7266
61.0944 99.0017 207.095
30.2313 82.349 113.377
63.1528 113.719 208.217
74.4181 189.759 105.061
68.0174 45.0702 93.492
64.3758 42.4908 156.084
46.54 104.16 54.9285
67.4349 190.417 150.746
58.028 158.997 199.746
63.4621 87.3739 201.407
49.6995 170.659 69.3731
33.9521 118.901 75.4156
36.5485 152.919 167.652
51.481 197.249 129.545
28.6298 179.313 142.373
46.7597 52.0738 89.8492
56.5624 198.51 130.841
32.555 114.18 86.8507
26.8869 142.315 122.665
69.3254 54.3475 173.416
69.1772 132.656 46.9644
48.9597 85.0303 60.1782
44.5043 95.1471 60.4785
32.0272 172.644 108.852
43.9806 127.728 57.9229
36.2307 169.341 96.1327
78.5371 49.0502 124.706
72.7707 41.5421 116.121
63.5605 74.4725 59.9725
35.9488 162.209 178.962
76.4926 139.854 124.432
88.0298 166.76 153.608
34.4175 100.301 185.794
70.4054 47.6137 163.628
29.0329 77.4324 122.081
46.6253 75.2623 191.008
35.001 173.869 163.059
34.2417 158.949 164.458
53.6715 124.383 209.894
72.5681 147.474 52.4549
67.9445 78.764 196.479
32.6472 113.076 93.4818
38.3834 132.985 195.801
27.0781 143.576 138.761
29.0031 165.262 153.287
34.939 145.62 93.2355
33.8811 121.221 83.3142
30.7971 97.0227 163.706
31.4781 183.82 148.119
34.9364 134.621 188.589
44.9059 103.677 201.842
43.0226 174.851 172.246
58.5053 39.9088 106.646
31.3842 155.12 160.739
56.5526 129.885 209.201
27.6558 153.266 131.368
23.4987 160.368 123.922
66.8286 38.3518 129.419
42.1505 152.178 66.2527
58.6992 50.534 169.974
64.3573 152.841 51.881
37.0037 165.505 173.905
73.5481 118.316 112.238
34.6015 127.003 71.2353
79.603 45.4206 119.23
72.1121 65.129 183.229
28.1716 152.885 151.02
30.5375 124.462 87.657
75.8758 165.336 189.172
36.7507 130.745 65.3491
61.2136 178.119 181.202
38.7738 152.622 190.464
76.1892 128.648 206.121
38.1709 111.172 85.0303
45.8671 100.355 59.0645
28.763 154.094 156.569
38.1973 122.383 67.4498
30.8176 121.696 94.7071
31.3739 79.4119 118.028
74.1843 125.945 136.48
72.6246 121.834 119.168
81.4534 82.9972 110.74
80.1834 136.153 135.551
31.52 115.498 164.087
