ply
format ascii 1.0
comment Created by Open3D
element vertex 315
property double x
property double y
property double z
end_header
26.6539 63.7521 58.0388
29.0979 73.6947 50.3607
30.1463 91.2154 41.8922
29.4978 56.23 103.149
28.7997 95.6305 141.597
26.5144 179.668 110.989
28.2684 95.9562 154.606
27.6162 167.023 70.9484
26.976 184.48 75.0912
34.7887 72.9239 66.5307
34.4923 74.0673 120.644
27.5001 42.0046 108.989
27.4111 58.8393 123.953
28.8355 167.785 127.349
52.0228 106.726 96.8179
54.0201 34.4009 111.837
33.9948 98.6584 133.657
29.2005 66.913 121.423
40.3569 73.624 102.211
29.2743 77.6849 138.184
24.3976 154.697 127.215
38.7677 156.533 32.5075
34.9118 163.601 85.0678
26.8701 49.7085 102.396
26.1623 123.239 38.3843
37.3809 108.533 55.6705
28.5082 128.546 32.9712
36.5007 95.6423 53.1057
29.6056 37.3169 97.9108
30.6918 126.032 131.733
60.0428 49.4221 123.952
29.0309 79.4958 38.0404
26.8244 110.581 147.332
50.7459 94.7451 89.6515
63.4242 79.6953 128.932
65.3834 47.7972 80.8681
32.9926 61.8849 78.6384
27.8701 103.314 150.889
47.0161 81.6479 97.4775
31.9516 84.3166 132.112
23.3831 130.472 43.776
36.3509 60.7964 88.4052
26.2552 181.116 83.3603
26.7003 143.06 140.86
27.0707 164.539 46.459
57.9526 92.8506 35.9129
31.2414 114.774 29.8368
62.1409 45.5888 117.49
27.3637 57.6226 75.9782
58.6638 64.6637 48.3056
42.4621 73.7718 87.4171
64.2179 39.0194 108.539
46.6138 84.7019 82.3427
32.9258 34.0435 87.455
27.7452 184.355 94.1912
29.0832 155.161 64.384
25.0793 179.693 101.532
26.6362 132.999 136.59
26.3614 55.6499 67.5037
26.206 49.9425 113.389
36.8037 66.5085 101.189
31.0072 142.018 148.182
66.6872 50.0206 91.6375
61.9229 76.7306 45.8437
43.9886 30.0968 94.6377
57.0829 85.1252 150.529
27.9308 46.0223 66.9423
52.4995 32.0206 101.451
43.0216 87.4335 67.5389
25.3254 139.236 53.7938
43.2169 84.1979 114.134
23.8949 169.659 106.593
33.2093 69.0381 112.799
47.0892 78.6921 157.809
26.2054 173.292 117.054
31.9153 159.258 105.571
31.6428 161.013 73.2256
39.9547 153.134 81.0739
29.3491 60.9493 113.134
38.0402 182.457 54.4353
27.2566 140.453 36.4892
37.6441 69.8225 75.7751
23.6046 155.459 53.0646
36.8894 103.212 161.638
26.5463 142.824 125.077
27.1126 120.164 47.9445
29.8388 58.8324 46.6067
45.2799 113.277 116.869
29.854 111.106 138.677
26.1076 176.903 69.5337
28.3169 118.449 149.73
65.0542 50.4887 111.78
66.1671 55.3146 98.6879
40.3376 82.5594 71.0245
24.1169 138.299 42.6892
39.0607 108.328 63.677
62.4719 78.455 137.409
33.132 82.4447 52.4678
65.0727 72.587 120.423
59.4149 56.9228 53.4943
64.5692 55.7255 69.7148
34.5685 189.117 77.3003
27.3307 47.4157 95.7392
64.948 87.8054 106.28
47.8709 118.69 28.5944
33.9128 141.845 30.7558
45.0774 32.1834 111.582
53.586 39.6827 123.878
45.4064 94.7364 70.5896
25.8816 160.145 119.557
49.0405 102.277 110.209
41.1027 84.0761 160.415
49.552 102.792 76.7209
47.1234 51.0753 138.899
42.0751 40.7702 64.0735
28.2831 123.226 139.541
45.2383 152.738 31.3682
63.3423 92.8871 64.3772
64.0085 75.4071 58.9475
32.6833 99.9235 29.4327
31.773 163.734 135.913
40.1362 100.741 126.231
62.7264 101.72 82.8994
39.3038 164.173 36.895
65.5054 74.4103 75.138
65.9545 75.8367 107.119
27.71 50.5698 125.076
62.5658 98.6793 47.6757
24.602 166.759 62.3793
31.1362 112.946 158.947
39.5082 152.184 101.593
24.4273 169.573 53.8067
58.9524 55.9355 132.516
64.7434 62.9508 114.272
65.0053 47.0632 100.971
29.6711 143.512 61.1659
27.3436 172.184 82.5887
28.1556 127.24 54.0352
36.5138 61.3516 148.249
28.1242 180.274 59.0866
62.5119 86.3737 142.714
42.698 113.073 161.64
46.2155 35.7321 125.679
64.9871 94.6405 115.321
66.3426 66.3788 98.8525
29.8251 71.2946 59.0255
62.6244 108.933 75.2802
62.3385 107.337 88.5777
46.934 125.437 78.6721
61.268 129.61 125.231
55.573 89.374 156.239
31.5726 55.306 92.0626
33.9281 43.5817 128.028
34.2367 150.586 70.0238
30.6602 125.667 151.799
34.7707 169.125 43.7581
64.605 90.4362 92.9291
28.4221 45.6891 85.0148
59.4398 125.727 35.4218
30.8308 56.2162 132.156
65.5471 42.0121 89.478
58.2808 139.004 139.034
35.9819 37.5893 121.703
27.5387 115.138 42.1824
59.2078 78.3493 146.129
28.225 64.7654 65.5069
50.9649 55.0995 49.6157
42.9452 141.698 29.3844
48.3356 178.147 56.5221
27.6186 49.9363 79.0533
62.5766 90.0595 127.878
41.0138 155.144 93.6963
58.2529 123.102 143.795
51.5528 103.633 30.1099
35.3604 131.61 120.328
47.8478 62.9947 42.9723
61.9895 89.2892 45.1841
58.2566 117.607 34.0296
34.6833 34.2554 112.52
33.2776 128.033 61.389
46.205 104.658 68.0742
26.0237 54.697 55.9308
33.7491 76.2659 153.357
25.0096 143.842 133.223
52.2683 80.6372 34.5667
57.1458 67.889 144.013
39.513 54.8195 44.9545
61.3962 36.8583 101.913
36.9187 129.069 27.8989
31.9883 37.3563 72.0059
52.9778 100.007 157.408
59.5392 128.242 134.149
44.2584 128.208 109.497
31.3603 88.392 157.034
36.7548 54.7005 141.473
62.1921 94.5941 55.4226
46.6358 166.212 44.0297
61.1748 108.915 133.869
60.4943 107.957 141.36
48.5147 46.2108 56.3294
65.9482 72.9384 87.6608
61.7885 118.226 128.156
64.1843 109.8 113.97
46.6962 110.333 77.2771
62.7568 106.853 125.312
45.9965 91.3611 160.5
39.562 93.782 59.62
62.3889 97.4093 135.047
41.4856 44.2951 132.827
41.9907 122.23 118.343
57.0511 101.143 151.033
32.7387 63.4829 103.764
58.2968 60.7804 139.395
38.0009 173.977 125.111
29.1034 82.053 145.396
55.3137 114.053 152.411
60.7332 69.7763 138.506
63.592 95.7819 74.1396
36.9733 179.923 118.236
35.9869 115.913 127.654
39.847 71.262 36.6052
64.1809 102.572 97.2535
41.028 48.693 50.5867
32.8762 134.271 63.3178
61.4104 121.022 70.6794
64.3301 88.0482 71.7936
42.5848 72.6582 157.43
37.9684 68.8883 151.485
64.672 88.3152 82.0167
32.6515 185.907 62.9014
39.3259 91.82 27.9701
63.1369 118.624 84.828
64.2887 75.835 67.6349
50.8754 70.8657 152.788
61.8464 137.727 111.672
62.9746 119.036 119.113
46.1488 103.865 160.683
62.6865 117.699 61.2615
44.1521 54.5138 146.395
49.0173 72.0508 37.9271
52.8608 48.2121 126.834
31.8093 154.485 34.9331
50.8907 130.62 29.4614
32.7483 67.5737 39.4134
44.0992 163.01 138.337
30.4363 177.64 52.2015
38.7104 188.854 103.748
39.4365 132.494 69.9812
30.9221 155.741 140.682
64.6248 80.5001 118.793
29.4724 67.9197 144.244
60.8645 138.516 61.0255
52.2737 157.73 43.2917
39.2979 183.905 111.52
45.0947 143.07 149.036
63.8031 115.761 102.797
62.5424 126.72 105.716
42.5451 70.7348 94.0341
52.801 134.629 149.09
31.8447 112.422 47.206
49.6526 114.436 158.093
36.2768 155.251 145.743
30.8327 154.415 111.447
32.4198 134.273 153.298
38.5582 190.242 95.0752
37.9333 81.9059 29.9678
63.2119 102.139 60.3789
38.9821 122.813 156.885
57.9611 109.699 146.05
50.0252 60.876 148.438
28.0291 168.907 98.1164
44.2264 141.31 104.746
50.5385 146.664 31.5279
46.0312 140.461 79.3955
33.2126 45.8048 54.7255
56.3891 49.909 59.2199
58.2717 45.6715 71.4593
58.0951 107.378 36.5258
33.2012 142.504 115.323
41.4086 33.7831 79.0386
55.6352 39.6493 78.7697
41.9569 117.127 71.6047
42.9708 190.04 80.788
43.6394 134.657 153.947
28.9672 109.134 39.0781
49.1963 157.725 37.1402
37.9272 109.681 27.1124
22.8506 180.196 51.5917
59.2363 129.928 41.2951
47.3822 171.867 48.4966
61.9411 39.2045 84.8444
46.988 178.03 117.627
58.227 137.673 39.3254
43.1538 127.229 27.3285
52.5217 127.999 151.47
39.7739 144.042 73.1241
50.3802 94.1047 30.2141
60.6992 146.515 115.606
28.2956 147.984 40.6761
37.5525 124.225 42.7755
21.3055 181.57 61.0755
49.1567 36.7508 79.658
51.9042 157.096 138.528
44.2462 186.095 62.939
62.0224 127.77 72.9671
57.3046 148.618 41.3871
47.212 156.025 144.006
38.6497 120.861 63.9088
41.255 189.999 69.6555
37.5787 115.84 68.3478
63.2228 127.973 82.6671
53.7797 147.182 144.501
28.7571 158.762 43.105
61.1719 146.663 104.783
21.3359 49.6563 102.33
