ply
format ascii 1.0
comment Created by Open3D
element vertex 731
property double x
property double y
property double z
end_header
108.351 42.21 121.132
124.317 151.842 108.267
138.894 91.4373 50.3731
119.839 128.088 41.0206
37.1809 91.301 69.8125
113.775 159.553 75.0434
96.9393 163.712 94.2625
139.48 119.92 55.8481
34.7717 100.332 72.3298
150.409 112.343 89.4559
54.7516 65.5902 62.79
142.825 261.05 89.1588
99.6719 160.468 67.934
90.9415 45.0978 124.531
144.136 70.6867 95.4184
97.0245 52.5637 132.344
149.879 96.4174 80.7733
52.5272 60.0171 96.5778
136.402 58.5716 108
96.1096 36.5678 102.029
122.745 154.413 70.7343
146.732 75.8672 103.845
84.1113 41.9604 85.3096
141.709 67.541 103.589
124.131 248.982 73.5836
118.925 49.5799 123.196
150.763 89.2809 90.52
37.1952 103.618 102.434
84.9569 61.1065 42.5768
129.787 286.285 92.3831
147.236 117.329 73.966
147.711 95.002 71.9769
131.041 284.097 70.2865
84.7716 101.035 23.9428
51.0619 76.0872 113.463
109.705 164.132 87.1883
104.58 37.2124 85.4906
129.827 277.086 71.8283
116.422 107.617 31.4677
122.02 120.034 35.0058
126.648 75.5838 40.8718
62.7394 131.704 131.769
108.547 57.9654 132.497
91.4101 149.68 127.13
35.84 116.894 74.8988
140.282 75.1661 63.6569
149.536 100.22 97.287
132.311 52.6301 90.5834
115.142 45.658 70.8137
112.282 260.11 123.353
117.614 62.4119 46.6431
100.602 268.807 116.361
138.912 69.3655 113.483
145.358 87.5725 65.0989
101.703 157.413 109.279
112.204 221.124 102.022
126.999 110.251 36.8877
43.2697 132.462 74.5969
118.621 98.138 28.8467
75.0124 54.2326 57.6713
112.929 36.6868 89.8265
100.456 153.798 120.898
77.4034 96.9076 26.3484
122.774 43.8708 103.546
107.61 37.5795 104.812
50.6691 78.2108 55.3749
109.093 69.2867 37.96
137.344 55.8952 87.5584
96.2862 130.944 139.448
145.544 123.172 92.2519
147.351 103.972 68.4405
58.3012 52.7082 97.1534
141.71 99.6414 54.7865
74.3816 45.0287 85.0184
116.631 141.721 124.357
143.791 242.597 82.2478
138.822 113.231 124.554
134.977 84.3054 47.1265
97.2 240.705 82.6261
145.013 80.4403 67.2668
121.767 283.756 73.9818
42.0216 85.4541 104.957
115.976 272.249 104.879
76.9674 161.749 83.022
84.7944 38.3072 94.4161
93.9256 99.6908 22.6392
34.6599 115.838 84.7624
128.192 57.3764 119.265
122.091 275.911 86.7977
43.5609 116.261 117.023
142.22 106.211 121.812
123.903 40.5889 52.1663
138.76 272.753 81.5006
126.728 143.277 114.579
95.2212 247.845 64.5645
44.7479 140.132 84.0822
92.4466 146.031 46.931
108.687 230.035 87.8542
146.265 127.614 83.9681
147.267 116.697 107.13
125.342 246.315 98.7736
124.615 256.69 109.4
135.867 224.814 85.0973
111.858 42.1954 110.321
139.047 141.776 98.3949
99.0468 45.8438 66.2867
64.4306 153.391 109.889
48.9364 67.0666 101.936
80.7662 48.0025 119.451
106.973 156.058 60.6159
49.2614 145.258 94.8563
103.07 34.8961 95.1982
74.818 47.7943 115.567
128.252 216.265 84.0025
148.876 102.085 104.89
88.6095 57.0732 132.76
145.043 104.567 111.252
133.625 221.103 72.011
84.8159 111.931 141.848
127.501 51.5277 114.229
135.728 89.2101 129.982
128.299 50.9049 78.8171
78.3487 156.269 118.639
70.7674 116.242 139.339
133.145 73.1349 125.367
86.3446 142.037 131.668
143.251 121.089 113.342
124.909 144.53 60.7998
110.045 142.18 128.735
135.43 287.997 88.2287
84.246 40.8745 111.936
90.7742 84.9666 27.2583
79.8652 133.137 136.376
131.003 58.4328 72.1845
84.9039 164.336 92.6997
144.827 236.646 77.0111
87.1859 52.8829 126.11
88.9591 161.785 76.7515
107.889 128.211 140.278
117.6 52.0647 63.8832
117.731 100.821 137.833
37.7727 127.927 83.0166
44.2887 140.443 92.0839
117.536 44.4805 115.823
112.142 130.166 34.9985
123.209 44.1468 89.8634
38.8442 86.366 87.5618
123.908 83.44 36.3867
52.3224 117.493 43.86
40.0804 92.618 60.0533
117.667 73.8091 37.5769
141.163 259.662 77.0645
112.455 121.428 31.6097
123.931 280.939 94.2982
131.779 110.826 129.662
122.857 50.7119 72.1473
131.513 147.816 83.4682
85.5301 90.8925 24.6027
114.421 152.296 59.5781
39.517 114.839 59.2722
54.8512 148.666 109.995
97.4962 123.704 25.4269
131.528 121.673 44.9679
133.619 62.339 115.875
64.7573 116.733 32.5394
121.913 45.1722 79.7569
108.962 280.894 84.529
78.7627 159.608 73.3584
74.9978 88.5502 26.6581
34.7117 113.461 94.6718
124.076 156.278 81.6529
45.7712 71.4525 93.7967
62.611 144.035 126.495
39.3187 129.061 92.9625
57.5736 54.5997 82.3169
103.807 48.5999 131.628
110.991 141.205 46.0368
132.241 134.193 56.4826
145.884 97.4863 112.024
42.5572 109.97 53.1686
90.8338 47.5436 64.7784
121.272 262.817 86.7209
137.783 61.8978 72.1927
67.9801 48.8621 102.285
95.3028 153.148 54.974
129.938 229.981 63.0094
134.268 98.6205 129.974
96.7829 136.895 132.659
101.237 104.273 23.025
56.5642 137.471 125.473
133.093 145.993 102.236
83.4885 253.594 70.8737
121.296 56.3355 125.702
130.36 225.64 102.898
149.203 91.9283 101.613
39.7772 94.8298 107.338
97.6615 164.416 81.7482
107.136 136.015 39.5766
146.71 89.4339 83.3688
37.8899 100.136 61.478
67.6216 157.778 85.5796
79.2373 59.5717 130.855
145.808 94.8326 62.7445
43.6669 137.168 101.814
145.57 88.5013 116.585
144.444 133.276 95.2176
140.379 136.587 108.178
37.2523 118.832 64.9365
95.0648 226.603 90.8132
142.555 66.8299 78.1437
123.279 46.8385 110.8
138.293 240.78 108.448
104.376 236.14 86.1872
39.683 84.631 94.6284
128.978 50.5192 103.702
42.8038 77.6344 100.203
47.4915 139.868 74.8975
45.9975 87.5056 54.2386
126.356 244.049 55.6869
104.896 111.689 24.062
146.895 121.511 85.3027
111.318 242.221 95.2628
126.898 137.329 119.642
125.823 220.671 94.8456
106.8 45.8741 70.1542
130.487 152.271 95.2863
34.6802 104.277 90.5137
140.636 127.808 107.177
127.499 80.915 135.486
119.613 156.757 103.276
126.59 219.013 103.514
122.448 158.065 93.8324
36.1912 109.642 69.9067
146.247 124.626 101.525
110.677 151.947 115.963
59.3565 68.7826 53.4195
137.653 269.119 101.783
104.807 271.975 109.195
140.748 62.9994 93.6097
122.468 268.604 98.4426
141.599 118.558 70.6839
148.3 79.325 75.3473
102.377 130.804 34.1557
60.8303 149.332 115.761
103.364 163.901 76.011
57.4696 58.4085 108.347
74.2249 119.279 28.2117
53.193 66.8791 112.237
64.229 55.3683 107.124
44.6006 76.2038 65.4909
128.236 151.168 73.9116
99.1309 237.173 75.2485
139.286 74.0156 119.356
135.257 243.433 89.5239
138.633 142.426 84.3951
150.587 104.535 88.7357
112.003 276.904 98.7094
102.461 37.4812 114.554
139.449 125.838 117.728
60.5354 62.309 117.371
64.9555 97.2739 30.8292
97.2673 42.2499 71.7246
50.9763 146.008 81.9078
111.68 265.844 55.4403
85.8585 69.6895 35.0585
114.853 81.3301 33.4581
36.4757 97.283 90.9682
108.981 72.9023 140.255
66.4539 66.5762 126.642
130.122 93.7646 135.195
39.6589 81.4365 81.8831
126.481 47.8342 95.1356
101.664 39.8961 77.0053
134.713 146.656 93.337
148.408 111.173 81.0989
121.134 280.053 81.1248
144.714 72.3699 76.3664
121.299 135.203 45.5293
129.128 272.271 64.6984
144.83 71.1518 88.0404
79.4387 141.437 129.484
137.69 221.367 97.457
129.275 68.9815 49.3851
65.6696 56.8239 118.845
121.856 232.188 71.677
84.9461 152.742 123.054
46.3975 122.691 54.4361
138.278 250.348 107.287
94.8202 133.815 34.2045
145.36 270.036 87.6264
105.343 222.729 103.997
38.0266 93.9677 97.9617
102.141 264.403 67.628
51.6934 117.015 126.271
129.303 276.59 89.5654
148.672 112.72 100.167
127.491 72.2557 130.49
66.4892 107.646 28.1121
99.0531 145.623 127.183
100.101 232.902 108.183
84.1806 127.028 30.1531
137.15 107.405 47.1761
112.029 49.8557 126.118
100.602 245.678 91.5246
124.93 119.874 133.759
110.076 159.28 65.8476
142.351 132.397 74.6095
33.1297 106.162 82.984
147.99 80.6309 87.0979
150.981 84.9635 82.4778
102.837 148.238 47.5467
105.026 216.191 92.8035
103.988 161.305 102.308
49.3944 131.197 122.129
135.923 282.066 77.3509
149.62 85.8996 97.1774
102.726 128.363 28.0849
108.327 51.0712 62.518
125.003 132.178 51.4786
75.0293 152.625 59.1219
122.739 90.0258 34.6532
130.553 227.499 115.011
100.42 88.018 25.0927
120.618 248.684 58.7217
69.9644 152.653 118.821
131.973 249.314 114.379
95.5266 219.864 93.3382
109.27 247.685 83.0056
65.2742 137.271 48.3409
125.691 97.9881 35.4554
133.575 146.168 74.4511
60.3505 71.4485 124.184
114.043 88.2524 29.857
105.161 247.207 67.5165
49.4054 135.01 62.2744
37.4846 121.296 104.383
141.772 125.165 67.4256
65.5369 122.581 137.583
107.166 272.356 74.585
43.5856 103.7 49.6875
119.579 68.9847 43.8998
134.316 126.936 52.1352
128.459 220.394 112.722
72.1842 161.146 94.0721
118.392 261.054 112.101
120.619 223.273 68.7724
41.2661 131.125 101.351
132.391 90.6633 42.1286
48.7335 99.3967 122.575
93.6349 38.8003 115.399
139.557 242.244 101.998
109.614 97.7892 25.0159
129.244 269.9 97.9478
106.836 117.683 27.0858
73.7226 125.572 138.707
130.652 232.466 91.6944
45.6703 128.37 62.0268
94.8951 139.659 39.4763
101.749 254.392 106.249
117.438 242.366 120.281
117.438 238.968 59.7404
46.7192 93.2563 48.4397
52.8091 140.66 117.903
54.0167 141.849 67.5002
100.772 73.1494 140.019
92.6227 36.1225 88.3101
108.992 274.695 104.418
64.4232 49.58 80.3774
78.5372 132.972 35.8691
121.012 222.935 107.336
125.073 229.271 81.913
134.558 253.707 90.6885
106.256 84.8075 26.8569
73.8818 145.926 130.646
107.958 249.741 117.09
122.361 289.567 76.7393
131.594 123.07 127.319
116.695 153.203 66.9851
113.337 65.8971 137.331
91.8502 258.173 111.085
112.611 111.897 27.0058
135.206 57.5045 81.1192
117.318 108.996 139.998
88.2793 123.354 142.669
104.699 243.892 81.4089
97.6394 144.393 43.1247
135.117 68.2898 64.679
121.906 275.98 66.9598
140.93 81.674 56.2015
114.043 41.4296 78.7705
93.1845 267.752 98.2672
141.948 63.1738 85.5493
59.9925 153.552 102.653
125.89 156.422 98.6333
90.5403 40.1662 76.7948
85.4097 160.017 67.519
53.2169 89.4946 124.959
101.879 74.4057 32.5689
83.5038 143.826 44.7886
146.958 256.778 81.1798
56.8767 150.852 80.565
84.5937 137.166 38.3164
59.1096 146.893 67.2353
117.947 255.814 54.544
136.103 71.7449 57.8972
144.57 110.312 61.5072
35.9563 111.34 103.986
54.6464 106.969 39.395
83.83 159.928 106.223
127.02 109.898 136.031
90.3224 77.503 29.5085
134.42 274.855 99.3443
99.6212 46.702 123.814
135.62 241.542 69.9567
56.8719 122.296 44.0371
123.878 132.134 128.727
84.4229 242.521 103.808
119.225 74.2034 138.672
119.014 219.31 94.8224
48.6831 71.3077 67.8168
53.7744 78.5922 120.553
69.2655 159.59 103.691
117.543 234.075 94.2272
114.147 133.999 135.162
40.0939 109.784 110.392
133.268 260.157 66.733
125.196 235.366 122.216
99.3416 94.7598 24.0834
113.449 267.643 113.525
112.432 222.759 76.8264
108.063 238.619 106.665
133.955 265.424 64.7964
42.5488 78.0497 76.753
68.0534 52.5287 65.5561
35.7999 120.028 93.3935
119.386 160.513 87.9184
99.6287 156.447 61.3333
116.359 212.667 97.3895
61.8044 85.6024 128.91
51.7873 98.6639 41.1938
99.1396 41.0279 121.893
124.623 234.454 92.8053
54.9028 88.7091 41.1901
134.126 266.416 85.2603
107.721 266.746 116.678
102.168 227.7 87.7089
73.4212 52.7639 123.762
95.6364 122.472 140.001
105.254 113.704 142.706
77.3905 114.59 142.093
66.6912 61.8383 53.3834
104.865 57.2728 46.7108
129.022 265.156 84.625
142.776 276.387 89.4196
121.719 251.929 114.053
102.825 54.1155 55.7622
81.7229 48.8649 63.6661
146.884 109.837 110.469
133.813 247.966 77.8533
67.0379 48.5192 110.85
124.256 93.4041 139.093
141.679 233.787 87.4972
64.6404 81.0454 39.5454
90.2196 247.958 92.1702
118.941 144.939 54.6339
121.913 245.763 116.652
92.7013 162.444 70.5536
64.3739 49.7728 90.2598
140.793 139.027 90.2407
118.213 239.96 51.0113
107.024 62.8377 42.1741
48.7591 65.9791 87.2196
107.074 245.66 106.767
113.126 267.481 70.6353
91.6629 73.7568 139.744
136.992 232.717 78.4091
76.0296 156.5 64.7727
54.6765 131.938 52.471
45.2228 102.758 112.694
117.675 117.99 139.797
73.142 62.7869 128.505
44.9654 107.856 119.648
108.248 222.547 86.8107
125.285 234.101 57.8591
101.566 262.276 58.8364
118.213 127.287 136.631
40.1028 126.612 73.7825
78.6456 122.993 34.0584
48.1605 65.3769 77.4083
130.832 70.9395 54.826
122.484 264.338 105.511
139.897 108.869 54.7968
119.261 249.308 91.5161
135.056 239.451 62.7966
100.741 226.758 104.891
85.3802 98.7216 140.821
119.745 267.486 62.0717
109.122 159.989 83.0139
134.154 241.865 111.946
85.0957 151.433 50.8606
48.606 87.8689 116.247
96.2014 64.1804 139.254
101.074 276.328 83.1851
123.737 62.5096 129.798
114.834 37.9062 101.012
142.014 97.5648 122.659
58.0237 98.5621 34.0181
96.1184 261.859 64.6066
134.991 267.459 93.1574
137.128 227.954 71.6681
81.9867 104.351 141.654
110.377 155.023 110.664
119.671 217.438 103.043
114.242 252.504 122.041
115.022 251.223 80.3366
74.2697 159.641 111.361
138.547 226.763 78.956
136.189 260.349 107.143
48.0567 103.298 42.8878
53.9576 61.2251 78.7596
96.4856 111.988 22.1186
44.0325 84.7985 60.4262
93.3334 269.086 73.119
139.832 235.778 102.122
123.72 271.72 92.2333
78.2452 70.1797 36.8878
125.092 265.149 60.7429
112.698 161.278 99.7001
71.2634 138.509 134.375
75.2477 148.575 51.3981
135.154 132.566 112.485
107.622 88.0724 143.715
86.6667 56.9755 51.7063
47.158 113.365 45.7975
75.0375 41.4772 95.7589
108.828 248.905 52.5225
90.3264 258.578 98.2919
67.4599 89.7324 31.1723
87.7087 120.923 25.7814
143.124 252.025 80.6618
114.926 77.7539 150.923
136.943 248.354 68.0037
125.276 268.087 110.354
65.8665 147.023 62.1232
64.5944 58.5884 65.1984
61.1738 153.125 73.1072
47.7358 121.773 122.11
72.7804 45.229 74.8014
88.986 279.493 124.515
125.309 178.405 75.7935
116.71 85.796 139.905
76.8136 95.7166 140.431
135.544 263.809 75.9176
80.0391 39.4893 102.726
126.397 240.566 108.94
136.561 261.146 91.0419
87.4907 262.575 79.7557
136.509 250.692 60.2614
139.251 228.583 96.2615
45.586 130.286 111.726
95.9496 110.381 144.357
102.946 254.651 120.007
61.4191 127.831 43.7356
121.631 229.821 122.193
112.893 212.701 90.2987
110.575 50.7886 56.3419
108.942 79.5773 141.354
115.871 219.6 84.3354
95.1326 56.8225 49.1343
59.7238 91.0565 36.5075
120.851 145.468 119.377
126.043 253.999 61.0971
123.405 238.993 115.575
118.954 181.689 73.329
122.392 83.0256 137.383
135.395 136.119 69.3267
88.8723 246.405 76.972
105.71 248.85 101.142
95.2878 74.0896 32.9434
74.6671 126.284 149.574
94.3903 260.13 78.1823
56.4654 77.7071 47.0258
77.6785 161.586 101.411
92.8583 98.5611 143.938
82.1884 245.858 95.342
112.349 277.052 74.3793
108.903 218.186 81.0302
98.6213 266.164 110.568
95.7906 250.164 100.709
70.9507 105.03 139.871
90.8915 264.584 109.263
104.871 269.202 98.8085
92.2646 157.518 113.175
127.638 144.542 68.3753
123.37 271.269 104.457
72.4758 69.0695 40.0559
57.9052 96.4723 128.46
116.389 225.032 88.4056
126.071 243.418 61.5363
148.903 81.238 100.881
98.4375 267.173 88.1059
93.2074 234.133 104.514
110.19 104.134 143.614
133.222 252.496 99.1249
122.25 251.284 49.3528
147.582 84.9748 109.798
140.463 230.808 101.742
101.732 88.7059 152.802
60.3927 152.748 89.5979
123.416 225.646 76.5753
113.294 276.804 89.8959
98.4736 247.929 118.063
125.945 219.701 89.2972
131.234 144.034 107.383
108.812 229.369 106.635
57.4137 57.4443 73.886
102.751 105.094 140.028
58.149 117.116 128.021
129.444 276.053 110.204
99.4766 265.887 77.7756
78.0827 240.611 91.5931
59.8397 115.662 134.155
134.509 220.458 89.7516
76.4842 60.7217 45.4326
108.764 241.338 62.9375
102.461 270.537 70.4867
101.664 271.581 76.8488
109.733 250.562 74.0869
140.126 236.067 95.2195
112.151 237.067 109.559
104.986 252.915 59.3361
120.088 234.675 65.7608
92.608 241.676 93.9805
130.662 251.189 72.9098
87.9037 110.598 23.7035
111.154 268.975 33.1264
54.2938 147.507 100.645
94.5381 228.069 101.342
103.104 276.53 89.9977
138.798 268.79 71.6148
94.7658 266.578 84.147
95.0831 256.024 60.8118
129.082 253.811 102.426
118.66 252.625 117.448
76.3474 141.468 46.7573
99.4791 245.213 107.015
116.556 278.426 77.9871
43.0557 148.841 61.5297
77.0233 107.997 25.7543
135.732 254.775 65.8737
88.8925 262.498 91.0985
91.9867 239.331 84.6596
109.209 149.535 55.1627
127.972 264.584 113.008
126.345 228.498 66.8372
136.371 236.871 89.0767
96.1725 238.505 107.062
88.0475 154.9 59.9345
116.243 259.49 61.5922
99.0122 92.0694 143.072
114.227 15.5467 55.3426
102.026 265.537 93.7831
118.688 267.141 113.797
118.298 214.869 86.8866
77.0789 81.3726 29.261
123.111 107.038 31.8972
64.9791 74.5781 40.9627
107.021 256.702 55.0282
80.4417 258.53 80.4297
55.6565 149.832 90.1241
113.594 228.619 109.69
78.6586 47.174 69.9699
106.332 247.557 55.9642
132.893 234.03 111.306
94.0396 264.619 116.229
89.6648 138.387 23.7789
132.93 233.789 106.446
93.0417 255.009 104.282
116.371 261.328 117.002
96.7949 83.6064 142.076
87.9082 229.724 96.5305
82.8428 259.283 94.5857
96.155 244.298 73.3982
121.838 29.9285 63.6204
81.0087 135.157 26.5809
132.001 258.797 73.7368
83.759 80.8231 139.917
89.7315 237.459 97.8149
127.065 265.441 100.651
88.0281 238.494 78.6902
111.878 265.761 65.8965
106.123 237.416 114.674
97.7642 267.806 96.098
139.274 119.974 121.445
58.812 99.544 132.717
93.8565 261.474 86.4466
151.59 66.2851 110.14
107.321 169.602 68.1102
96.327 234.839 89.6748
73.0726 79.007 34.5428
90.2861 262.127 102.898
113.908 244.3 69.4208
116.256 18.0871 66.4504
68.7922 156.963 71.5517
136.268 226.62 107.441
116.766 274.663 69.5822
115.487 238.565 116.827
68.9111 136.541 146.6
108.989 287.779 26.8163
136.016 252.779 71.435
103.686 246.94 112.222
33.185 105.545 113.706
94.5533 135.193 14.6109
107.95 244.792 114.129
104.609 241.116 69.6047
59.8678 148.557 48.3587
99.7187 235.412 87.0165
109.431 179.836 75.9202
114.803 23.3021 49.8669
116.657 235.148 112.456
120.546 230.484 113.654
41.0636 133.511 53.9307
98.9871 255.134 114.525
47.8199 138.745 55.7406
113.99 311.994 130.501
127.341 50.5296 48.5367
102.77 247.645 60.7712
109.992 175.564 68.1439
135.825 269.832 76.3687
116.355 25.7182 54.7597
66.7927 99.1678 147.596
