ply
format ascii 1.0
comment Created by Open3D
element vertex 455
property double x
property double y
property double z
end_header
98.0643 57.2262 81.3487
76.9767 32.6134 83.205
98.3726 74.4837 87.3089
25.8127 91.898 89.3244
75.125 40.6861 109.141
100.643 71.0383 75.1567
98.8624 68.4254 91.701
90.0299 102.538 100.351
32.1044 71.5319 98.2993
99.8672 82.8823 78.9254
88.4645 113.451 96.2153
89.8663 51.5948 45.4649
94.2665 76.4075 96.6963
82.6258 64.6697 112.248
69.2182 29.4808 89.1806
73.286 106.424 32.6469
88.1312 67.5518 107.122
86.0514 80.4501 108.949
41.7 118.955 97.3802
78.7729 38.2495 98.5897
69.2096 134.969 78.0587
50.2214 65.8258 49.7581
79.8331 116.589 39.3635
73.9578 135.03 69.4026
91.3004 43.9698 69.4173
99.4751 79.1591 70.0343
96.1632 50.2939 71.0575
39.8533 123.226 71.284
94.0702 90.253 49.1175
95.3661 82.0064 40.3658
98.8383 95.0128 55.6932
83.7387 48.736 103.759
64.7585 127.413 98.8072
86.6695 119.236 92.5567
83.27 55.6109 109.704
75.8188 122.503 46.19
90.5947 48.9384 55.9524
77.6584 87.7247 118.953
93.3612 89.172 99.905
67.6849 53.8031 119.724
63.8999 86.8987 122.778
87.4632 59.8149 42.6955
100.803 81.5016 57.0523
99.5694 92.1586 74.0847
81.3136 43.1713 58.7874
94.5074 56.3117 50.6634
85.7459 46.3728 51.406
90.3653 76.254 35.0723
80.3897 71.9972 115.514
97.7243 109.621 69.6907
65.8611 108.437 112.889
84.0614 115.5 100.465
85.3721 102.674 38.8706
74.0769 111.458 112.023
79.9423 105.42 37.1418
74.1397 97.5002 30.5328
93.7606 98.3118 93.3977
101.737 88.2142 65.2369
95.1826 116.093 66.5525
81.3712 124.444 85.5539
80.7383 127.324 75.1629
65.4604 136.667 63.0449
32.154 79.8849 100.209
81.1794 123.958 67.7628
47.4667 126.211 96.8272
72.7028 126.9 97.357
34.7783 60.4458 90.8775
86.1388 122.515 76.194
77.7737 52.2579 39.2936
79.6015 122.357 100.313
45.9764 107.683 108.113
89.2819 114.455 54.3868
99.8285 69.8952 58.0016
69.0745 117.537 39.1419
49.507 121.417 103.372
54.2259 90.912 123.057
90.275 95.7988 43.7542
34.7188 62.6544 73.6152
87.9064 128.164 75.2379
37.6335 120.141 87.6571
80.8848 109.49 109.036
51.334 103.15 116.148
72.2035 122.257 103.767
60.6962 92.4719 124.18
68.583 131.493 94.2636
76.5128 95.6382 117.982
48.5362 106.341 40.9299
79.2995 81.5548 115.684
100.367 69.905 66.2556
99.0714 65.0079 82.6273
81.9844 117.595 48.001
88.4175 58.5427 102.162
86.6339 48.0859 95.6236
71.7512 50.2224 40.8562
95.3002 103.866 60.8911
41.2237 120.374 60.9973
90.0651 121.103 83.8503
75.1379 105.353 114.031
83.5511 88.4514 31.7317
78.8765 47.2774 41.7152
51.5993 129.248 92.3629
73.4617 118.468 110.066
96.7322 82.1282 51.6828
36.7264 100.087 100.719
68.1655 67.4334 33.8965
79.6796 125.169 92.3855
87.2381 91.033 103.494
97.0012 99.5761 70.2629
90.1157 108.152 93.5051
75.4289 34.7126 92.4619
98.1323 60.566 66.6669
94.7793 62.1328 44.4596
92.7082 50.8757 90.5044
70.1045 91.2271 120.225
91.1384 88.6077 37.0874
87.637 39.9797 64.5094
100.837 63.0078 72.4566
98.9087 99.3329 79.8739
56.4198 126.076 65.6911
88.2803 65.8871 38.9404
90.384 108.98 45.5519
58.1652 121.135 39.4315
57.363 79.229 33.3069
78.4544 64.1811 117.515
95.2991 52.9659 77.4725
91.2684 116.371 72.8042
37.8225 96.4027 113.645
68.7532 28.8496 80.7918
88.615 44.76 88.566
59.4934 106.312 115.936
40.3186 55.709 106.295
76.469 133.62 81.7789
95.2554 97.6207 44.1834
91.9217 54.383 96.4731
60.8037 36.1851 106.176
46.2369 91.8876 111.92
38.5917 44.5161 93.2286
85.8431 38.9755 78.3551
62.9461 135.217 78.1954
93.7372 106.862 88.1569
97.3834 92.7189 89.714
62.0891 44.9097 113.38
58.1193 125.787 99.8553
50.2374 70.6624 120.168
91.7045 79.4818 101.593
46.4704 40.5262 74.0218
78.5146 60.2657 39.7207
74.6236 51.2197 113.952
67.3822 100.234 31.974
45.5227 106.092 46.9033
42.7013 39.9829 103.367
86.5033 119.369 63.4369
50.3859 31.8717 84.8785
93.4034 105.416 54.2394
97.8863 58.7611 57.1306
84.679 95.5041 33.4267
81.9834 37.7093 90.3323
75.6715 47.3062 46.9916
47.7377 131.456 65.8986
54.8259 110.425 35.0302
41.3321 52.5835 100.335
30.4107 90.2975 101.041
66.5768 38.3771 112.148
43.944 125.107 89.7788
38.639 88.4446 108.419
29.288 70.6661 71.6548
74.1725 62.1602 34.2323
99.085 89.1188 81.0361
28.9128 60.5883 92.1099
85.0588 104.852 106.275
64.7268 106.581 30.2713
35.3906 90.9871 49.1314
72.5406 66.1545 120.039
33.3227 75.295 61.6321
29.4998 79.6725 66.464
63.5641 30.4531 105.922
85.2924 69.3203 35.9082
66.4529 118.98 112.122
99.1168 93.9394 62.8407
59.7451 131.44 95.6736
43.7512 74.8239 115.817
32.6596 111.991 89.2386
54.8493 64.5183 37.0445
62.8669 117.565 37.1967
67.0333 125.697 48.4728
53.2984 128.752 54.9177
37.6688 119.827 80.6941
66.6677 99.2648 119.591
73.9373 36.6148 103.157
72.3286 87.0691 30.0038
31.6432 98.4062 93.6754
62.7765 67.1048 124.4
32.3903 112.997 75.4447
31.7062 108.609 68.3474
78.3874 118.32 104.539
100.132 80.4804 84.9182
34.4776 90.269 56.4156
84.2104 120.767 56.2996
46.2785 36.8058 81.1487
79.5698 40.7536 52.0908
84.951 144.039 53.6209
60.8521 54.3571 40.0625
93.2546 110.616 81.2292
52.3092 133.332 72.6297
53.7601 72.84 37.331
82.6933 98.7041 113.024
83.4042 73.95 30.7395
97.2659 63.8582 51.1001
56.6096 38.8905 110.471
75.5124 55.7331 116.409
22.7554 54.6246 6.6873
30.5978 96.9093 65.8195
80.51 98.9073 33.9399
27.8898 88.2585 66.025
84.5963 39.0068 84.7435
51.2696 45.0781 112.04
35.7415 116.049 69.9466
60.7186 107.864 36.0205
56.284 55.3327 117.215
27.0001 99.0621 69.2402
94.5341 86.0777 89.558
72.5493 126.446 48.7739
57.0026 84.4468 121.244
88.8342 82.1872 34.5284
58.1881 118.374 110.34
44.5971 57.6216 51.2109
48.2408 65.3349 114.902
42.6614 66.8685 116.372
80.146 127.935 59.6087
44.3094 51.6451 57.8855
70.9715 46.6377 114.349
57.2653 130.835 80.6347
83.6437 36.8241 71.0471
53.3141 31.4947 105.98
37.7175 52.2334 94.443
65.5438 77.7413 29.7032
65.8112 37.1912 54.5135
55.9507 55.1962 47.3597
70.7623 80.5768 27.3091
30.39 107.434 78.5261
37.1745 111.086 105.05
35.8648 78.7648 112.713
96.545 52.6674 61.0976
74.2783 74.9491 28.9971
54.2919 52.4841 41.9051
43.7622 75.5086 42.0494
84.2795 93.6702 108.023
50.8164 128.936 79.7868
90.6927 46.2739 82.6977
39.0914 98.5103 45.0016
60.5579 28.4486 89.5306
32.1657 78.156 106.858
38.42 76.359 51.0365
65.2861 133.948 89.0206
53.5663 123.757 97.2821
71.2168 133.87 86.486
93.0807 45.8215 60.8216
41.6034 116.907 50.1978
72.4151 39.8992 51.3806
66.765 129.059 55.4521
76.1709 75.6268 120.99
37.1833 55.7163 63.7691
78.1228 48.329 108.255
48.2023 97.1236 121.794
66.1418 47.2641 42.9398
57.0342 49.3236 112.341
34.467 66.8096 76.4623
46.0889 127.475 59.4896
37.2113 71.6026 55.2361
37.273 57.2569 80.147
97.4603 71.3765 48.0267
98.2547 76.1859 45.6066
77.0947 112.723 41.534
35.6452 116.766 63.989
66.772 111.595 35.0154
38.4156 73.4736 109.024
47.0084 57.023 116.025
75.3926 125.209 60.7856
39.4936 63.1588 54.5573
88.243 73.8227 108.087
62.3357 24.4097 83.4605
34.7597 67.967 106.715
41.4597 39.6212 80.5636
59.9269 99.6407 34.9555
77.8141 69.6412 32.9552
56.4828 133.586 89.4925
36.721 70.128 64.1936
34.5633 90.4946 62.6694
70.1104 60.7295 118.833
38.1195 62.694 96.6804
68.3446 30.4179 99.7909
51.3362 113.838 111.612
55.5657 123.271 43.108
93.0616 45.0656 77.2035
40.9292 104.765 109.577
59.3768 130.332 55.9087
57.2528 101.751 116.879
37.5752 111.718 78.6588
61.0202 44.9605 47.372
63.9754 137.58 70.0522
65.418 125.024 104.641
58.0291 49.5462 118.417
29.2573 101.096 86.1584
49.4111 34.4129 99.5623
54.5034 97.601 122.128
60.2395 96.9071 119.999
76.1593 32.333 75.7281
49.8144 76.0337 122.187
36.7756 106.841 91.5249
75.2666 131.283 89.9885
36.1718 78.7185 56.6056
42.3839 46.9178 68.8815
58.0239 62.9566 121.8
36.9654 51.6972 84.4734
60.0355 73.1185 31.4376
79.5282 36.1401 66.9664
99.8272 61.8098 60.8353
92.1872 115.953 83.0593
94.3778 98.285 83.6931
67.4207 103.39 116.373
49.9832 58.6959 51.1048
38.767 125.533 80.0636
70.8926 83.5302 123.467
32.6064 83.951 56.2654
46.9522 49.8725 105.769
81.641 37.0241 59.9436
45.5049 117.867 107.227
73.3357 36.0686 61.9396
54.5712 30.3657 80.4618
32.1602 100.508 74.7723
37.183 62.2458 110.902
50.9813 77.6875 41.187
72.5714 35.3465 72.291
56.9007 36.1777 74.1136
49.3278 47.1343 57.9433
93.9174 106.136 78.6815
39.5123 53.845 72.8625
66.1359 133.117 51.9225
59.0887 127.374 48.8343
46.5203 120.366 47.5636
37.9096 85.2628 51.2955
61.5307 135.036 86.0883
43.6474 71.5456 45.9656
42.261 50.3388 110.268
78.5254 41.0918 46.7836
73.0599 31.9457 66.3906
50.4511 50.6028 114.238
38.8517 109.232 49.6549
46.5974 85.5125 117.395
63.6707 89.6971 33.4465
61.3754 121.572 105.29
44.6166 40.361 94.7611
38.8476 46.4051 75.5682
99.36 105.043 67.1677
51.791 59.8081 120.201
47.6735 52.9729 69.6846
64.2843 32.9052 68.434
56.1644 71.6898 123.549
66.3129 31.9841 74.9495
36.1582 100.932 51.762
40.9394 86.2439 112.608
64.2977 122.176 45.0292
51.1321 37.9593 68.3969
54.6673 83.5291 30.3519
59.7488 130.639 68.1936
59.2679 75.9533 124.143
50.4392 51.4703 49.1943
44.2245 103.255 38.0005
37.5004 80.8519 47.0128
45.0049 101.095 112.318
67.9901 54.6271 37.353
50.5888 62.6394 41.0371
34.7222 109.442 96.9873
52.9864 121.403 52.0309
41.3583 60.4443 58.9296
36.6539 111.302 54.5828
45.6497 129.11 84.8427
49.5267 115.15 38.8841
80.1949 83.4408 28.7926
56.0193 46.1007 51.8495
61.923 112.7 114.659
58.1541 135.64 63.3319
32.5557 103.717 100.654
21.4269 74.297 112.874
40.8977 112.366 99.7523
44.0378 89.2349 35.4661
42.2127 67.5387 49.0147
53.2818 29.1244 90.7889
31.2805 107.132 61.6434
41.6164 41.101 86.86
40.5633 118.817 55.4221
32.9719 56.8781 97.3441
65.4458 44.5492 50.9168
24.291 97.3415 14.6685
57.3565 23.4422 95.1568
33.7809 101.7 80.838
80.3191 113.421 104.617
66.4657 43.2331 110.409
43.2046 57.5135 63.7097
40.3861 103.702 47.4848
56.6254 58.0573 123.037
52.8986 125.589 48.0522
48.375 34.2685 92.3507
47.4889 117.122 43.0518
60.1324 37.059 70.1797
51.5118 43.9159 62.8942
47.7904 93.1 117.002
36.2768 112.09 61.1248
60.2748 30.4045 78.4093
36.2969 96.5464 105.364
43.8119 88.9226 43.2412
44.1758 122.213 25.7439
36.6312 101.684 58.1569
43.3921 127.561 68.7662
68.2523 27.8842 107.172
58.1261 39.9596 54.8762
60.4189 53.8222 122.113
51.9301 30.4227 96.1069
29.3517 47.4844 65.6303
60.6442 60.012 36.8046
45.9502 124.243 51.5538
45.9813 44.7719 103.718
56.5842 31.1997 100.269
47.8071 63.9717 120.711
53.8713 80.2893 121.875
57.4592 151.402 21.8091
53.9224 97.5056 32.1766
58.8806 39.508 64.2417
103.041 44.3289 57.2239
42.1314 81.1853 119.423
18.7561 88.2272 94.4833
20.5707 59.9356 76.5467
22.0911 57.2684 60.7747
49.9539 99.7728 38.0947
25.8761 56.9607 101.019
45.5318 34.8467 87.3919
104.323 91.3229 37.017
25.2093 46.5008 76.8702
33.8724 110.843 83.5253
29.2925 83.388 119.001
36.3995 85.9791 102.299
23.1354 85.8705 52.4048
58.7147 89.5189 31.8464
58.1309 36.4945 58.774
24.4766 47.4172 90.0092
35.1832 130.454 38.7538
64.9816 146.593 90.8419
105.55 48.2916 64.8044
23.8636 57.5281 71.8314
36.8606 59.5932 106.783
32.124 120.464 40.3276
102.231 77.1751 37.2603
106.125 52.5442 65.9895
22.6225 85.64 113.066
25.3364 52.0961 80.4227
