ply
format ascii 1.0
comment Created by Open3D
element vertex 740
property double x
property double y
property double z
end_header
99.2601 93.4917 31.2225
144.731 87.6635 89.9728
127.048 82.8617 47.2933
114.308 158.31 51.9229
132.406 59.4713 127.453
116.3 33.2345 101.776
132.815 137.312 53.689
99.6832 33.6668 110.989
137.041 121.44 51.4952
121.019 68.0864 52.1003
136.889 53.9085 111.749
132.715 46.3157 111.514
111.794 82.7002 38.3817
83.0081 33.8328 99.7209
145.818 113.573 83.1905
117.639 158.969 76.5076
133.192 108.65 43.2213
94.1165 43.9917 55.2022
133.452 72.112 65.9904
46.3886 106.045 36.8743
112.838 67.3942 50.1754
126.637 152.339 94.081
145.837 128.235 71.7628
100.25 25.3699 95.3483
92.557 131.234 30.2622
126.544 73.1809 50.2957
124.035 133.877 126.837
92.0591 31.3834 72.1188
129.116 51.7809 125.282
109.925 151.521 47.233
147.021 114.831 98.6723
141.336 126.625 118.525
78.0264 150.278 41.5831
83.9973 87.302 29.0653
143.076 111.122 119.726
112.272 94.728 35.6299
90.3386 38.5151 57.1897
128.097 156.072 81.5359
134.502 148.9 64.2002
90.5416 110.506 29.1176
99.9842 26.3818 103.872
129.233 139.104 118.383
138.446 132.786 117.906
131.51 43.8863 99.021
106.673 34.8524 116.107
147.01 82.5479 96.0607
118.675 42.2628 124.337
127.309 133.042 43.9678
144.77 103.37 74.1076
117.261 101.167 141.859
82.8304 100.165 28.1295
133.178 62.7545 70.5925
137.494 132.93 60.9505
83.3972 27.3824 89.8361
123.602 99.2371 41.9884
88.7278 107.589 113.242
139.02 77.3315 69.0224
136.024 53.9491 88.0175
136.818 106.566 49.7774
142.334 78.1731 125.622
118.468 55.5341 130.269
115.195 61.539 54.6977
108.894 40.4619 76.0483
135.506 75.8373 134.499
133.355 92.5824 137.99
90.1486 159.983 73.5133
121.815 63.7211 57.1905
94.9994 161.92 53.8076
147.438 89.2349 106.044
102.369 100.492 128.472
122.038 145.07 50.7022
97.6643 46.525 115.449
141.438 86.3066 124.728
127.312 59.2858 69.5017
146.959 105.779 102.781
100.922 151.174 104.79
131.184 66.9824 132.249
102.582 41.2773 120.803
108.894 160.731 85.2793
139.595 93.5597 139.935
101.306 144.642 112.227
85.0319 127.295 93.6445
132.928 77.8752 60.7028
101.225 129.643 31.1684
138.414 142.812 96.7158
122.629 162.746 69.9862
124.529 69.4742 136.928
84.5147 42.4169 54.6625
95.4606 152.951 43.9867
61.088 42.5828 87.5811
122.776 36.5227 109.027
107.541 162.728 66.1135
117.86 138.75 120.868
130.058 51.4954 92.0367
142.313 132.732 78.1543
94.1624 78.268 35.0529
105.897 68.0635 46.7863
125.966 138.817 50.0074
146.747 81.5866 102.476
75.3792 152.112 80.1521
134.722 116.912 44.0841
93.8036 164.186 76.3161
148.398 102.629 90.2147
113.543 56.5404 57.8257
120.145 129.942 39.9654
42.9373 82.1397 43.9438
103.247 55.529 49.5429
144.622 104.64 128.101
123.085 48.0403 124.487
93.886 138.062 109.031
70.1555 46.5136 96.3484
114.303 51.4673 62.5468
90.5097 48.9175 49.5277
100.884 102.948 33.2829
68.1115 155.997 63.1896
46.4131 85.9829 72.7392
82.6168 109.605 107.214
119.128 108.718 140.823
71.8292 119.682 28.5912
81.6467 89.6978 100.483
147.418 98.9131 84.5843
71.1004 66.0413 36.2407
50.4068 80.1255 78.1736
108.134 27.7752 92.3134
127.957 119.448 41.9672
85.6909 117.888 118.242
103.381 154.904 46.5713
89.409 94.5441 118.779
104.404 104.755 138.338
66.1982 61.7126 91.7051
106.161 41.497 67.0667
124.182 140.402 119.589
89.4447 94.4604 109.596
105.635 29.6358 84.2502
52.8303 93.4605 80.9497
110.938 40.3427 120.486
135.002 140.716 62.3024
61.7254 50.0599 84.6078
84.3399 65.2547 38.0938
61.2198 86.7249 4.02216
142.01 127.89 86.2023
121.545 157.429 64.5701
72.2391 150.309 43.0709
146.925 110.561 92.5862
103.851 65.9105 129.487
146.284 94.4728 95.4558
116.967 120.154 36.8727
134.427 55.1244 119.978
139.039 99.5152 58.1741
99.9366 156.614 96.7406
144.929 90.8029 82.1935
123.118 146.616 113.318
76.3674 32.9869 63.0342
144.578 68.711 118.968
58.5588 37.6431 61.9391
74.8722 56.1017 42.4295
46.2998 56.3904 64.5458
126.478 108.076 41.8084
105.56 122.827 35.839
94.544 164.655 63.8862
135.723 71.6703 73.3885
138.434 65.6937 87.6162
142.476 90.0036 118.114
45.3052 68.777 62.9667
83.9372 110.265 28.6122
67.3617 94.9229 31.1632
99.3549 36.7468 71.919
147.211 103.646 65.0278
121.843 39.2058 117.25
115.453 159.849 60.3885
123.05 123.595 133.919
60.8503 68.7607 37.0327
133.399 123.205 128.438
113.831 129.087 128.73
90.9374 149.446 40.0531
142.781 64.4462 95.3993
120.56 157.983 83.6322
148.156 95.9306 72.575
52.2711 136.493 44.9652
122.098 139.275 44.5493
92.3271 53.7699 44.0088
125.054 42.8732 92.0473
90.3662 130.882 110.297
111.976 40.0544 69.7493
105.147 124.48 127.259
76.4143 81.0327 96.0897
140.5 141.149 85.1642
146.166 122.867 78.9831
128.744 40.2087 112.595
93.7827 28.9028 99.9354
101.262 64.1574 42.4758
136.654 59.6597 83.5017
97.7554 26.7811 87.4864
73.8881 41.1648 52.5431
94.7586 36.51 116.374
118.233 109.884 38.6113
84.1853 151.88 43.6092
99.425 161.779 69.8795
134.668 129.078 123.265
111.613 35.1394 83.5285
116.031 84.4332 139.388
120.496 49.6905 72.8726
106.406 131.926 125.626
132.298 151.955 74.9935
115.577 49.9382 127.876
107.953 144.153 113.77
102.922 159.785 52.2625
108.707 151.548 104.103
106.213 77.9652 40.9905
91.2995 69.1852 37.5892
141.671 137.884 72.2116
139.292 113.914 132.792
100.991 88.2513 34.1874
138.069 93.4897 52.9134
69.0062 37.4152 85.3748
83.4467 55.409 42.8536
140.742 133.868 108.502
97.3589 145.785 37.0864
78.2252 106.709 98.9946
59.5564 59.5919 87.5534
115.548 29.0658 95.9105
116.753 123.327 134.648
79.8531 122.758 29.6085
121.056 151.983 56.2582
78.7435 53.5025 108.97
113.085 47.2246 71.1554
84.7084 25.1761 81.6954
127.651 154.14 66.4058
100.71 118.096 33.9811
139.661 63.4192 121.764
75.7678 97.5521 94.2956
122.098 146.933 103.307
120.7 38.5891 87.2314
89.1252 26.0683 95.6459
136.864 67.1135 77.7444
99.3978 161.858 89.0234
127.529 111.502 139.6
120.588 166.942 101.445
107.795 58.302 57.0406
95.6337 107.578 34.0593
65.4436 77.0339 89.7932
60.3713 39.8219 80.1683
78.6125 38.4923 58.0735
113.574 147.318 42.2338
97.244 108.961 124.146
146.324 117.132 72.6154
89.0178 24.9072 59.537
40.5556 92.2121 43.1002
81.7315 129.897 29.2782
88.5064 163.381 63.0337
99.4084 30.6459 79.3729
97.7895 128.215 118.098
116.627 39.7503 76.6727
88.9496 153.212 47.7371
148.163 82.009 83.1202
103.807 84.2848 37.9498
77.6035 109.29 28.6945
146.951 100.989 112.483
138.513 65.0678 114.049
113.092 159.146 96.182
72.7672 30.0578 76.6878
60.5015 97.8243 2.86054
138.129 144.983 78.0118
84.4111 97.4441 101.549
104.325 88.7962 130.359
135.035 137.706 111.477
59.1293 87.9879 30.3171
115.922 137.01 39.5039
67.3482 50.2836 43.6251
60.0689 53.6586 44.3058
105.073 96.016 35.47
142.297 94.948 69.3633
81.6939 46.372 47.6548
61.5297 43.8164 56.0451
106.605 158.451 97.645
111.56 60.4797 129.426
47.5019 59.8703 55.2287
65.4701 48.0767 49.3678
64.1837 74.4458 34.0034
115.081 159.408 90.511
142.964 58.5939 107.664
66.8733 98.9737 89.6649
119.025 153.213 95.6844
142.736 105.648 55.3586
92.4392 28.8654 83.0959
92.5906 161.15 84.2051
138.764 85.9991 134.496
106.63 134.39 36.0651
66.947 111.026 26.8585
128.34 122.069 131.053
103.054 149.934 41.8565
112.805 164.515 80.0954
76.4644 31.2411 90.7313
75.2807 102.453 31.0593
130.995 134.567 122.271
90.4502 94.9141 34.4124
141.998 78.7753 110.838
44.3322 88.8922 35.7684
146.229 71.5257 107.939
78.9732 96.842 33.3671
112.507 103.521 34.6245
140.891 118.265 127.966
120.769 74.9752 47.9695
80.8444 148.912 86.319
120.08 91.2987 143.426
101.408 73.9278 40.9179
90.1274 159.205 52.4533
124.613 118.346 136.603
144.199 71.1277 93.684
102.146 133.05 118.361
97.2959 85.9603 128.744
60.1399 113.16 83.4728
132.197 100.552 49.1476
53.5187 50.6616 82.0714
140.973 138.384 102.17
93.9981 89.0288 31.2116
94.1264 79.1827 122.936
58.9213 38.6884 73.3501
65.5441 36.1304 65.5983
107.46 69.1889 134.274
99.1642 46.69 60.8582
139.864 113.987 54.3416
77.8637 155.776 48.6411
139.763 121.54 122.191
97.2138 74.5229 131.63
86.8947 34.4441 64.3447
123.653 153.46 88.1964
147.361 93.6984 115.795
118.394 73.6509 138.473
82.7816 142.586 92.4966
43.4986 84.4833 63.3509
90.7245 81.1932 38.628
130.884 92.9557 47.785
43.5372 68.6375 52.7886
105.669 166.302 80.7469
92.0274 139.215 36.5378
125.748 100.201 141.868
99.86 165.389 82.3772
137.532 143.337 70.3614
117.189 34.3668 112.395
105.222 49.1892 60.4205
50.273 72.2447 76.6384
90.8233 155.659 91.8661
104.585 34.9687 78.6999
145.87 84.9261 70.8227
117.036 147.023 113.419
49.6616 61.0497 45.7871
74.7046 47.9639 45.7248
48.0538 75.6535 70.1888
72.1969 145.042 37.8773
72.856 152.006 72.2811
122.51 115.704 40.3132
136.443 103.646 135.598
129.614 82.1106 137.143
144.076 120.633 91.5382
116.519 63.0508 135.785
52.1134 67.9582 38.787
128.509 43.4688 120.113
130.507 77.1861 53.7683
105.419 94.1887 134.945
102.077 117.127 130.222
118.292 150.635 50.0576
70.9757 32.5099 69.0209
91.828 125.337 115.636
67.5531 33.5549 79.3214
89.1176 100.873 115.216
97.7354 142.386 104.87
54.8149 76.0839 83.4921
71.8064 84.3916 32.4766
65.7806 153.442 70.1539
147.596 99.6236 104.762
103.28 77.9935 135.07
72.4193 157.714 54.2294
114.915 164.572 67.9483
131.242 59.4037 78.2512
52.2852 131.622 37.482
142.271 114.792 65.7161
68.9496 38.5666 91.921
104.923 58.0197 128.761
83.627 78.1594 33.6756
131.736 117.763 138.307
67.3752 36.487 58.5348
81.8272 159.447 54.5039
140.725 74.2673 82.6607
144.13 108.433 112.058
51.1587 62.8061 76.7923
135.061 85.5567 51.2493
147.028 120.366 102.34
125.906 127.851 132.139
60.5129 153.312 56.6819
128.43 105.404 141.705
143.797 88.474 76.501
138.488 56.6196 101.674
65.6472 102.782 30.1556
142.782 128.239 62.8884
75.0908 134.543 30.1873
81.8549 154.788 84.3936
112.443 73.5293 136.054
74.092 92.1901 32.6641
83.5657 163.157 69.3606
128.124 52.7608 83.4223
109.636 143.124 37.7599
95.4354 119.889 30.614
107.669 30.3921 102.658
125.085 125.001 42.9803
90.9631 74.0772 119.877
133.68 146.149 85.3829
126.922 85.5466 141.896
55.7041 126.022 77.909
111.898 122.739 133.345
95.135 39.9188 64.6681
88.1604 121.906 30.1841
63.5294 144.837 39.8157
119.497 114.507 138.491
142.909 64.3528 109.315
108.905 81.6095 136.554
93.7402 90.1284 122.097
137.088 109.892 138.243
143.585 89.0535 63.7129
73.8013 133.661 84.2383
73.2264 144.59 83.5214
74.3056 51.8226 101.548
59.2048 96.2902 26.7544
78.7723 125.477 102.053
81.0144 158.666 64.0944
92.2762 106.408 121.741
78.659 85.6417 31.6237
106.049 62.4713 52.2514
135.323 48.96 102.846
125.247 55.2991 75.5674
87.6757 35.6605 107.994
57.8679 67.847 84.3496
95.2057 48.6679 121.694
141.936 130.395 112.595
127.099 75.2368 137.657
56.8738 102.646 30.5774
97.9683 135.413 32.9556
95.8294 117.102 121.732
111.841 44.2158 126.071
45.4801 96.8907 33.2605
103.999 162.093 57.8126
125.414 59.4283 131.854
67.9098 152.874 45.738
43.634 94.4184 56.8026
68.8472 68.5517 92.7845
78.6828 26.4803 76.8604
97.7661 62.9717 125.702
124.801 45.6423 85.175
86.1394 88.3427 107.502
81.7187 157.702 78.5871
86.3874 150.117 90.5432
78.026 45.4242 107.303
84.0788 133.148 99.953
82.0694 79.4236 105.101
101.474 135.495 111.51
108.071 99.5652 139.284
95.0891 93.3362 129.276
43.5025 111.806 56.7481
110.237 117.075 35.3298
143.31 106.762 133.944
140.394 71.9923 124.2
70.2313 123.503 93.6861
67.8342 124.454 85.22
85.5118 122.228 113.386
142.942 95.456 61.549
144.945 73.6003 88.4477
140.353 88.074 57.163
103.633 165.017 71.7368
139.451 81.2734 63.9374
113.73 155.093 104.995
147.065 77.9736 54.5489
50.9911 51.6099 54.8984
109.679 164.779 72.3009
65.232 84.7306 30.4349
78.98 125.893 93.4965
141.525 131.572 93.4233
109.195 111.3 138.257
107.561 50.6622 128.607
79.5302 143.285 84.6234
96.5971 68.7317 40.5903
130.659 126.699 48.0461
129.428 131.636 127.647
126.922 37.623 102.301
90.7586 45.6224 116.475
145.269 98.7862 122.874
82.9962 139.977 33.382
50.0792 57.2099 73.1288
129.326 144.271 111.665
103.066 141.556 35.4441
64.771 94.0905 87.4191
135.129 99.8112 139.498
62.643 119.207 87.8346
123.834 61.5212 65.2452
68.1955 148.229 74.274
50.3366 124.793 59.4589
69.9486 148.293 79.5187
61.7826 134.385 83.5673
59.8763 151.066 49.1621
106.214 163.259 110.822
137.356 129.542 53.172
85.6322 44.5513 111.517
78.1477 145.914 36.4888
122.23 46.1815 77.6198
116.421 75.4345 43.6557
88.4401 58.942 41.5255
119.44 93.6765 39.6482
59.3932 117.632 27.8573
52.3511 137.652 62.833
110.464 129.661 36.24
85.7071 101.117 107.689
70.9074 106.575 27.9788
128.845 148.09 58.3522
42.0758 77.3319 64.1697
91.0826 112.912 120.721
121.031 57.0617 67.9177
51.4221 100.756 78.5505
56.6472 110.283 29.3306
78.5498 74.9955 36.5639
55.9018 148.586 54.3843
118.263 135.7 126.496
135.91 142.768 106.206
97.6513 52.7267 48.3465
85.1338 67.6181 113.529
52.9727 44.4181 68.2668
145.571 81.5354 115.791
143.295 110.882 59.976
110.938 74.8128 43.9641
38.761 85.8691 57.6904
114.182 145.695 117.352
99.7647 51.1509 55.7704
94.6227 122.379 121.503
141.83 120.392 59.216
119.325 103.12 38.1698
73.6286 75.7601 35.0565
111.064 29.919 110.804
56.2359 79.7757 34.988
95.4653 66.1366 129.981
141.699 126.997 100.032
111.144 137.008 124.234
84.5808 61.2225 114.083
90.0128 65.6722 120.888
120.055 163.119 108.46
102.936 48.0217 123.548
104.237 160.811 90.4241
61.5053 100.18 84.6118
53.4522 93.6038 31.9247
40.5066 77.7718 50.0166
130.824 148.232 97.6587
73.6839 59.2374 103.471
43.2808 93.2317 69.3781
49.4335 88.5589 78.8204
108.967 108.264 37.1856
70.3163 140.264 80.8759
115.282 149.706 105.094
69.293 130.497 90.4084
75.0527 90.0572 95.4844
117.476 59.9653 62.4178
86.216 28.6744 73.7747
82.7033 136.297 94.8072
126.552 68.9112 58.5807
125.421 68.6004 64.2178
73.0625 139.768 34.2419
130.633 144.273 91.3972
66.8057 136.337 31.08
109.42 49.1623 63.394
89.0092 84.2201 121.051
51.0205 133.335 66.1774
66.3522 61.9489 98.866
121.414 153.675 106.381
139.707 95.4365 132.763
96.4715 132.565 113.029
78.3121 61.9192 106.938
118.994 36.451 94.122
145.86 106.81 81.4768
78.0267 39.6472 103.318
72.7866 80.2903 91.6801
108.157 118.564 134.042
86.4773 129.782 32.8931
131.793 98.7071 43.7125
45.7454 116.179 34.157
120.996 86.3047 40.1156
116.197 53.2736 68.6099
61.7674 53.0793 91.0721
62.3969 88.209 89.8278
142.629 76.3863 74.6588
48.4526 132.174 44.412
78.3424 64.0755 40.8028
58.6141 61.2393 44.1873
65.2364 63.1492 37.199
57.3243 130.934 30.0464
97.7195 54.0282 126.429
117.463 40.2356 82.069
50.9769 108.525 72.7456
80.5678 130.242 96.7511
90.5153 139.457 100.179
48.4547 130.942 58.2923
51.0223 109.285 65.8377
47.8379 125.013 38.8007
76.2617 69.1597 106.339
53.6708 47.4347 76.487
77.3113 134.666 90.0533
137.35 57.0889 93.9274
43.6787 118.407 43.2858
60.22 151.752 63.8847
113.05 124.876 37.5568
75.4906 40.4308 97.7981
128.27 92.0335 141.123
49.349 111.25 30.4966
141.669 96.5199 126.637
95.0638 156.833 94.7111
61.5717 89.6677 84.0322
43.9832 121.67 53.105
87.1153 143.032 36.5842
50.736 115.227 64.1107
143.087 123.019 110.672
102.129 41.5655 63.2539
84.5171 75.8418 115.084
101.657 108.522 130.756
63.886 81.4933 95.0258
54.7195 49.1448 63.7223
56.2692 59.3122 82.6705
46.4422 98.3934 73.924
104.343 111.678 35.7273
74.2334 157.458 63.7832
83.0172 53.0076 115.427
53.6906 81.0266 85.7719
51.6684 122.614 32.9437
57.3525 141.327 65.1453
57.3108 128.715 73.6233
45.6846 62.7946 67.6132
66.5229 128.64 34.6698
112.488 94.7202 146.397
69.5248 67.2502 101.569
106.694 140.881 119.284
58.6924 142.634 39.7607
57.216 146.687 66.2704
40.4526 110.551 41.2209
58.245 119.328 78.4448
55.898 47.7886 55.3024
78.9608 157.516 73.7488
54.0362 85.8873 83.2157
40.915 97.9747 66.5437
46.0284 93.0924 75.054
68.5444 87.8714 93.8532
44.6492 101.554 67.7765
90.4115 99.6571 123.798
45.8771 127.606 46.2128
39.482 75.2811 56.917
59.64 82.2526 89.9211
92.596 149.444 97.4517
79.5611 29.5164 69.2538
87.1119 157.957 82.6806
80.4978 120.445 106.04
42.0676 103.93 48.4248
50.9019 120.349 63.8254
82.2001 69.8519 105.437
61.8129 70.9519 90.0152
53.0965 143.598 52.9112
128.432 146.413 106.886
65.4792 148.451 46.7305
47.0836 119.612 58.0482
90.6301 53.6553 121.549
56.7727 110.355 74.7705
57.0167 139.347 73.2391
55.8973 137.514 36.356
58.2927 133.534 76.1534
54.52 143.283 46.1549
41.9673 93.6135 62.6306
85.5104 140.068 96.9822
42.1064 101.99 60.8884
42.0288 97.267 49.6102
144.395 70.7614 101.998
71.5378 56.2449 98.135
51.1928 85.6088 1.8713
100.688 122.829 125.095
73.4727 129.209 93.0961
69.7971 92.9071 92.0457
60.8014 121.304 82.9522
54.8627 115.649 74.3334
76.1145 141.251 90.835
87.3158 83.1655 114.67
113.818 109.129 139.529
60.2524 127.12 85.2438
53.0596 118.195 69.4683
41.7678 109.99 47.2388
43.9622 107.245 62.9246
50.4253 123.937 67.8423
64.8863 128.559 81.2496
45.2695 106.286 58.8038
61.2068 138.382 76.9625
38.4578 104.208 52.6662
62.7049 136.976 37.6687
56.063 104.66 79.9644
65.1885 51.0033 96.954
74.5302 122.341 97.2578
83.7657 131.689 105.802
44.4597 75.4901 40.0183
51.695 127.933 68.0771
95.9274 103.746 128.547
55.2064 99.9316 84.6166
71.3695 74.4221 101.622
50.8714 134.303 55.4017
63.3353 148.021 69.9856
80.7535 163.578 95.8344
41.7245 116.822 38.3192
123.339 86.0728 44.2919
63.4175 143.359 72.7108
47.6302 105.027 70.4795
68.7344 126.323 28.5614
100.293 162.781 110.684
53.3229 131.788 71.5513
42.273 98.834 37.5546
46.0449 113.599 66.1072
59.5802 104.574 86.7565
45.8247 69.2505 43.1424
50.3442 139.145 53.8586
46.6587 80.5178 36.261
74.5457 79.0312 105.162
58.5695 110.652 79.5232
41.1171 117.805 50.3674
58.2933 124.019 28.1227
64.8885 138.673 81.0259
84.9584 140.199 104.283
114.603 169.593 102.725
48.9732 82.1383 30.7563
125.444 89.5654 40.9063
54.936 141.511 59.5521
94.6062 150.765 104.019
91.401 58.2096 122.904
87.6287 52.8981 117.624
86.1238 79.6674 108.327
56.6577 121.606 72.786
113.389 166.377 103.465
63.4795 123.628 26.8376
79.1732 71.7279 111.359
51.6565 137.723 71.6386
53.9708 114.455 28.2228
61.0879 111.41 28.1967
40.776 155.682 56.0972
77.9134 137.481 96.5136
